0	0	0	0	0	0	0	0	0	0	0	0	0	0	0	0	0	0	0	0	0	0	0	0	0	0	0	0	0	0	0	0	0	0	0	0	719	719	719	720	722	722	723	723	723	722	722	722	722	720	720	719	719	720	720	722	722	722	722	722	720	720	720	720	720	720	720	722	722	722	723	723	723	723	725	726	726	726	726	728	728	728	728	728	729	729	731	731	731	731	731	731	731	732	732	732	734	734	734	734	736	736	736	734	731	731	725	725	725	725	725	726	726	728	728	729	729	731	731	732	732	732	731	731	731	731	731	731	731	732	734	734	737	737	739	740	740	742	742	891	891	891	891	894	894	894	896	896	898	898	0	732	734	734	734	736	736	737	739	739	739	739	740	740	742	742	747	748	750	750	750	752	752	752	910	910	910	913	913	913	915	915	917	917	917	917	917	920	920	920	920	920	920	920	920	922	922	922	922	925	925	925	925	927	927	930	930	930	930	932	932	932	932	932	932	935	935	935	935	937	937	937	940	940	940	940	940	940	942	942	942	942	942	942	942	942	945	945	945	945	948	948	948	948	948	950	950	950	953	953	953	0	0	791	791	791	791	789	788	786	786	786	786	786	784	784	784	786	786	0	0	0	626	625	625	625	624	623	622	622	622	622	623	624	624	625	625	626	626	627	627	629	631	631	632	633	634	634	635	636	638	638	638	639	639	0	582	582	582	581	581	581	581	581	580	579	579	578	575	574	574	573	572	571	571	568	568	567	567	566	566	565	565	564	564	561	561	561	560	560	561	561	560	560	560	560	561	560	560	560	560	560	560	560	560	561	562	562	563	563	564	564	565	565	566	566	567	568	569	570	570	571	572	574	575	577	578	578	578	0	0	0	0	0	0	761	755	755	755	755	755	755	755	755	755	755	755	755	755	755	755	755	755	755	753	752	752	752	752	752	752	752	752	752	750	750	750	748	748	748	747	747	747	747	748	748	748	748	747	747	747	747	747	747	747	747	747	745	745	745	743	743	743	743	743	743	743	743	743	743	742	742	742	743	743	742	742	742	742	740	740	740	740	740	740	742	742	742	743	743	742	742	742	742	742	742	742	0	0	0	0	0	0	0	0	0	0	0	0	0	0	0	0	0	0	0	0	0	0	0	0	0	0	0	0	0	0	0	0	0	0	0	0	0	0	0	0	0	0	0	0	0	0	0	0	0	0	0	0	0	0	0	0	0	0	0	0	0	0	0	0	0	0	0	0	0	0	0	0	0	0	0	0	0	0	0	0	0	0	0	682	682	682	682	684	684	684	684	684	684	686	686	686	686	686	687	687	689	690	691	691	693	693	693	694	695	697	697	698	698	698	701	704	704	707	710	710	711	713	713	713	711	711	711	711	710	710	710	710	710	710	711	711	711	713	714	714	714	714	714	714	714	0	0	0	0	0	0	0	0	0	0	0	0	0	0	0	0	0	0
0	0	0	0	0	0	0	0	0	0	0	0	0	0	0	0	0	0	0	0	0	0	0	0	0	0	0	0	0	0	0	0	0	0	0	0	722	722	722	722	723	723	723	723	723	723	723	723	723	723	722	722	722	722	722	723	723	723	722	722	722	722	722	722	722	722	722	722	722	723	723	725	725	725	726	726	726	726	726	728	728	728	728	729	729	729	731	731	731	731	731	731	731	732	732	734	734	734	736	736	736	736	736	736	731	728	726	725	725	725	725	726	726	728	728	729	729	729	731	732	732	734	732	732	731	731	731	731	731	732	734	734	737	737	739	740	740	742	742	0	891	891	891	894	894	896	898	898	898	901	901	0	734	734	734	736	736	737	739	739	739	740	740	742	742	742	745	747	748	750	750	752	752	752	752	753	913	913	915	917	917	917	917	917	920	920	920	920	920	920	920	922	922	922	922	922	925	925	925	925	925	927	927	927	930	930	930	930	932	932	932	932	935	935	935	935	937	937	937	937	940	940	940	940	940	940	940	942	942	942	942	945	945	945	945	945	945	948	948	948	948	948	948	950	950	950	950	953	953	953	953	0	0	791	789	789	789	788	786	786	786	784	784	784	784	784	784	784	784	784	0	0	626	626	626	625	624	623	622	622	622	622	623	624	624	625	625	625	626	626	627	629	631	631	632	633	634	634	635	636	638	638	638	639	639	0	582	582	582	582	582	582	581	581	580	580	579	579	576	575	575	574	573	572	571	569	568	568	567	567	566	566	565	564	564	564	561	561	561	561	561	561	561	561	561	561	561	561	560	560	561	561	561	561	561	562	562	562	563	563	564	565	565	565	566	567	568	568	569	570	570	571	572	574	575	577	578	578	578	0	0	0	0	0	0	0	752	752	752	753	753	753	753	753	753	753	753	753	753	753	753	753	753	752	752	752	750	750	748	748	750	750	748	748	748	748	748	748	748	747	747	747	747	747	747	747	745	745	745	745	745	745	743	743	743	743	743	743	742	742	742	742	743	742	742	742	742	742	742	742	742	742	742	742	742	740	740	740	740	740	740	740	739	739	740	740	740	740	740	740	740	740	740	740	742	742	0	0	0	0	0	0	0	0	0	0	0	0	0	0	0	0	0	0	0	0	0	0	0	0	0	0	0	0	0	0	0	0	0	0	0	0	0	0	0	0	0	0	0	0	0	0	0	0	0	0	0	0	0	0	0	0	0	0	0	0	0	0	0	0	0	0	0	0	0	0	0	0	0	0	0	0	0	0	0	0	0	0	0	0	682	682	682	682	683	683	683	683	684	684	684	686	686	686	687	687	687	689	690	691	693	693	694	695	695	697	698	698	700	701	703	704	705	707	708	710	711	711	711	711	711	711	710	710	710	708	708	708	710	710	710	711	711	711	713	713	714	714	714	714	714	714	0	0	0	0	0	0	0	0	0	0	0	0	0	0	0	0	0	0
0	0	0	0	0	0	0	0	0	0	0	0	0	0	0	0	0	0	0	0	0	0	0	0	0	0	0	0	0	0	0	0	0	0	0	0	723	723	722	722	723	725	725	725	725	725	725	725	723	723	723	723	723	723	723	723	723	723	723	723	723	723	723	723	723	723	722	722	723	723	723	725	725	726	726	726	728	728	728	728	728	728	728	729	729	729	731	731	731	731	732	732	732	734	734	734	734	736	736	736	736	736	737	737	734	731	728	725	725	726	726	726	728	728	729	729	729	729	731	732	732	734	734	734	732	731	731	731	732	732	734	734	736	737	739	740	740	742	742	742	0	891	894	894	896	898	898	898	901	901	903	903	903	734	734	736	736	737	739	739	740	740	740	742	742	742	745	747	748	750	750	752	752	752	753	753	913	915	917	917	917	920	920	920	920	920	922	922	922	922	922	925	925	925	925	925	927	927	927	927	927	927	927	930	930	930	930	932	932	932	935	935	935	935	935	937	937	940	940	940	940	940	940	940	942	942	942	942	942	942	945	948	945	945	945	948	948	948	948	950	948	950	950	950	950	950	953	953	955	955	958	958	0	791	788	788	786	786	784	784	784	784	784	784	782	782	782	782	782	782	0	0	0	631	626	625	624	623	622	622	622	622	623	624	624	625	625	625	626	626	627	629	629	631	632	633	634	634	634	636	636	638	638	639	639	639	582	583	583	582	582	582	581	581	580	580	580	579	578	577	576	575	574	572	571	570	570	569	567	567	567	567	566	566	564	564	562	562	562	562	561	561	562	562	562	562	561	561	561	561	561	561	561	561	561	562	562	562	563	564	564	565	565	566	567	568	569	569	569	570	570	571	574	575	578	578	579	579	579	0	0	0	0	0	0	750	750	750	752	752	752	752	752	752	752	750	750	750	752	752	750	750	750	750	750	750	748	747	747	747	748	748	748	748	748	748	748	748	748	745	745	745	745	745	745	745	745	745	743	743	745	745	743	742	742	742	742	742	742	742	742	742	742	740	740	740	740	740	740	740	740	740	740	740	740	739	739	739	739	739	739	739	737	737	739	739	739	739	736	736	740	740	740	740	740	742	0	0	0	0	0	0	0	0	0	0	0	0	0	0	0	0	0	0	0	0	0	0	0	0	0	0	0	0	0	0	0	0	0	0	0	0	0	0	0	0	0	0	0	0	0	0	0	0	0	0	0	0	0	0	0	0	0	0	0	0	0	0	0	0	0	0	0	0	0	0	0	0	0	0	0	0	0	0	0	0	0	0	0	0	682	682	682	682	682	683	683	683	684	684	684	686	686	686	687	687	689	689	691	691	693	694	694	697	697	698	700	700	703	703	704	705	707	708	708	710	710	711	710	710	710	710	708	708	708	707	707	705	707	707	708	708	710	710	711	711	711	711	713	713	713	714	0	0	0	0	0	0	0	0	0	0	0	0	0	0	0	0	0	0
0	0	0	0	0	0	0	0	0	0	0	0	0	0	0	0	0	0	0	0	0	0	0	0	0	0	0	0	0	0	0	0	0	0	0	0	723	723	723	723	723	725	725	725	725	725	725	725	725	723	723	723	723	725	725	725	725	725	725	725	725	723	723	723	723	723	723	723	725	725	726	726	726	726	726	728	728	728	728	728	729	729	729	729	729	729	731	731	731	731	732	732	732	734	734	734	736	736	736	736	736	736	737	739	737	736	731	728	726	726	726	728	728	728	729	729	729	731	731	732	732	734	734	734	732	731	731	731	732	734	734	734	736	737	739	740	740	742	742	743	743	0	898	898	898	901	901	901	901	901	903	903	903	903	903	736	736	739	739	740	740	740	742	742	742	742	745	747	748	750	752	752	753	753	753	753	753	917	917	917	920	920	920	920	922	922	922	922	922	925	925	925	927	927	927	927	930	930	930	930	930	930	930	932	932	932	935	935	935	935	935	935	935	937	937	937	940	940	940	940	940	940	942	942	942	942	942	945	945	945	948	948	948	948	948	948	948	950	950	950	950	950	950	950	950	953	953	955	958	958	958	958	0	0	788	788	784	782	782	782	782	782	782	782	780	780	779	779	779	779	779	0	0	631	629	626	625	624	623	622	622	622	623	623	624	624	625	625	626	626	627	629	629	631	632	633	634	634	634	635	636	638	638	639	639	639	0	583	583	583	583	582	581	581	580	580	580	579	579	578	578	576	575	575	572	571	571	570	570	570	570	568	568	568	567	566	563	563	563	563	563	563	563	563	563	563	563	563	562	562	562	561	561	561	561	562	562	562	563	564	565	565	565	567	567	568	569	570	570	570	570	572	576	578	579	579	580	580	580	0	0	0	0	0	0	750	750	750	750	750	750	750	750	750	750	748	748	748	748	750	748	748	750	750	750	748	748	747	747	747	747	747	747	747	747	747	747	747	747	745	743	743	743	743	743	743	743	743	742	742	743	743	742	742	740	740	742	740	740	740	740	740	740	740	740	739	739	739	739	740	740	739	739	739	737	737	736	736	737	737	737	737	736	736	736	736	736	737	734	734	736	740	740	740	740	0	0	0	0	0	0	0	0	0	0	0	0	0	0	0	0	0	0	0	0	0	0	0	0	0	0	0	0	0	0	0	0	0	0	0	0	0	0	0	0	0	0	0	0	0	0	0	0	0	0	0	0	0	0	0	0	0	0	0	0	0	0	0	0	0	0	0	0	0	0	0	0	0	0	0	0	0	0	0	0	0	0	0	0	0	680	680	682	682	682	683	683	683	683	684	684	686	686	686	687	689	689	690	691	693	694	695	695	697	698	698	701	701	704	704	705	707	707	708	708	708	708	708	708	708	707	707	705	705	705	705	704	704	705	707	707	707	707	708	708	710	711	711	713	713	713	714	0	0	0	0	0	0	0	0	0	0	0	0	0	0	0	0	0	0
0	0	0	0	0	0	0	0	0	0	0	0	0	0	0	0	0	0	0	0	0	0	0	0	0	0	0	0	0	0	0	0	0	0	0	0	725	723	723	723	725	725	725	725	725	725	725	725	725	725	725	725	725	725	725	726	726	726	726	726	725	725	725	725	725	725	725	725	726	726	728	728	728	728	728	728	728	728	728	729	729	729	729	731	731	731	732	732	732	732	732	734	734	734	736	736	736	736	736	736	737	737	739	739	739	739	739	729	728	728	728	729	728	728	729	729	729	731	731	732	734	734	734	734	734	734	734	732	732	734	734	734	736	737	739	740	740	742	742	743	743	0	898	901	901	901	901	901	901	901	903	903	903	905	905	0	0	740	740	740	740	742	742	742	742	743	745	747	748	750	752	752	753	753	753	753	753	917	917	917	920	920	920	922	922	922	922	922	925	925	925	927	927	927	927	930	930	930	930	930	932	932	932	932	935	935	935	937	937	937	937	937	937	940	940	940	940	940	940	942	942	942	942	942	942	945	945	945	948	948	948	950	948	948	948	948	948	950	950	950	950	950	953	953	953	953	955	955	958	958	958	958	0	0	788	788	784	780	780	780	780	780	780	780	780	779	779	777	777	777	775	775	0	0	629	625	625	625	623	623	622	622	623	623	624	624	625	625	625	626	627	629	631	631	632	633	633	634	634	635	636	638	638	639	639	639	0	583	583	584	584	583	583	581	581	580	580	579	579	579	579	579	576	575	573	572	571	571	571	570	570	570	569	568	567	566	565	564	564	563	563	563	563	563	563	563	564	564	563	563	563	563	563	562	562	562	563	563	563	564	565	565	565	567	567	568	569	570	571	571	573	575	576	578	579	580	581	581	581	0	0	0	0	0	0	750	748	748	748	750	750	750	750	750	748	748	747	747	747	748	748	748	748	748	748	747	747	745	745	745	745	745	745	745	745	745	745	745	745	743	742	742	742	742	742	742	742	742	742	742	742	742	740	740	740	740	740	739	739	739	739	739	739	739	739	739	737	737	739	739	739	737	737	737	737	736	736	736	736	736	736	736	736	736	736	736	736	736	734	734	736	736	740	0	0	0	0	0	0	0	0	0	0	0	0	0	0	0	0	0	0	0	0	0	0	0	0	0	0	0	0	0	0	0	0	0	0	0	0	0	0	0	0	0	0	0	0	0	0	0	0	0	0	0	0	0	0	0	0	0	0	0	0	0	0	0	0	0	0	0	0	0	0	0	0	0	0	0	0	0	0	0	0	0	0	0	0	0	0	680	680	680	682	682	682	683	683	683	683	684	684	686	686	687	687	689	690	690	691	693	694	694	697	698	700	700	703	703	705	705	705	707	707	707	708	708	708	708	707	707	705	705	705	705	705	704	703	703	704	705	705	705	705	707	707	710	710	704	704	705	705	705	0	0	0	0	0	0	0	0	0	0	0	0	0	0	0	0	0	0
0	0	0	0	0	0	0	0	0	0	0	0	0	0	0	0	0	0	0	0	0	0	0	0	0	0	0	0	0	0	0	0	0	0	0	0	725	725	725	725	725	725	725	725	726	726	726	726	726	726	726	726	726	726	726	726	726	726	726	728	726	726	726	726	726	726	726	726	726	728	728	728	729	729	729	729	729	729	729	729	731	731	731	732	732	732	732	732	732	732	732	734	734	734	736	736	736	736	736	737	737	739	740	740	740	740	740	740	729	729	729	729	729	729	729	729	729	731	731	732	734	734	736	736	736	736	736	734	734	734	734	736	736	737	739	739	740	742	742	742	742	742	0	901	901	901	901	901	901	903	903	903	905	905	905	905	0	740	740	740	742	742	742	743	743	743	745	747	748	750	752	752	753	753	753	753	756	920	920	920	920	920	920	922	922	922	922	925	925	927	927	927	930	930	930	930	930	930	932	932	932	932	932	935	935	937	937	937	937	937	940	940	940	940	940	940	942	942	942	942	942	942	945	945	945	945	948	948	948	950	950	950	948	948	950	950	950	953	953	953	955	955	953	953	953	955	955	958	958	958	958	961	961	0	0	788	780	780	779	779	777	777	777	777	777	775	775	775	775	775	775	773	773	0	0	625	625	625	624	624	623	623	623	623	624	624	625	625	625	626	627	629	629	631	632	632	633	633	634	635	636	638	638	639	639	640	640	641	641	584	585	584	583	583	581	580	580	580	579	579	579	579	578	575	575	573	572	572	572	571	571	570	570	569	567	567	566	566	565	564	564	564	564	564	564	564	564	565	565	563	563	563	563	563	563	563	563	563	564	564	565	567	567	568	568	569	570	570	571	571	573	575	578	579	579	581	581	581	581	0	0	0	0	0	0	0	748	748	748	748	748	748	748	748	747	747	745	745	745	745	745	745	745	745	745	745	745	743	743	743	743	743	743	743	743	743	743	743	743	742	742	740	739	739	739	739	739	739	739	739	739	740	739	739	739	739	739	739	739	739	737	737	737	737	737	737	736	736	737	737	736	736	736	736	736	734	734	734	734	734	734	734	734	734	734	734	734	734	734	734	736	736	0	0	0	0	0	0	0	0	0	0	0	0	0	0	0	0	0	0	0	0	0	0	0	0	0	0	0	0	0	0	0	0	0	0	0	0	0	0	0	0	0	0	0	0	0	0	0	0	0	0	0	0	0	0	0	0	0	0	0	0	0	0	0	0	0	0	0	0	0	0	0	0	0	0	0	0	0	0	0	0	0	0	0	0	0	0	0	680	680	680	680	680	680	682	682	683	683	684	686	686	687	687	690	690	691	693	693	694	697	698	700	701	703	703	704	704	704	704	705	707	707	707	707	707	708	707	705	705	704	704	704	704	704	703	703	701	703	704	705	704	704	704	707	704	704	703	703	704	704	704	0	0	0	0	0	0	0	0	0	0	0	0	0	0	0	0	0	0
0	0	0	0	0	0	0	0	0	0	0	0	0	0	0	0	0	0	0	0	0	0	0	0	0	0	0	0	0	0	0	0	0	0	0	0	725	725	725	726	726	726	726	726	726	726	726	726	728	726	726	726	726	726	728	728	728	728	728	728	728	728	728	728	728	728	726	726	728	728	729	729	731	729	729	729	731	731	731	731	731	731	731	732	732	732	732	732	732	732	734	734	736	736	736	736	736	736	737	737	737	739	739	740	740	740	740	740	742	742	731	731	729	729	729	729	729	731	731	732	734	734	736	736	736	737	737	742	736	736	736	737	737	739	739	740	740	742	742	742	742	742	0	0	901	901	901	901	903	903	903	905	905	905	905	908	908	0	740	742	742	743	743	743	743	745	747	747	748	750	752	752	753	753	755	755	755	758	920	920	920	922	922	922	922	925	925	925	927	930	930	930	930	930	930	930	930	932	932	932	932	935	935	935	937	937	940	940	940	940	940	940	940	940	942	942	942	942	942	942	945	945	945	948	948	948	948	950	950	950	950	953	950	950	950	950	953	953	953	955	955	955	955	955	958	958	958	958	958	961	961	961	961	0	0	0	779	779	777	777	777	777	777	775	775	775	775	773	773	773	773	773	773	773	0	0	625	625	625	625	624	624	624	624	624	625	625	625	625	626	627	627	629	629	631	631	631	633	634	635	636	638	639	639	640	640	640	641	642	645	645	584	584	583	583	580	580	580	580	579	579	579	578	576	576	575	574	574	572	572	572	571	571	570	569	567	567	567	566	565	565	565	565	564	564	565	565	565	565	564	564	564	564	564	563	563	563	564	564	565	566	567	567	568	568	569	570	570	571	571	573	575	578	579	579	581	581	581	581	0	0	0	0	0	0	0	747	747	747	748	748	747	747	747	745	745	745	743	743	743	743	743	743	745	745	743	743	742	742	742	742	742	742	742	742	743	743	743	742	740	740	739	739	739	739	737	737	737	737	737	737	737	737	737	737	737	737	737	737	737	736	736	736	736	736	736	736	736	736	736	736	734	734	734	734	734	732	732	734	734	732	732	732	732	732	732	732	732	734	734	736	736	0	0	0	0	0	0	0	0	0	0	0	0	0	0	0	0	0	0	0	0	0	0	0	0	0	0	0	0	0	0	0	0	0	0	0	0	0	0	0	0	0	0	0	0	0	0	0	0	0	0	0	0	0	0	0	0	0	0	0	0	0	0	0	0	0	0	0	0	0	0	0	0	0	0	0	0	0	0	0	0	0	0	0	0	0	0	0	680	680	680	680	680	682	682	683	683	684	686	686	689	689	690	691	691	693	693	694	695	698	700	701	703	704	704	704	704	704	704	705	705	704	704	705	705	707	705	704	704	704	704	704	704	704	703	701	701	703	701	701	701	703	703	703	703	703	703	703	703	704	705	705	0	0	0	0	0	0	0	0	0	0	0	0	0	0	0	0	0
0	0	0	0	0	0	0	0	0	0	0	0	0	0	0	0	0	0	0	0	0	0	0	0	0	0	0	0	0	0	0	0	0	0	0	0	725	725	726	726	726	726	726	726	728	728	728	728	728	728	728	728	728	728	728	728	729	729	729	729	729	728	728	728	728	728	728	728	729	729	729	731	731	731	731	731	731	731	731	731	731	731	731	732	732	732	734	732	732	732	734	734	736	736	736	736	736	737	737	739	740	740	740	742	742	742	740	740	742	742	742	732	731	731	731	731	731	731	732	732	734	734	736	736	737	739	740	742	740	740	739	739	739	739	740	740	742	742	742	743	743	745	745	0	0	901	901	901	903	903	905	905	908	908	908	908	908	0	0	742	743	743	745	745	745	745	747	747	750	750	752	752	753	753	755	755	758	758	920	922	922	922	922	925	925	925	927	927	930	930	930	930	930	932	932	932	932	932	932	935	935	937	937	937	940	940	940	940	940	940	940	940	940	942	942	942	945	945	945	945	948	948	948	948	948	950	950	950	950	950	950	953	950	950	950	950	953	955	955	955	958	958	958	958	958	958	958	961	961	961	961	966	966	0	0	0	777	777	777	777	775	775	775	773	773	772	772	772	772	772	772	772	772	772	0	0	0	627	626	626	625	625	625	625	625	625	625	625	626	626	626	628	629	629	631	631	632	633	634	635	636	638	638	639	639	640	640	640	642	644	644	644	584	583	583	583	581	580	580	580	580	580	579	578	576	576	574	574	573	573	572	572	571	570	570	568	568	567	566	566	565	565	565	565	565	565	565	565	565	564	564	565	564	564	564	564	564	564	566	566	567	567	567	568	569	569	570	570	571	571	574	576	578	579	580	581	581	581	0	0	0	0	0	0	0	0	747	747	747	747	747	745	745	745	745	743	743	743	743	743	743	743	743	743	743	742	742	740	740	740	740	740	740	742	742	742	742	742	742	740	739	737	737	736	736	736	736	736	736	736	736	736	736	736	737	736	736	736	736	736	736	736	736	734	734	734	734	734	732	732	732	731	731	732	732	731	731	732	732	732	731	731	731	731	731	731	731	732	732	734	736	736	0	0	0	0	0	0	0	0	0	0	0	0	0	0	0	0	0	0	0	0	0	0	0	0	0	0	0	0	0	0	0	0	0	0	0	0	0	0	0	0	0	0	0	0	0	0	0	0	0	0	0	0	0	0	0	0	0	0	0	0	0	0	0	0	0	0	0	0	0	0	0	0	0	0	0	0	0	0	0	0	0	0	0	0	0	0	0	0	680	680	680	680	682	683	684	684	684	686	687	689	689	691	691	691	694	695	695	697	700	701	701	703	704	704	704	703	703	704	704	704	703	703	704	704	704	703	703	703	703	703	703	703	703	703	700	700	701	700	700	701	703	703	703	703	703	703	703	703	703	704	704	0	0	0	0	0	0	0	0	0	0	0	0	0	0	0	0	0
0	0	0	0	0	0	0	0	0	0	0	0	0	0	0	0	0	0	0	0	0	0	0	0	0	0	0	0	0	0	0	0	0	0	0	0	726	726	726	726	728	726	726	728	728	728	728	728	729	728	728	728	729	729	729	729	729	729	729	729	729	729	729	728	728	729	729	729	729	729	731	732	732	732	732	732	732	732	732	732	732	732	732	732	732	734	734	732	732	734	734	736	736	736	736	736	737	737	739	739	740	740	740	742	742	742	742	742	743	743	745	742	742	745	732	731	731	731	732	732	734	734	736	736	739	739	740	740	740	740	740	739	739	740	740	740	742	742	742	743	743	745	747	747	0	901	901	901	903	903	905	908	908	910	910	910	910	0	0	0	745	745	745	745	745	747	747	748	750	750	752	752	753	755	755	756	758	760	760	922	925	925	925	925	927	927	927	930	930	930	930	932	932	932	932	932	932	935	935	937	937	937	937	940	940	940	940	940	940	942	942	942	942	942	945	945	948	948	948	948	950	950	950	950	950	950	950	950	950	953	953	953	953	953	953	953	955	955	955	958	958	958	958	958	958	958	961	961	961	963	963	966	966	0	0	0	777	775	775	775	773	773	773	772	772	772	772	770	770	770	770	770	770	770	0	0	0	627	627	627	626	626	626	625	625	625	625	625	626	626	626	628	629	629	631	631	632	633	634	635	636	638	638	639	639	640	640	640	642	642	644	645	645	583	586	585	585	581	581	584	584	581	581	580	578	577	576	575	574	573	573	572	572	571	570	569	568	567	566	566	565	565	565	565	565	565	565	565	565	565	565	565	565	564	564	564	564	564	566	566	567	567	568	569	569	570	570	571	572	574	575	576	576	579	580	582	582	583	0	0	0	0	0	0	0	0	747	747	742	742	742	742	742	742	742	742	742	740	740	740	742	742	742	742	742	740	740	739	739	739	739	740	740	740	740	742	740	740	740	737	737	734	734	734	734	734	734	734	734	734	734	734	734	734	734	734	734	734	734	734	734	734	734	732	732	732	732	732	731	729	729	729	729	729	729	729	729	729	729	729	729	729	729	729	729	729	729	731	731	731	732	736	0	0	0	0	0	0	0	0	0	0	0	0	0	0	0	0	0	0	0	0	0	0	0	0	0	0	0	0	0	0	0	0	0	0	0	0	0	0	0	0	0	0	0	0	0	0	0	0	0	0	0	0	0	0	0	0	0	0	0	0	0	0	0	0	0	0	0	0	0	0	0	0	0	0	0	0	0	0	0	0	0	0	0	0	0	0	0	0	0	680	682	682	682	683	684	684	686	687	689	690	690	693	694	694	697	700	700	701	701	703	703	703	703	703	703	703	703	703	701	701	700	700	701	701	701	701	701	701	701	701	701	701	701	701	698	698	698	698	698	700	700	701	703	703	701	701	701	701	700	700	700	700	0	0	0	0	0	0	0	0	0	0	0	0	0	0	0	0
0	0	0	0	0	0	0	0	0	0	0	0	0	0	0	0	0	0	0	0	0	0	0	0	0	0	0	0	0	0	0	0	0	0	0	0	726	726	726	726	728	726	726	728	729	729	729	729	729	729	729	729	729	729	729	729	729	729	729	729	729	729	729	729	729	729	729	729	731	732	732	734	734	732	732	734	734	732	732	732	732	732	732	732	732	734	734	732	732	734	734	736	736	736	736	737	737	739	739	739	740	740	740	742	742	742	742	743	743	743	745	745	745	745	747	747	732	732	732	734	734	736	736	737	739	740	740	740	740	740	740	740	740	740	740	740	740	742	742	743	743	745	747	747	747	0	901	903	903	908	908	908	910	910	910	910	910	913	913	0	745	745	747	747	747	747	748	748	750	750	752	752	753	755	756	756	758	760	760	760	925	925	925	925	927	927	930	930	932	932	932	932	932	932	935	935	935	937	937	937	937	940	940	940	940	940	940	942	942	942	942	942	942	945	945	948	948	950	950	950	950	950	950	950	950	950	953	953	953	953	953	955	953	953	955	955	955	955	958	958	958	958	961	961	961	961	961	963	963	966	969	969	969	0	0	0	777	775	775	773	772	772	772	772	770	770	770	770	770	770	767	767	767	767	767	0	0	628	628	628	627	627	626	625	625	625	625	625	626	626	626	628	628	629	631	631	632	633	634	635	636	638	638	639	639	640	640	640	641	642	644	645	645	645	586	586	586	583	583	584	584	583	583	581	579	577	576	576	575	574	573	573	572	571	571	570	570	569	568	568	567	567	566	566	566	566	566	566	566	566	566	566	566	566	566	567	567	567	567	567	569	569	569	570	570	570	572	572	574	575	576	577	579	581	581	583	583	583	0	0	0	0	0	0	717	717	719	719	719	740	740	740	740	740	740	740	740	739	739	739	739	739	739	739	737	737	737	737	737	737	737	737	737	737	737	737	736	736	736	734	734	732	732	732	734	732	732	732	732	732	732	732	732	732	732	732	732	732	732	732	732	732	732	731	731	731	729	729	728	728	728	728	728	728	729	729	729	729	729	729	729	729	729	729	729	729	728	728	731	731	732	0	0	0	0	0	0	0	0	0	0	0	0	0	0	0	0	0	0	0	0	0	0	0	0	0	0	0	0	0	0	0	0	0	0	0	0	0	0	0	0	0	0	0	0	0	0	0	0	0	0	0	0	0	0	0	0	0	0	0	0	0	0	0	0	0	0	0	0	0	0	0	0	0	0	0	0	0	0	0	0	0	0	0	0	0	0	0	0	0	0	0	682	682	683	684	686	686	686	687	690	691	693	694	697	697	698	700	700	701	701	701	701	701	703	703	701	701	700	700	700	700	700	700	700	700	700	701	701	701	700	700	700	700	700	700	697	697	698	698	698	698	700	701	700	700	700	700	700	698	698	698	700	700	0	0	0	0	0	0	0	0	0	0	0	0	0	0	0	0
0	0	0	0	0	0	0	0	0	0	0	0	0	0	0	0	0	0	0	0	0	0	0	0	0	0	0	0	0	0	0	0	0	0	0	0	726	726	728	728	728	729	729	729	729	729	729	729	729	729	729	729	729	729	729	729	731	731	731	731	731	731	731	731	731	731	729	729	731	732	732	734	734	732	732	734	734	732	732	732	732	732	732	732	734	734	734	734	734	734	736	736	737	737	737	737	739	739	739	740	740	740	742	742	742	743	743	743	743	745	745	747	747	747	747	747	747	734	734	734	734	736	737	737	739	740	740	742	742	742	742	742	742	742	742	742	742	742	743	743	743	745	745	747	747	747	0	903	910	910	910	910	910	910	910	913	913	913	913	0	0	0	747	747	747	748	748	748	750	750	752	752	753	755	756	756	758	760	760	760	925	927	925	925	927	930	930	930	932	932	932	935	935	935	935	937	937	940	940	940	940	940	940	940	940	942	942	942	942	942	942	945	945	945	948	950	950	950	950	950	953	953	953	950	950	953	953	953	955	955	955	958	955	955	955	955	958	958	958	958	958	958	961	961	961	961	963	963	963	966	969	969	969	969	0	0	777	772	772	772	770	770	770	770	770	770	768	768	768	768	765	765	765	765	765	0	0	628	628	628	628	628	628	626	626	626	626	626	626	626	626	628	628	629	631	631	632	633	634	635	636	638	639	639	639	640	640	640	641	642	644	644	644	644	644	586	586	583	583	584	584	583	583	582	580	579	577	577	576	575	573	573	573	571	571	571	570	570	570	569	568	567	567	566	566	566	566	566	566	566	566	566	566	566	566	566	567	568	569	569	570	570	571	571	571	571	573	574	575	575	577	577	579	582	583	583	583	0	0	0	0	0	716	716	717	717	717	719	719	740	740	740	740	740	740	739	739	737	737	737	737	737	737	736	736	736	736	736	736	736	736	736	737	736	736	736	736	734	734	732	732	732	731	731	732	731	731	731	731	731	731	731	731	729	729	729	731	731	731	731	731	731	729	729	729	728	728	726	726	726	726	726	726	728	728	728	728	728	728	728	728	728	728	728	728	728	728	728	728	731	0	0	0	0	0	0	0	0	0	0	0	0	0	0	0	0	0	0	0	0	0	0	0	0	0	0	0	0	0	0	0	0	0	0	0	0	0	0	0	0	0	0	0	0	0	0	0	0	0	0	0	0	0	0	0	0	0	0	0	0	0	0	0	0	0	0	0	0	0	0	0	0	0	0	0	0	0	0	0	0	0	0	0	0	0	0	0	0	0	0	0	0	682	683	683	684	686	686	687	689	691	693	694	700	698	698	700	700	700	701	701	700	700	700	701	701	700	700	700	698	698	698	698	698	700	700	700	700	698	698	698	697	697	697	694	694	695	695	695	697	697	698	698	700	700	700	695	695	697	695	695	698	698	698	0	0	0	0	0	0	0	0	0	0	0	0	0	0	0	0
0	0	0	0	0	0	0	0	0	0	0	0	0	0	0	0	0	0	0	0	0	0	0	0	0	0	0	0	0	0	0	0	0	0	0	0	728	728	729	729	729	729	729	729	731	731	729	729	731	731	731	731	731	731	731	731	732	732	732	732	732	732	732	732	732	732	732	732	732	732	734	734	734	734	734	734	734	732	732	732	732	732	732	732	734	734	736	734	734	736	736	737	737	737	737	737	739	739	740	740	740	742	742	742	743	743	743	743	745	745	745	747	747	747	747	748	748	748	736	734	734	736	737	737	739	740	740	742	742	742	742	742	742	743	742	742	743	743	743	745	745	747	747	747	747	747	747	747	910	910	910	910	910	913	913	913	915	915	915	917	0	0	747	747	748	748	750	750	752	752	752	752	753	755	756	756	758	760	760	761	761	927	927	927	930	930	932	932	932	935	935	937	937	937	937	940	940	940	940	940	940	940	942	942	942	942	942	942	945	945	945	948	948	948	948	950	950	950	950	953	953	953	953	953	953	953	955	955	958	958	958	961	958	958	958	958	958	958	958	958	961	961	961	961	963	963	963	966	966	966	969	969	969	969	0	0	0	772	772	770	770	768	768	768	768	768	767	767	767	767	765	765	765	765	765	0	0	628	628	628	629	629	629	627	627	626	626	626	626	626	626	628	628	629	631	631	632	633	634	635	636	638	639	639	639	640	640	640	641	642	644	644	644	644	644	0	586	584	584	584	584	584	583	582	581	580	578	578	577	576	575	575	574	572	572	571	571	571	570	570	569	568	568	567	567	567	566	566	566	566	566	566	566	566	566	566	567	568	570	570	570	571	571	572	572	572	574	574	575	575	577	578	579	583	583	583	0	0	0	0	0	0	713	713	717	717	717	719	719	740	739	739	739	739	739	739	737	737	737	736	736	736	736	734	734	734	734	734	734	734	734	736	734	734	734	732	732	732	732	731	731	731	731	731	731	731	731	729	729	729	729	729	729	729	729	729	729	729	729	729	729	729	729	728	728	726	725	725	725	725	725	725	725	726	726	726	728	728	728	726	726	726	726	726	726	726	726	726	728	0	0	0	0	0	0	0	0	0	0	0	0	0	0	0	0	0	0	0	0	0	0	0	0	0	0	0	0	0	0	0	0	0	0	0	0	0	0	0	0	0	0	0	0	0	0	0	0	0	0	0	0	0	0	0	0	0	0	0	0	0	0	0	0	0	0	0	0	0	0	0	0	0	0	0	0	0	0	0	0	0	0	0	0	0	0	0	0	0	0	0	0	0	0	684	686	686	686	687	689	690	693	694	700	701	700	700	700	700	700	700	700	698	698	698	700	700	698	698	698	698	697	697	697	698	698	698	698	698	697	697	697	695	694	694	694	694	693	693	694	694	695	695	695	695	695	694	694	693	693	694	694	695	697	697	0	0	0	0	0	0	0	0	0	0	0	0	0	0	0	0
0	0	0	0	0	0	0	0	0	0	0	0	0	0	0	0	0	0	0	0	0	0	0	0	0	0	0	0	0	0	0	0	0	0	0	0	728	728	729	729	729	729	731	731	731	731	731	731	731	731	731	731	731	731	731	732	732	732	732	732	732	732	732	732	732	732	732	732	734	734	734	734	734	734	734	736	736	734	734	732	732	734	734	734	734	734	736	736	736	736	737	739	739	739	740	740	740	740	740	740	742	742	742	742	743	743	743	745	745	745	745	747	747	747	748	748	748	748	748	734	734	736	737	737	739	740	740	742	742	742	743	743	743	743	743	743	743	743	743	745	745	747	747	747	747	747	747	750	750	913	913	913	913	913	913	915	917	917	917	920	920	920	0	747	748	748	750	750	752	752	752	752	753	755	755	756	756	760	760	761	761	0	927	930	930	932	932	932	935	937	937	937	937	937	940	940	940	940	942	942	942	942	942	942	942	945	945	945	945	948	948	950	950	950	950	953	953	953	953	953	953	953	953	953	953	955	955	958	958	961	961	961	958	958	958	958	961	961	961	961	963	963	963	963	963	963	966	966	966	966	969	969	969	969	0	0	0	772	770	768	768	767	767	767	765	765	765	765	765	765	765	765	765	765	765	765	0	628	628	628	629	629	629	627	627	627	627	627	627	627	627	628	628	629	631	631	632	633	633	635	636	638	639	639	640	640	640	640	641	642	644	642	642	642	642	0	585	585	585	585	585	584	584	583	582	581	581	579	578	577	577	576	575	573	573	572	572	571	571	570	570	569	569	568	567	567	566	566	566	566	566	566	566	566	566	567	567	568	570	570	571	572	572	572	572	573	574	575	575	575	578	579	579	583	583	0	0	0	0	0	0	711	711	713	716	716	717	717	717	717	739	737	737	737	737	737	736	736	736	734	734	734	734	732	732	732	732	732	732	732	732	732	734	734	732	732	732	732	731	729	729	729	729	729	729	729	729	729	728	728	728	728	728	728	728	728	728	728	728	728	728	728	726	726	726	725	725	725	723	723	723	723	723	725	725	725	726	725	725	725	723	723	723	725	725	726	726	726	0	0	0	0	0	0	0	0	0	0	0	0	0	0	0	0	0	0	0	0	0	0	0	0	0	0	0	0	0	0	0	0	0	0	0	0	0	0	0	0	0	0	0	0	0	0	0	0	0	0	0	0	0	0	0	0	0	0	0	0	0	0	0	0	0	0	0	0	0	0	0	0	0	0	0	0	0	0	0	0	0	0	0	0	0	0	0	0	0	0	0	0	0	0	0	686	686	686	686	687	689	689	698	698	701	701	700	700	698	698	698	697	697	697	697	697	697	697	697	697	697	697	697	697	697	697	698	698	698	697	695	695	695	694	694	693	693	693	693	693	693	693	694	693	693	694	693	693	691	691	691	693	694	695	697	697	0	0	0	0	0	0	0	0	0	0	0	0	0	0	0	0
0	0	0	0	0	0	0	0	0	0	0	0	0	0	0	0	0	0	0	0	0	0	0	0	0	0	0	0	0	0	0	0	0	0	0	0	729	729	729	729	729	731	731	731	731	731	731	731	732	731	731	732	732	732	732	732	732	732	732	732	732	734	734	734	734	734	734	734	734	734	736	736	736	736	736	736	736	734	734	734	734	736	736	737	737	737	737	737	737	737	739	739	739	739	740	740	740	740	740	740	740	742	742	742	743	743	743	745	745	745	745	747	747	747	748	748	748	748	748	736	736	736	736	737	739	740	740	742	742	742	743	743	743	743	743	743	743	745	745	745	747	747	748	747	747	748	748	750	750	913	913	913	915	915	915	917	917	917	920	920	922	925	925	0	748	752	752	752	752	752	753	753	753	755	756	756	758	758	760	761	761	763	0	930	930	932	932	935	937	937	937	940	940	940	940	940	942	942	942	942	942	942	942	942	942	945	945	945	948	948	948	950	950	953	953	953	955	953	953	953	955	955	955	955	955	955	958	958	961	961	961	963	961	961	961	961	961	961	961	961	963	966	966	966	966	966	966	969	969	969	969	969	969	969	969	0	0	772	767	767	767	765	765	765	765	765	765	765	765	765	763	763	765	765	765	765	0	0	628	629	629	629	629	628	628	627	627	627	627	627	627	628	628	629	631	631	632	633	633	635	635	636	638	639	639	640	640	640	641	642	644	642	642	642	642	0	586	586	586	585	585	584	584	583	583	582	582	580	579	578	578	576	575	573	573	573	572	572	572	571	570	570	570	570	569	569	569	569	572	567	567	567	567	567	567	570	570	571	571	571	571	573	573	574	574	574	575	576	575	575	579	579	579	0	0	0	0	0	0	0	711	711	711	713	714	716	716	716	716	717	737	737	737	737	737	736	734	734	734	732	732	732	732	732	732	732	732	732	732	732	732	732	732	732	732	731	731	731	731	728	728	729	729	729	729	728	728	728	728	728	726	726	726	726	726	726	726	726	726	726	726	725	725	725	725	723	723	723	723	723	723	723	723	723	723	723	723	723	723	722	722	722	722	723	723	725	726	726	0	0	0	0	0	0	0	0	0	0	0	0	0	0	0	0	0	0	0	0	0	0	0	0	0	0	0	0	0	0	0	0	0	0	0	0	0	0	0	0	0	0	0	0	0	0	0	0	0	0	0	0	0	0	0	0	0	0	0	0	0	0	0	0	0	0	0	0	0	0	0	0	0	0	0	0	0	0	0	0	0	0	0	0	0	0	0	0	0	0	0	0	0	0	0	686	687	687	687	687	689	689	698	698	700	698	698	697	697	697	697	697	695	695	697	697	695	695	695	695	695	695	695	695	697	697	697	697	698	697	694	693	693	693	693	691	691	691	691	691	691	691	691	691	691	691	693	693	690	690	690	691	691	697	697	697	0	0	0	0	0	0	0	0	0	0	0	0	0	0	0	0
0	0	0	0	0	0	0	0	0	0	0	0	0	0	0	0	0	0	0	0	0	0	0	0	0	0	0	0	0	0	0	0	0	0	0	731	731	731	731	731	731	731	731	731	732	732	732	732	732	732	732	732	732	732	732	732	732	732	734	734	734	734	734	734	734	734	734	734	734	734	736	736	736	736	736	736	736	736	736	736	736	737	739	739	739	739	739	739	739	739	739	739	740	740	740	740	740	742	742	740	740	742	743	743	745	745	745	745	745	747	747	747	747	747	748	748	748	750	750	750	736	736	736	737	739	740	740	742	742	742	743	745	745	745	745	743	743	745	745	747	747	747	748	747	747	748	748	750	752	752	915	915	915	917	917	917	920	920	920	922	922	922	922	0	0	752	752	752	752	752	753	753	753	755	756	756	758	760	760	761	763	763	0	930	930	937	937	937	937	940	940	940	942	942	942	942	942	942	942	942	942	942	945	945	945	948	948	948	950	950	950	953	953	953	953	955	955	955	955	955	958	958	958	955	955	958	958	961	961	961	963	963	961	961	961	961	961	961	963	963	966	966	969	966	966	969	969	969	969	969	972	972	969	969	969	0	0	0	765	765	765	763	763	763	763	763	763	763	763	763	763	763	765	765	765	720	720	720	0	633	632	631	631	629	628	628	627	627	627	627	627	628	629	629	631	631	632	633	633	635	635	636	638	639	639	640	640	640	641	642	644	644	644	645	645	647	647	586	585	585	585	584	584	583	583	582	582	581	580	580	580	578	577	575	574	574	573	572	572	572	571	571	571	571	570	570	570	572	572	567	569	569	569	569	570	571	571	571	571	571	572	574	574	575	576	576	577	578	579	580	585	585	0	0	0	0	0	0	0	713	711	711	711	713	714	716	716	716	716	0	737	737	737	737	736	734	734	734	734	732	731	731	731	731	731	731	731	731	731	731	731	731	731	731	731	731	729	729	729	728	728	728	728	728	728	726	728	728	725	725	725	725	725	725	725	725	725	725	725	725	725	723	723	723	723	723	723	723	723	723	722	722	722	723	722	722	722	722	722	720	720	720	722	722	722	723	723	723	0	0	0	0	0	0	0	0	0	0	0	0	0	0	0	0	0	0	0	0	0	0	0	0	0	0	0	0	0	0	0	0	0	0	0	0	0	0	0	0	0	0	0	0	0	0	0	0	0	0	0	0	0	0	0	0	0	0	0	0	0	0	0	0	0	0	0	0	0	0	0	0	0	0	0	0	0	0	0	0	0	0	0	0	0	0	0	0	0	0	0	0	0	0	0	0	687	687	687	687	0	0	698	698	698	697	695	695	695	695	695	695	695	695	695	697	695	695	694	694	695	694	694	695	694	694	695	695	695	691	691	691	691	691	690	690	690	690	690	690	690	690	690	690	690	689	689	689	689	689	689	689	689	690	690	697	0	0	0	0	0	0	0	0	0	0	0	0	0	0	0	0
0	0	0	0	0	0	0	0	0	0	0	0	0	0	0	0	0	0	0	0	0	0	0	0	0	0	0	0	0	0	0	0	0	0	0	731	731	731	731	731	731	732	732	732	732	734	734	734	734	734	732	734	734	734	734	734	734	734	734	734	736	736	736	736	736	736	736	736	736	736	737	737	737	737	737	737	737	737	737	737	737	740	740	740	740	740	740	740	740	740	740	740	740	740	740	742	742	742	742	740	740	743	743	743	745	745	745	747	747	747	747	747	747	748	748	748	750	748	748	748	736	737	737	737	739	740	740	742	742	743	743	745	747	745	745	745	745	745	745	747	747	747	748	748	748	748	750	750	752	752	915	915	915	917	917	920	920	920	920	922	922	922	922	922	0	752	753	753	753	753	753	753	753	755	756	756	758	760	761	761	763	765	765	0	0	940	940	940	940	940	942	942	942	942	942	945	945	945	948	948	948	948	948	948	948	950	950	950	950	950	953	953	953	953	953	955	958	958	958	958	958	961	961	958	958	961	961	961	963	963	963	963	963	963	963	963	963	963	963	963	966	969	969	969	969	969	969	969	969	972	972	972	972	972	972	0	0	0	761	761	763	763	763	763	763	763	763	763	763	763	763	763	763	719	719	719	717	717	0	633	632	631	631	631	629	628	628	627	627	627	627	628	629	631	631	632	632	633	633	634	635	635	638	639	639	640	640	640	642	642	644	644	644	645	647	647	648	648	585	585	585	585	584	584	583	583	583	583	582	581	581	580	579	577	575	575	574	572	572	572	572	571	571	571	571	571	572	572	572	0	569	571	571	571	571	571	571	571	571	571	572	574	574	575	576	577	578	578	579	581	585	585	0	0	0	0	701	701	703	713	711	711	711	711	713	714	713	713	713	0	737	737	737	736	734	732	732	732	731	731	729	729	729	729	729	729	729	729	729	729	729	729	729	729	729	729	728	728	728	725	725	725	726	726	725	723	723	723	723	723	723	723	723	725	725	725	723	723	723	723	722	722	722	722	722	722	722	722	722	722	722	722	722	720	720	720	719	719	719	719	719	719	720	720	722	722	723	723	0	0	0	0	0	0	0	0	0	0	0	0	0	0	0	0	0	0	0	0	0	0	0	0	0	0	0	0	0	0	0	0	0	0	0	0	0	0	0	0	0	0	0	0	0	0	0	0	0	0	0	0	0	0	0	0	0	0	0	0	0	0	0	0	0	0	0	0	0	0	0	0	0	0	0	0	0	0	0	0	0	0	0	0	0	0	0	0	0	0	0	0	0	0	0	0	687	687	687	0	0	0	698	697	697	694	694	694	694	694	694	694	694	694	695	695	694	694	693	693	694	693	693	693	691	691	691	687	687	687	689	689	689	690	690	690	690	690	689	689	689	689	689	689	689	687	687	687	687	687	687	687	687	687	687	687	0	0	0	0	0	0	0	0	0	0	0	0	0	0	0	0
0	0	0	0	0	0	0	0	0	0	0	0	0	0	0	0	0	0	0	0	0	0	0	0	0	0	0	0	0	0	0	0	0	0	0	0	731	731	732	732	732	732	732	734	734	734	734	734	734	734	734	734	734	734	734	736	736	736	736	734	736	736	736	736	737	737	737	737	737	737	737	739	739	739	739	739	739	739	739	739	740	740	740	740	740	740	740	740	740	740	740	740	742	742	742	742	742	742	742	742	742	743	745	745	747	747	747	747	747	747	747	747	747	748	748	748	750	748	748	748	737	737	737	737	739	740	740	742	742	743	743	745	747	747	747	745	745	747	747	747	747	748	748	748	748	750	750	752	752	752	0	917	917	917	920	920	920	920	922	922	922	922	922	927	927	0	753	753	753	753	753	755	755	755	756	758	758	760	761	761	763	765	765	0	0	940	940	940	940	942	942	942	945	945	945	945	948	948	948	948	950	950	950	950	950	950	953	953	953	953	955	955	955	955	958	958	961	961	961	961	961	961	961	961	961	961	963	963	963	963	966	966	963	963	966	966	966	966	966	966	969	969	969	969	969	969	972	972	972	972	974	974	972	972	972	0	0	0	761	761	761	761	763	763	763	763	761	761	761	761	763	763	763	719	719	719	717	717	716	716	632	632	632	632	631	629	629	628	628	628	628	629	629	631	631	632	632	633	633	634	635	635	638	638	639	640	640	640	642	644	644	645	645	646	647	647	647	648	0	0	0	585	584	584	583	583	583	583	582	581	581	581	579	578	576	575	575	573	573	572	572	571	571	572	572	572	572	572	576	578	578	578	571	571	571	571	571	572	572	572	573	574	574	575	576	578	578	578	580	581	586	586	0	0	0	0	701	701	703	710	711	711	711	711	713	713	713	713	713	0	732	732	737	732	732	731	731	731	729	729	729	729	729	729	729	729	729	729	728	728	728	726	726	728	728	728	726	726	726	723	723	723	723	723	723	722	722	722	722	722	722	722	722	722	722	723	722	722	722	722	722	720	720	722	722	722	722	720	720	720	720	720	720	719	719	719	717	717	717	717	717	717	719	720	722	722	722	723	0	0	0	0	0	0	0	0	0	0	0	0	0	0	0	0	0	0	0	0	0	0	0	0	0	0	0	0	0	0	0	0	0	0	0	0	0	0	0	0	0	0	0	0	0	0	0	0	0	0	0	0	0	0	0	0	0	0	0	0	0	0	0	0	0	0	0	0	0	0	0	0	0	0	0	0	0	0	0	0	0	0	0	0	0	0	0	0	0	0	0	0	0	0	0	0	0	0	0	0	0	0	0	697	695	693	693	693	693	693	693	693	693	693	694	694	693	693	693	693	693	693	691	691	691	690	689	686	686	686	686	687	687	687	687	689	689	689	687	687	687	687	687	687	687	687	686	686	686	686	686	686	686	686	686	686	687	687	687	687	0	0	0	0	0	0	0	0	0	0	0	0
0	0	0	0	0	0	0	0	0	0	0	0	0	0	0	0	0	0	0	0	0	0	0	0	0	0	0	0	0	0	0	0	0	0	0	0	731	732	732	732	732	734	734	734	734	734	736	736	736	734	734	734	736	736	736	736	736	736	736	736	737	737	739	739	739	739	739	737	739	739	739	739	739	739	739	740	740	740	740	740	740	742	742	742	742	742	742	742	742	742	742	742	742	742	742	742	743	743	743	743	743	745	745	745	747	747	747	747	747	747	747	747	747	748	748	750	750	750	748	748	739	737	737	739	740	740	740	742	742	743	745	747	748	747	747	747	747	747	747	747	748	748	748	748	748	750	750	753	753	753	753	917	917	917	917	917	920	920	922	922	925	925	925	927	930	930	0	753	753	753	755	755	755	756	758	758	760	760	761	763	765	767	767	0	0	0	940	940	940	942	942	945	945	945	948	948	948	948	950	950	950	950	950	950	953	953	953	953	953	955	955	958	958	958	961	961	961	961	961	961	961	961	963	963	963	963	966	966	966	966	969	969	969	969	969	969	969	969	969	969	969	972	972	969	969	969	972	972	972	974	974	977	974	974	977	977	0	0	761	760	760	760	760	760	760	760	760	719	717	717	716	716	716	717	717	717	717	716	716	714	714	632	633	633	632	631	631	629	629	628	629	629	629	631	631	631	631	632	633	634	635	635	636	638	639	639	640	640	642	644	644	645	645	646	647	647	650	650	650	650	0	0	0	0	583	583	583	583	583	583	581	581	580	579	578	577	577	576	574	573	572	572	572	573	573	573	574	576	576	578	578	578	578	574	574	575	573	573	573	573	574	574	575	575	578	579	579	579	579	587	587	587	0	0	0	0	701	701	707	710	713	711	711	711	711	711	710	710	710	0	732	732	0	731	731	729	729	729	728	728	728	728	728	728	728	728	728	728	726	726	726	726	726	726	725	725	725	725	723	722	722	722	722	722	720	720	722	722	722	722	722	720	720	720	720	720	720	720	720	720	720	720	720	720	720	720	720	720	720	720	720	719	719	717	717	717	717	716	716	717	717	717	719	719	722	722	722	0	0	0	0	0	0	0	0	0	0	0	0	0	0	0	0	0	0	0	0	0	0	0	0	0	0	0	0	0	0	0	0	0	0	0	0	0	0	0	0	0	0	0	0	0	0	0	0	0	0	0	0	0	0	0	0	0	0	0	0	0	0	0	0	0	0	0	0	0	0	0	0	0	0	0	0	0	0	0	0	0	0	0	0	0	0	0	0	0	0	0	0	0	0	0	0	0	0	0	0	0	0	0	0	694	691	691	691	691	691	690	690	690	690	691	690	690	690	690	690	690	690	690	690	690	689	687	687	686	686	686	686	686	686	687	687	687	687	687	686	686	686	686	686	686	686	686	686	686	684	684	684	684	686	684	684	686	686	687	687	687	687	0	0	0	0	0	0	0	0	0	0	0
0	0	0	0	0	0	0	0	0	0	0	0	0	0	0	0	0	0	0	0	0	0	0	0	0	0	0	0	0	0	0	0	0	0	0	732	732	734	734	734	734	736	736	736	736	736	736	736	736	734	734	734	736	736	736	736	736	736	737	737	737	739	740	740	740	740	740	740	740	740	740	740	740	740	740	740	740	740	740	742	742	742	743	743	743	743	743	743	743	743	743	743	743	743	743	743	743	745	745	745	745	745	745	747	747	747	747	747	747	748	748	748	748	748	750	750	750	752	752	752	753	737	737	739	740	740	740	742	742	743	745	747	748	748	747	747	747	747	747	747	748	748	748	750	750	750	752	753	753	753	755	755	917	917	917	917	920	920	922	925	927	927	927	927	930	930	930	0	753	756	756	756	756	756	758	758	760	761	763	763	765	767	768	768	0	0	940	940	940	942	942	945	945	948	948	948	950	950	950	953	953	953	953	953	953	953	955	955	955	955	958	958	961	961	961	961	961	961	961	961	963	963	963	963	963	966	966	969	969	969	969	969	969	969	969	969	969	969	969	969	972	972	972	972	972	972	972	974	977	977	980	980	980	980	980	980	0	0	761	760	758	758	758	758	758	758	719	717	716	716	716	716	716	716	716	716	716	716	714	714	714	714	634	634	632	632	631	631	631	629	629	629	629	629	629	629	631	632	633	634	634	635	636	638	638	639	639	640	640	644	644	645	645	646	647	647	650	650	650	650	0	0	0	0	0	583	583	583	584	583	583	582	581	580	579	579	578	576	575	574	573	573	573	573	573	574	575	576	576	578	578	577	575	574	574	575	574	574	574	574	575	575	576	576	579	580	580	580	580	588	588	588	0	0	0	0	701	714	711	711	713	711	711	711	711	710	710	710	710	0	0	0	0	731	729	728	728	728	726	726	726	726	726	726	726	726	726	726	725	725	725	725	725	725	723	723	723	723	722	720	720	720	720	720	720	720	720	719	719	720	720	719	719	719	719	719	719	717	717	719	719	719	719	719	719	719	719	717	717	717	717	717	717	717	717	717	716	716	716	716	716	716	717	717	722	722	722	0	0	0	0	0	0	0	0	0	0	0	0	0	0	0	0	0	0	0	0	0	0	0	0	0	0	0	0	0	0	0	0	0	0	0	0	0	0	0	0	0	0	0	0	0	0	0	0	0	0	0	0	0	0	0	0	0	0	0	0	0	0	0	0	0	0	0	0	0	0	0	0	0	0	0	0	0	0	0	0	0	0	0	0	0	0	0	0	0	0	0	0	0	0	0	0	0	0	0	0	0	0	0	0	691	691	691	690	690	690	689	689	689	689	689	689	687	687	689	689	690	689	689	689	687	686	686	686	686	684	684	686	686	686	686	686	687	687	686	684	684	684	684	684	686	684	684	684	684	684	684	684	684	684	684	684	686	686	686	686	686	686	0	0	0	0	0	0	0	0	0	0	0
0	0	0	0	0	0	0	0	0	0	0	0	0	0	0	0	0	0	0	0	0	0	0	0	0	0	0	0	0	0	0	0	0	0	0	734	734	736	736	736	736	736	736	736	736	736	736	736	736	736	736	736	737	737	737	737	737	737	737	739	739	740	740	740	740	740	740	740	740	740	740	740	740	740	740	742	742	742	742	743	743	743	745	745	745	745	745	743	743	743	743	743	743	743	743	745	745	745	745	745	747	747	747	747	747	747	747	747	748	748	748	748	748	748	750	752	752	753	753	753	753	753	739	739	740	740	742	742	742	743	745	747	748	753	753	753	747	747	747	747	748	748	750	750	750	752	752	753	753	755	755	755	0	917	894	894	894	896	896	896	927	927	927	927	930	930	930	0	0	756	756	756	756	758	758	760	760	761	763	765	765	767	767	768	768	0	940	942	942	942	945	945	948	948	950	950	950	950	953	953	953	953	953	953	955	955	955	955	955	958	958	958	961	961	961	961	961	961	961	963	963	963	963	963	966	966	969	969	969	969	972	972	969	969	969	969	972	972	972	972	972	972	972	972	972	972	974	974	977	980	980	980	983	983	983	983	0	0	0	760	758	756	756	755	755	755	716	716	714	714	714	714	714	714	714	714	714	714	713	713	713	713	634	634	632	633	633	632	631	631	629	629	629	629	629	631	631	632	633	634	635	635	636	638	638	639	640	640	642	642	644	644	645	646	646	647	647	650	650	0	0	0	0	0	0	585	585	584	584	583	583	583	582	581	579	579	578	576	576	575	574	574	574	574	574	575	575	576	576	577	577	577	575	574	574	574	574	574	575	575	575	577	577	577	580	580	587	588	589	588	588	588	0	0	0	0	0	714	713	713	713	711	711	711	711	710	710	710	710	0	0	0	0	725	725	726	726	726	726	726	726	726	726	725	725	725	725	723	722	722	722	722	722	722	722	722	722	722	720	719	719	719	719	719	719	719	719	719	719	719	719	719	717	717	719	717	717	717	717	717	717	717	717	719	719	717	717	717	717	717	717	717	717	716	716	716	716	714	714	714	714	714	716	716	716	722	0	0	0	0	0	0	0	0	0	0	0	0	0	0	0	0	0	0	0	0	0	0	0	0	0	0	0	0	0	0	0	0	0	0	0	0	0	0	0	0	0	0	0	0	0	0	0	0	0	0	0	0	0	0	0	0	0	0	0	0	0	0	0	0	0	0	0	0	0	0	0	0	0	0	0	0	0	0	0	0	0	0	0	0	0	0	0	0	0	0	0	0	0	0	0	0	0	0	0	0	0	0	0	691	691	691	690	690	690	689	689	689	689	689	689	689	689	687	687	687	687	687	686	686	687	686	686	686	684	684	684	684	684	686	686	686	686	686	686	684	683	683	683	683	684	684	683	683	684	684	684	684	684	684	684	684	684	684	686	686	686	686	686	0	0	0	0	0	0	0	0	0	0	0
0	0	0	0	0	0	0	0	0	0	0	0	0	0	0	0	0	0	0	0	0	0	0	0	0	0	0	0	0	0	0	0	0	0	0	734	734	736	736	736	736	736	737	736	736	736	737	737	737	737	737	737	739	739	739	739	739	739	739	739	740	740	742	742	742	742	740	740	740	740	740	740	740	742	742	742	742	743	743	743	743	745	745	745	745	747	745	745	745	745	745	745	745	745	747	747	747	747	747	747	747	747	747	747	747	747	747	747	748	748	748	748	748	750	750	752	752	753	753	753	753	753	742	740	740	742	742	742	742	743	745	747	748	750	750	750	748	748	748	748	748	748	750	752	752	752	753	755	755	755	755	758	758	894	894	894	894	894	894	894	894	930	930	930	930	930	930	0	0	758	758	758	758	760	760	760	761	761	763	765	765	767	767	768	768	0	0	942	942	942	945	948	948	950	950	950	950	950	953	953	953	955	955	955	955	955	958	958	958	958	961	961	961	961	961	961	961	961	963	963	963	963	966	966	966	969	969	972	972	972	972	972	969	969	972	972	972	972	972	972	974	972	972	974	974	974	977	977	980	980	980	983	983	983	983	983	983	983	0	760	758	756	756	753	753	752	716	716	714	714	714	714	713	713	713	713	713	711	711	711	711	711	705	705	0	634	634	633	632	631	631	631	631	631	631	631	631	632	633	634	635	635	636	638	638	639	640	640	642	644	644	645	645	645	646	647	650	651	652	653	653	653	0	0	0	585	585	584	584	584	583	583	583	582	581	581	581	580	579	579	579	578	578	578	578	578	578	578	578	578	578	577	575	575	575	575	575	575	576	576	578	578	578	578	586	586	586	586	586	588	588	588	0	0	0	0	0	716	713	713	713	711	711	711	711	710	710	710	711	711	713	716	716	719	722	722	722	722	722	722	723	722	722	722	722	720	720	719	719	719	719	719	719	720	720	720	720	720	720	717	717	717	717	717	717	717	717	717	717	717	717	717	716	716	716	714	714	714	714	714	714	714	716	716	716	716	716	714	714	714	714	714	714	713	713	711	711	710	710	710	710	710	710	710	716	0	0	0	0	0	0	0	0	0	0	0	0	0	0	0	0	0	0	0	0	0	0	0	0	0	0	0	0	0	0	0	0	0	0	0	0	0	0	0	0	0	0	0	0	0	0	0	0	0	0	0	0	0	0	0	0	0	0	0	0	0	0	0	0	0	0	0	0	0	0	0	0	0	0	0	0	0	0	0	0	0	0	0	0	0	0	0	0	0	0	0	0	0	0	0	0	0	0	0	0	0	0	0	0	691	690	690	689	689	689	689	687	689	687	687	689	686	686	686	686	686	686	684	684	684	686	684	684	684	684	684	684	684	684	684	684	686	684	684	684	684	683	682	682	682	683	683	683	683	683	683	684	684	684	684	684	684	684	684	686	684	684	684	684	0	0	0	0	0	0	0	0	0	0	0
0	0	0	0	0	0	0	0	0	0	0	0	0	0	0	0	0	0	0	0	0	0	0	0	0	0	0	0	0	0	0	0	0	0	0	736	736	736	736	736	736	736	737	737	737	737	737	737	737	739	737	737	739	739	739	739	739	740	740	740	742	742	742	742	742	742	742	742	742	742	742	742	742	742	742	743	743	745	745	745	745	747	747	747	747	747	747	747	747	747	747	747	747	747	747	747	747	748	748	748	748	748	748	748	748	748	748	748	748	748	748	748	750	750	750	752	752	753	753	753	753	753	753	740	740	742	742	742	743	745	747	747	748	750	750	750	752	748	748	748	748	750	752	752	752	752	753	755	755	756	756	758	758	894	894	894	894	894	894	894	894	894	894	894	894	894	894	0	0	758	758	758	758	760	760	760	761	763	763	765	765	767	768	768	772	772	0	0	942	945	945	948	950	950	950	950	953	953	953	953	953	955	955	955	958	958	958	961	961	961	961	961	963	963	963	963	963	963	963	963	963	966	966	969	969	972	972	972	972	972	972	972	972	972	972	972	972	974	974	974	974	974	974	974	974	974	977	980	980	980	980	983	983	983	983	983	983	983	983	0	0	756	752	752	752	752	716	716	714	714	713	713	711	711	711	710	710	710	708	707	705	705	704	704	0	634	634	634	633	632	631	631	631	631	631	631	631	632	633	634	635	635	636	638	638	639	639	640	642	644	644	645	645	645	646	647	650	651	652	653	653	655	655	655	655	655	0	584	584	584	583	583	583	582	581	581	581	580	579	579	579	579	579	579	579	579	579	579	578	578	578	578	578	578	579	579	579	579	579	579	579	579	580	580	586	586	586	586	586	588	588	588	0	0	0	0	719	719	719	716	716	714	714	711	711	711	711	711	711	711	713	716	716	719	719	719	719	720	720	720	720	720	720	720	719	719	719	719	717	717	717	719	719	719	719	719	719	719	719	717	717	717	717	716	716	716	716	716	716	716	716	716	716	714	714	714	714	714	714	714	713	713	714	714	714	713	713	713	713	713	713	711	711	711	711	711	710	710	710	708	708	708	710	710	716	0	0	0	0	0	0	0	0	0	0	0	0	0	0	0	0	0	0	0	0	0	0	0	0	0	0	0	0	0	0	0	0	0	0	0	0	0	0	0	0	0	0	0	0	0	0	0	0	0	0	0	0	0	0	0	0	0	0	0	0	0	0	0	0	0	0	0	0	0	0	0	0	0	0	0	0	0	0	0	0	0	0	0	0	0	0	0	0	0	0	0	0	0	0	0	0	0	0	0	0	0	0	0	0	691	690	689	689	689	687	687	687	687	687	687	689	686	683	683	684	684	684	683	683	683	684	683	683	682	682	683	683	683	683	684	684	684	683	683	683	683	682	680	680	680	682	682	682	682	682	682	684	683	683	684	684	684	684	684	683	683	682	682	682	0	0	0	0	0	0	0	0	0	0	0
0	0	0	0	0	0	0	0	0	0	0	0	0	0	0	0	0	0	0	0	0	0	0	0	0	0	0	0	0	0	0	0	0	0	0	736	736	736	736	736	736	737	737	737	737	737	739	739	739	739	739	739	739	740	740	740	740	740	742	742	742	742	742	742	742	742	742	742	742	742	742	742	743	743	745	745	745	745	747	747	747	747	747	747	747	747	747	747	747	747	747	748	747	747	748	748	748	748	748	748	748	750	750	748	748	748	748	750	750	750	750	750	752	752	753	753	753	753	755	755	755	755	755	753	742	742	742	742	743	743	747	747	748	748	750	752	752	752	750	750	750	750	752	752	752	752	753	755	756	756	756	758	760	894	894	891	891	894	894	894	894	894	894	894	894	894	896	896	0	758	760	760	760	760	760	760	761	763	765	765	765	767	768	768	772	773	773	0	0	948	948	950	950	950	953	953	953	953	955	955	955	955	958	958	958	961	961	961	961	961	963	963	963	963	963	963	963	963	963	963	966	966	969	969	972	972	972	972	972	972	972	974	972	972	972	972	974	977	977	977	977	977	977	977	977	977	980	980	983	983	983	983	983	983	983	983	980	980	980	980	0	0	752	752	752	714	714	714	713	713	713	713	711	711	710	710	708	707	707	705	704	704	704	705	705	0	634	634	634	633	631	631	631	629	629	629	629	631	633	633	634	635	636	636	638	639	639	640	642	644	644	644	644	645	645	648	650	652	652	653	653	653	655	655	655	656	656	0	584	583	583	583	583	582	582	581	581	581	580	580	580	580	580	580	580	580	580	579	579	579	579	579	579	579	579	580	580	580	581	581	587	588	588	588	0	0	0	0	0	0	0	0	0	0	719	719	719	719	719	719	717	716	716	713	713	713	713	713	713	713	714	716	717	717	719	719	719	719	719	719	719	719	719	719	717	717	717	717	717	717	717	717	717	717	717	717	717	717	717	716	716	716	716	716	716	716	716	716	716	714	714	714	714	714	714	713	713	713	713	713	713	713	711	711	711	711	711	711	711	711	711	711	711	711	710	710	708	707	707	707	707	707	708	708	0	0	0	0	0	0	0	0	0	0	0	0	0	0	0	0	0	0	0	0	0	0	0	0	0	0	0	0	0	0	0	0	0	0	0	0	0	0	0	0	0	0	0	0	0	0	0	0	0	0	0	0	0	0	0	0	0	0	0	0	0	0	0	0	0	0	0	0	0	0	0	0	0	0	0	0	0	0	0	0	0	0	0	0	0	0	0	0	0	0	0	0	0	0	0	0	0	0	0	0	0	0	0	0	691	691	690	687	687	687	686	686	686	686	684	684	687	683	683	683	684	684	683	683	683	683	682	682	682	680	680	682	682	682	682	683	683	683	682	682	682	682	680	680	680	680	680	680	680	680	680	679	679	679	675	675	680	680	680	682	682	682	680	680	680	0	0	0	0	0	0	0	0	0	0	0
0	0	0	0	0	0	0	0	0	0	0	0	0	0	0	0	0	0	0	0	0	0	0	0	0	0	0	0	0	0	0	0	0	0	0	736	736	737	737	737	737	737	739	739	739	739	739	739	740	740	739	739	740	740	740	740	740	740	742	742	742	742	742	742	742	742	742	742	742	742	743	743	745	745	747	747	747	747	747	747	747	747	747	747	748	748	748	748	748	748	748	748	748	748	748	748	748	750	750	750	750	750	750	750	750	750	750	750	750	750	752	752	752	753	753	753	753	753	755	755	755	755	755	756	756	745	745	745	745	747	748	748	748	752	752	752	752	753	750	750	750	752	752	752	752	752	753	753	756	756	758	758	760	760	891	891	891	894	894	894	894	894	894	894	894	894	896	896	0	0	761	761	761	760	760	761	761	763	765	765	767	768	768	770	772	773	773	0	0	948	950	950	953	953	953	953	953	955	955	955	955	958	961	961	961	961	961	963	963	963	963	963	966	966	966	966	966	966	966	966	966	969	972	972	972	974	974	974	974	974	974	974	972	972	972	974	977	977	977	980	980	980	980	980	980	980	983	983	983	983	983	985	985	983	983	983	980	980	980	980	0	0	750	750	750	714	714	714	713	713	713	711	711	710	708	708	707	707	705	705	704	704	704	705	705	705	0	635	635	634	631	631	631	629	629	629	629	631	633	633	634	635	636	636	638	639	639	640	642	644	644	644	644	645	645	646	647	652	652	653	653	653	655	655	655	656	657	657	0	583	583	583	583	582	582	582	581	581	580	580	581	581	581	580	580	581	580	579	579	579	579	580	580	580	581	582	582	583	583	587	587	588	588	588	0	0	0	0	0	0	0	0	0	0	719	719	719	719	719	719	719	717	716	714	713	713	714	714	714	714	716	716	716	717	717	717	717	717	717	717	717	717	717	717	716	716	716	716	716	716	716	716	716	716	716	716	716	717	716	714	714	714	714	714	714	714	714	714	714	713	713	711	711	713	713	711	711	711	711	711	711	711	710	710	710	710	708	708	710	710	710	710	708	708	708	708	707	707	707	707	705	705	707	707	0	0	0	0	0	0	0	0	0	0	0	0	0	0	0	0	0	0	0	0	0	0	0	0	0	0	0	0	0	0	0	0	0	0	0	0	0	0	0	0	0	0	0	0	0	0	0	0	0	0	0	0	0	0	0	0	0	0	0	0	0	0	0	0	0	0	0	0	0	0	0	0	0	0	0	0	0	0	0	0	0	0	0	0	0	0	0	0	0	0	0	0	0	0	0	0	0	0	0	0	0	0	0	0	691	690	686	686	687	686	684	684	683	683	683	682	682	682	682	682	683	683	682	682	682	682	682	680	680	680	680	680	680	680	682	682	682	682	682	680	680	680	679	679	679	680	680	680	680	679	679	676	675	675	675	675	678	678	679	680	680	680	680	680	680	0	0	0	0	0	0	0	0	0	0	0
0	0	0	0	0	0	0	0	0	0	0	0	0	0	0	0	0	0	0	0	0	0	0	0	0	0	0	0	0	0	0	0	0	0	0	736	736	737	737	737	737	737	739	739	739	740	739	739	740	740	739	739	740	740	740	740	740	742	742	742	743	743	743	743	743	743	743	743	743	743	743	743	745	747	747	747	747	747	748	748	748	748	748	748	748	748	748	748	748	750	750	750	750	750	750	750	750	750	750	750	752	752	752	752	752	752	752	752	752	752	752	753	753	753	753	753	753	755	755	755	755	755	756	756	758	755	755	747	747	748	748	748	752	752	753	753	753	753	755	755	753	753	753	753	753	753	756	756	758	758	758	758	760	760	760	761	889	889	889	891	891	891	891	891	894	894	894	894	0	0	765	761	761	761	761	761	763	763	765	767	767	768	770	770	772	773	773	0	0	0	953	953	953	953	953	955	955	955	958	958	958	961	961	961	963	963	963	963	963	963	966	966	966	966	966	969	969	969	969	969	969	972	972	972	974	974	974	974	974	974	974	974	974	974	974	974	977	980	980	980	980	980	983	983	983	983	983	985	985	985	985	985	985	985	983	983	980	980	980	0	0	0	750	750	750	714	714	713	713	713	711	710	710	708	708	708	707	705	705	704	704	704	704	704	704	704	0	635	635	634	634	633	633	631	631	631	631	632	633	633	634	635	636	638	638	639	639	640	641	642	644	644	644	644	645	646	646	652	652	653	653	655	655	655	656	656	657	657	657	0	583	583	583	582	582	582	581	581	580	580	581	582	582	581	581	582	581	580	580	579	579	581	581	581	582	583	584	585	586	586	587	587	587	587	0	0	0	0	0	0	0	0	0	719	719	719	719	719	719	719	719	719	717	716	714	714	714	714	714	714	716	716	716	716	716	716	716	717	717	717	716	716	716	716	714	714	714	714	716	714	714	716	716	714	714	714	714	714	714	713	713	713	714	714	713	713	713	713	713	711	711	711	711	711	711	711	711	711	711	711	710	710	708	708	708	708	708	708	708	708	708	708	707	707	707	707	705	705	705	705	705	705	705	705	0	0	0	0	0	0	0	0	0	0	0	0	0	0	0	0	0	0	0	0	0	0	0	0	0	0	0	0	0	0	0	0	0	0	0	0	0	0	0	0	0	0	0	0	0	0	0	0	0	0	0	0	0	0	0	0	0	0	0	0	0	0	0	0	0	0	0	0	0	0	0	0	0	0	0	0	0	0	0	0	0	0	0	0	0	0	0	0	0	0	0	0	0	0	0	0	0	0	0	0	0	0	0	0	691	690	686	684	684	684	683	683	683	682	682	680	680	679	679	680	680	680	680	680	682	682	682	680	680	680	680	680	680	680	680	680	680	680	680	679	679	679	678	678	679	679	679	679	678	676	675	674	674	674	674	675	676	676	679	679	679	679	678	678	678	0	0	0	0	0	0	0	0	0	0	0
0	0	0	0	0	0	0	0	0	0	0	0	0	0	0	0	0	0	0	0	0	0	0	0	0	0	0	0	0	0	0	0	0	0	0	737	737	737	737	739	739	739	740	740	740	740	740	740	742	740	740	740	740	740	740	740	742	742	742	742	743	743	745	745	745	745	745	745	745	745	745	745	747	747	747	748	748	748	748	748	748	748	748	748	748	748	748	750	750	750	752	752	750	750	752	752	752	752	752	752	752	753	753	753	753	753	753	753	753	753	753	753	753	753	753	755	755	755	755	755	755	756	756	756	758	755	752	748	748	748	750	750	752	752	753	753	755	755	755	755	753	753	753	753	753	755	756	756	758	758	758	760	760	761	761	761	765	887	889	889	889	891	891	891	891	891	894	894	896	896	765	761	761	761	761	761	763	765	765	767	767	768	768	770	772	772	773	0	0	0	955	955	953	953	955	955	955	958	958	961	961	961	963	963	963	963	966	966	966	966	966	966	969	969	969	969	969	972	972	972	972	972	974	974	974	977	977	977	977	977	977	977	974	974	974	977	980	980	980	980	983	983	983	983	983	983	983	985	985	988	985	985	988	985	985	983	980	980	980	0	0	0	713	713	713	713	713	713	711	710	710	710	708	708	707	707	707	705	705	704	704	704	704	704	704	704	704	704	635	635	635	634	634	633	631	631	631	632	633	633	634	635	636	638	638	639	639	640	641	642	644	644	644	644	645	645	646	651	652	653	653	655	655	655	656	656	657	657	657	0	0	584	584	582	581	581	580	580	580	580	581	582	582	581	581	582	582	582	582	579	579	582	582	582	583	585	586	586	586	586	587	587	587	587	0	0	0	0	0	0	0	719	717	717	719	719	719	719	719	719	719	717	716	716	714	714	714	714	714	714	716	714	714	716	714	714	716	716	716	716	714	714	714	714	714	714	714	714	714	714	714	714	714	714	713	713	713	713	713	713	713	713	713	713	711	711	711	711	711	710	710	710	710	710	710	710	710	710	710	710	708	708	707	707	707	705	705	707	707	707	707	707	707	705	705	705	705	704	704	704	704	704	704	704	0	0	0	0	0	0	0	0	0	0	0	0	0	0	0	0	0	0	0	0	0	0	0	0	0	0	0	0	0	0	0	0	0	0	0	0	0	0	0	0	0	0	0	0	0	0	0	0	0	0	0	0	0	0	0	0	0	0	0	0	0	0	0	0	0	0	0	0	0	0	0	0	0	0	0	0	0	0	0	0	0	0	0	0	0	0	0	0	0	0	0	0	0	0	0	0	0	0	0	0	0	0	0	0	689	689	686	683	683	683	683	682	682	682	682	680	679	679	679	679	680	680	680	680	680	682	682	682	680	680	680	679	679	679	679	680	680	679	679	678	678	678	678	678	678	678	678	678	675	675	674	674	674	672	672	674	675	676	678	678	678	678	676	676	676	0	0	0	0	0	0	0	0	0	0	0
0	0	0	0	0	0	0	0	0	0	0	0	0	0	0	0	0	0	0	0	0	0	0	0	0	0	0	0	0	0	0	0	0	0	0	737	737	737	739	740	740	740	740	742	742	742	742	742	742	740	740	740	742	742	742	742	743	743	742	742	745	745	745	745	745	745	745	745	747	747	747	747	747	747	748	748	748	748	748	748	748	748	750	750	750	750	750	750	752	752	752	753	752	752	753	753	753	753	753	753	753	753	753	753	753	755	755	755	755	755	755	755	755	755	755	755	755	755	755	755	755	756	758	758	758	755	752	750	750	750	750	750	752	752	753	753	755	755	755	755	753	753	753	753	753	755	756	758	758	758	760	760	760	761	761	765	765	884	887	887	889	889	891	891	891	894	894	894	896	896	0	761	763	763	763	763	765	765	767	767	768	770	770	770	772	772	773	0	0	0	955	961	955	955	955	955	958	958	961	961	961	961	963	963	966	966	966	966	969	969	969	969	969	972	972	972	972	972	972	972	972	974	974	974	977	977	977	977	977	977	977	977	977	977	977	980	980	980	983	983	983	983	983	985	985	985	985	988	988	988	988	988	991	988	988	988	988	988	0	0	0	0	713	711	711	711	711	711	711	710	710	708	708	707	707	707	707	705	705	705	704	704	704	703	703	703	703	703	703	635	635	635	635	635	633	632	632	632	633	633	634	635	636	636	638	639	639	640	641	642	644	644	644	644	645	645	646	651	652	653	653	655	655	655	656	657	658	658	658	660	662	662	584	582	581	581	579	579	581	581	581	582	583	582	582	582	583	583	583	580	580	583	583	583	584	586	586	586	586	587	587	587	587	587	0	0	0	0	0	0	717	717	717	717	717	719	719	719	719	717	717	717	714	716	714	714	714	714	714	714	714	714	714	714	714	714	714	714	714	714	713	713	713	713	713	713	713	713	713	713	713	713	713	713	713	713	713	713	711	710	710	711	711	710	710	710	710	710	708	708	708	707	707	707	707	707	707	707	707	708	707	705	705	705	705	705	705	705	705	705	707	705	705	705	704	704	704	704	704	704	704	704	704	704	0	0	0	0	0	0	0	0	0	0	0	0	0	0	0	0	0	0	0	0	0	0	0	0	0	0	0	0	0	0	0	0	0	0	0	0	0	0	0	0	0	0	0	0	0	0	0	0	0	0	0	0	0	0	0	0	0	0	0	0	0	0	0	0	0	0	0	0	0	0	0	0	0	0	0	0	0	0	0	0	0	0	0	0	0	0	0	0	0	0	0	0	0	0	0	0	0	0	0	0	0	0	0	686	686	687	683	683	683	682	682	682	682	682	680	680	679	679	679	679	679	680	680	680	680	680	682	680	679	679	679	678	678	678	678	679	679	678	678	676	676	676	675	675	676	676	678	676	674	674	672	672	672	672	672	674	675	676	676	678	676	676	676	676	676	0	0	0	0	0	0	0	0	0	0	0
0	0	0	0	0	0	0	0	0	0	0	0	0	0	0	0	0	0	0	0	0	0	0	0	0	0	0	0	0	0	0	0	0	0	0	737	737	739	739	740	740	740	742	742	742	742	742	742	742	740	740	740	742	742	742	742	743	745	745	745	745	745	747	747	747	747	747	747	747	747	747	748	748	748	748	748	748	750	750	750	750	750	750	750	750	750	750	752	752	753	753	753	753	753	753	753	753	753	753	753	753	755	755	755	755	755	755	756	756	755	755	755	755	755	755	755	755	755	756	756	756	758	758	760	760	756	755	750	750	750	750	750	752	752	753	755	755	755	756	756	753	753	753	755	755	756	758	758	758	760	760	760	761	761	763	765	767	884	884	887	887	889	889	891	891	891	894	894	896	896	896	0	763	763	763	765	765	765	767	768	768	770	770	772	772	773	773	0	0	0	0	963	961	961	961	961	961	961	961	961	963	963	963	966	966	966	969	969	969	969	969	969	972	972	972	972	974	974	974	974	974	974	977	977	977	980	980	980	980	980	980	980	980	980	980	980	980	983	983	983	983	985	985	985	985	985	988	988	988	988	991	991	991	991	988	988	991	991	991	0	0	0	713	710	710	710	710	710	710	710	708	708	708	707	707	707	707	705	704	704	704	704	704	703	703	701	701	701	701	701	635	635	635	635	634	633	633	633	633	633	634	635	635	636	638	639	639	640	641	642	644	644	644	644	645	645	646	650	651	652	653	655	655	655	655	656	657	658	658	660	662	662	662	662	662	581	579	579	582	582	582	582	583	582	582	582	581	581	583	583	583	584	584	585	585	586	587	587	589	589	590	588	588	588	0	0	0	0	0	0	716	716	717	717	717	717	717	717	717	716	716	716	714	714	714	714	714	714	714	714	714	713	713	713	713	713	713	713	713	713	713	713	713	713	713	713	713	713	713	713	713	713	713	711	711	711	711	711	711	710	710	710	708	708	708	708	707	707	707	707	707	707	707	707	705	705	705	705	705	705	705	704	704	704	704	704	704	704	705	705	705	705	704	704	704	704	704	703	703	703	704	704	704	704	0	0	0	0	0	0	0	0	0	0	0	0	0	0	0	0	0	0	0	0	0	0	0	0	0	0	0	0	0	0	0	0	0	0	0	0	0	0	0	0	0	0	0	0	0	0	0	0	0	0	0	0	0	0	0	0	0	0	0	0	0	0	0	0	0	0	0	0	0	0	0	0	0	0	0	0	0	0	0	0	0	0	0	0	0	0	0	0	0	0	0	0	0	0	0	0	0	0	0	0	0	0	0	686	686	682	682	682	682	682	682	682	682	680	680	680	679	678	678	678	678	678	679	679	679	679	680	680	678	678	678	678	678	678	678	678	676	676	675	675	675	675	674	674	675	675	676	675	674	674	672	672	672	672	672	674	674	676	676	678	676	676	676	676	676	0	0	0	0	0	0	0	0	0	0	0
0	0	0	0	0	0	0	0	0	0	0	0	0	0	0	0	0	0	0	0	0	0	0	0	0	0	0	0	0	0	0	0	0	0	0	739	739	739	740	740	742	742	742	742	742	742	742	743	742	742	742	742	742	742	743	743	745	745	745	745	747	747	747	747	747	747	747	748	748	748	748	748	748	748	748	748	748	750	750	750	752	752	752	752	752	752	752	753	753	753	753	753	753	753	753	753	753	753	753	755	755	755	755	755	755	755	755	756	756	756	756	756	756	756	756	756	756	756	756	758	758	758	760	760	760	758	756	753	752	750	750	750	752	753	755	755	755	756	756	758	758	755	755	755	756	756	758	758	758	760	760	761	761	763	763	765	767	884	884	884	887	887	887	889	889	891	891	894	894	894	896	896	763	763	763	765	765	767	767	768	770	770	772	772	772	773	775	775	0	0	972	966	963	963	963	963	963	963	963	963	963	966	966	969	969	972	972	972	972	972	972	972	974	974	974	974	977	977	977	980	980	980	980	977	980	980	980	980	980	983	983	983	980	980	980	980	983	983	983	983	985	985	985	985	988	988	988	991	991	991	991	994	994	994	991	991	991	991	991	0	0	0	0	708	708	708	708	708	708	708	708	708	708	707	707	707	705	705	704	704	704	703	703	703	703	701	701	701	701	701	0	636	636	635	634	633	633	633	633	633	634	635	635	636	638	639	639	640	641	642	644	644	644	644	645	645	646	650	651	652	653	655	655	655	655	656	657	658	658	660	662	662	662	662	663	663	663	663	582	582	583	583	583	582	582	582	581	581	585	584	584	585	585	586	586	587	588	588	590	590	590	589	589	589	0	0	0	0	0	714	714	714	717	717	717	717	717	717	716	714	714	714	713	714	714	714	714	714	714	714	713	713	713	713	713	713	713	713	713	713	713	713	713	713	711	711	711	711	711	711	711	711	710	710	708	708	710	710	708	708	707	707	705	705	705	707	705	705	705	705	705	705	705	705	705	704	704	704	704	704	704	703	703	703	703	703	704	704	704	704	704	704	703	703	703	703	701	701	701	703	703	704	704	0	0	0	0	0	0	0	0	0	0	0	0	0	0	0	0	0	0	0	0	0	0	0	0	0	0	0	0	0	0	0	0	0	0	0	0	0	0	0	0	0	0	0	0	0	0	0	0	0	0	0	0	0	0	0	0	0	0	0	0	0	0	0	0	0	0	0	0	0	0	0	0	0	0	0	0	0	0	0	0	0	0	0	0	0	0	0	0	0	0	0	0	0	0	0	0	0	0	0	0	0	0	0	0	686	686	680	680	680	680	680	680	680	680	680	680	679	678	676	676	676	676	676	676	676	678	678	678	678	676	676	676	676	676	676	676	676	675	675	674	674	674	674	674	674	674	674	674	672	671	671	671	671	671	671	671	672	674	674	674	674	676	676	676	676	676	0	0	0	0	0	0	0	0	0	0	0
0	0	0	0	0	0	0	0	0	0	0	0	0	0	0	0	0	0	0	0	0	0	0	0	0	0	0	0	0	0	0	0	0	0	0	740	740	742	742	742	742	742	742	742	742	743	743	743	743	742	742	743	743	743	743	743	745	747	747	747	747	747	747	747	747	747	748	748	748	748	748	748	748	748	750	750	750	750	750	750	752	752	752	752	752	753	753	753	753	753	753	753	753	753	753	755	755	755	755	755	755	756	756	756	756	756	756	758	758	756	756	756	756	756	756	756	756	756	758	758	758	760	760	760	760	760	756	755	753	752	752	752	753	753	755	756	756	758	758	758	758	760	758	758	758	758	758	758	760	760	760	761	761	763	763	765	765	765	882	884	884	887	887	887	889	889	891	891	894	894	894	894	894	763	765	765	767	767	767	768	770	770	772	772	772	773	775	779	779	0	972	969	966	966	963	963	963	966	966	966	966	969	969	969	969	972	972	972	972	972	972	974	974	974	977	977	980	980	980	983	983	983	983	983	983	983	983	983	983	983	985	985	983	983	983	985	985	985	985	985	988	988	988	991	991	991	991	991	991	991	991	994	994	997	997	997	997	997	991	0	0	0	0	708	707	707	707	707	707	707	707	707	707	705	705	705	705	705	704	704	703	703	701	701	701	698	698	698	700	700	700	636	639	638	635	634	634	633	633	633	634	635	635	636	638	639	639	640	640	641	642	644	644	644	645	645	647	650	651	652	653	653	655	655	656	657	657	658	660	661	662	662	662	663	663	665	665	665	667	667	667	667	583	582	582	582	582	585	583	583	584	584	587	587	588	589	589	589	590	590	713	713	713	713	0	0	0	0	714	713	713	714	716	716	716	716	716	714	714	713	713	713	713	713	713	713	713	713	713	713	711	711	711	711	711	711	711	711	711	711	711	711	711	711	711	711	711	710	710	708	708	708	708	708	707	707	708	708	707	707	705	705	705	705	705	705	705	705	704	704	704	704	704	704	704	704	704	704	703	703	701	701	701	701	701	701	703	703	703	703	703	703	700	700	700	700	700	700	700	700	700	0	0	0	0	0	0	0	0	0	0	0	0	0	0	0	0	0	0	0	0	0	0	0	0	0	0	0	0	0	0	0	0	0	0	0	0	0	0	0	0	0	0	0	0	0	0	0	0	0	0	0	0	0	0	0	0	0	0	0	0	0	0	0	0	0	0	0	0	0	0	0	0	0	0	0	0	0	0	0	0	0	0	0	0	0	0	0	0	0	0	0	0	0	0	0	0	0	0	0	0	0	0	0	0	0	0	686	686	679	679	679	679	679	679	680	679	679	679	679	678	676	676	676	675	675	675	675	675	674	672	671	671	671	671	671	672	671	671	671	671	671	671	671	672	672	671	671	670	670	670	670	670	670	670	670	671	670	670	672	672	674	674	674	676	676	676	676	0	0	0	0	0	0	0	0	0	0	0	0
0	0	0	0	0	0	0	0	0	0	0	0	0	0	0	0	0	0	0	0	0	0	0	0	0	0	0	0	0	0	0	0	0	0	0	742	742	742	742	742	743	743	743	743	743	743	745	745	745	745	745	745	745	745	745	747	747	747	747	747	747	747	748	748	748	748	748	750	750	750	750	750	750	750	750	752	752	752	752	752	752	752	752	753	753	753	753	753	753	755	755	755	755	755	755	755	756	756	756	756	756	758	758	758	758	758	758	758	758	758	758	758	758	758	758	758	758	758	758	760	760	760	761	761	761	760	756	755	753	752	752	753	753	753	755	756	756	758	758	760	760	760	758	758	758	758	758	760	760	760	761	761	763	763	763	765	765	882	882	884	884	884	887	887	889	889	889	891	891	891	894	894	894	0	767	767	767	767	768	770	770	772	772	772	773	775	777	779	780	780	780	972	966	966	966	963	963	966	966	966	969	969	969	972	972	972	972	972	972	972	974	974	974	977	977	977	980	980	980	983	983	983	983	983	983	985	985	985	985	985	985	985	985	985	985	988	988	988	988	988	988	991	991	991	991	991	994	994	994	994	994	997	1000	1000	1000	1000	1000	1000	0	0	0	0	0	705	705	705	705	705	705	705	705	705	705	705	704	704	704	704	703	703	703	701	701	701	700	698	698	698	697	695	695	0	640	639	636	635	634	634	634	634	634	634	635	635	638	638	639	639	640	641	642	642	644	644	645	646	648	650	651	652	652	653	653	655	655	656	657	658	660	661	661	662	662	662	663	665	665	666	667	667	667	667	666	666	582	582	582	583	583	583	584	584	713	713	713	713	713	713	713	713	713	711	711	711	710	710	711	711	713	713	713	713	714	714	714	714	714	713	713	713	713	713	711	711	711	711	711	711	711	711	710	710	710	710	711	710	710	710	710	710	710	710	710	710	710	710	710	710	708	708	707	707	707	707	707	707	707	707	707	705	704	704	704	704	704	704	704	704	703	703	703	703	703	703	703	703	703	703	701	701	700	700	700	700	700	700	701	701	701	701	701	701	700	700	698	698	698	698	697	697	697	0	0	0	0	0	0	0	0	0	0	0	0	0	0	0	0	0	0	0	0	0	0	0	0	0	0	0	0	0	0	0	0	0	0	0	0	0	0	0	0	0	0	0	0	0	0	0	0	0	0	0	0	0	0	0	0	0	0	0	0	0	0	0	0	0	0	0	0	0	0	0	0	0	0	0	0	0	0	0	0	0	0	0	0	0	0	0	0	0	0	0	0	0	0	0	0	0	0	0	0	0	0	0	0	0	0	0	0	676	676	676	676	676	676	676	676	676	676	676	676	676	675	675	675	675	674	674	672	671	670	669	669	670	670	670	671	670	670	671	671	671	671	671	671	672	671	670	670	670	670	670	670	670	670	670	669	669	669	672	672	674	674	674	0	0	0	0	0	0	0	0	0	0	0	0	0	0	0	0
0	0	0	0	0	0	0	0	0	0	0	0	0	0	0	0	0	0	0	0	0	0	0	0	0	0	0	0	0	0	0	0	0	0	0	742	742	742	743	743	743	743	743	743	743	745	745	747	747	745	745	747	747	747	747	747	747	747	747	747	748	748	748	748	748	748	748	750	750	750	750	750	750	750	752	752	752	752	752	752	753	752	752	753	753	753	753	755	755	755	755	755	755	755	756	756	758	758	758	758	758	758	758	758	758	760	760	760	760	760	760	760	760	758	758	760	760	760	760	760	760	761	761	761	761	760	758	756	755	753	753	753	753	755	755	756	758	758	758	760	760	760	758	758	758	760	760	760	760	761	761	763	763	765	765	765	765	882	882	882	884	884	884	884	887	889	889	891	891	891	891	891	894	894	767	768	768	768	768	770	772	772	772	772	773	775	777	779	779	779	779	972	969	969	966	966	966	969	969	969	972	972	972	972	972	972	972	972	974	974	974	974	977	977	980	980	980	980	983	983	983	983	983	983	985	985	985	985	985	988	988	988	988	988	988	988	991	991	991	991	991	991	991	991	991	994	994	997	997	997	1000	1000	1000	1003	1003	1003	1003	1003	0	0	0	0	0	705	704	704	704	704	704	704	704	704	704	703	703	703	703	703	703	701	701	701	700	700	700	697	697	697	697	695	695	695	695	639	639	636	635	635	634	634	634	634	635	635	636	638	639	640	640	642	644	644	644	645	645	645	648	650	650	651	652	653	653	655	655	656	657	658	660	661	662	662	662	662	663	663	665	665	666	666	666	666	667	667	713	713	713	714	713	713	713	713	713	711	711	711	711	711	711	711	711	711	711	711	710	710	711	711	711	711	711	713	713	713	713	711	711	711	711	711	711	710	710	710	710	710	710	708	708	708	708	708	708	708	708	708	708	707	707	707	707	707	707	707	707	707	705	705	705	705	704	704	704	704	703	703	704	704	704	704	703	703	703	703	703	701	701	701	701	701	701	701	700	700	700	700	700	700	700	700	700	698	698	698	700	700	700	700	698	698	698	697	697	697	697	695	695	695	693	693	693	687	687	687	0	0	0	0	0	0	0	0	0	0	0	0	0	0	0	0	0	0	0	0	0	0	0	0	0	0	0	0	0	0	0	0	0	0	0	0	0	0	0	0	0	0	0	0	0	0	0	0	0	0	0	0	0	0	0	0	0	0	0	0	0	0	0	0	0	0	0	0	0	0	0	0	0	0	0	0	0	0	0	0	0	0	0	0	0	0	0	0	0	0	0	0	0	0	0	0	0	0	0	0	0	0	0	0	0	675	675	675	675	675	675	675	675	675	675	675	675	675	674	674	672	672	672	671	671	670	669	669	669	670	670	670	670	670	670	671	670	670	670	671	671	671	669	669	669	669	669	669	669	669	670	670	669	669	669	669	672	674	674	0	0	0	0	0	0	0	0	0	0	0	0	0	0	0	0	0
0	0	0	0	0	0	0	0	0	0	0	0	0	0	0	0	0	0	0	0	0	0	0	0	0	0	0	0	0	0	0	0	0	0	0	742	742	743	743	743	743	743	743	743	745	745	747	747	747	747	747	747	747	747	747	747	748	747	747	748	748	748	748	748	750	750	752	752	752	752	753	753	753	753	753	753	752	752	753	753	753	753	753	753	755	755	755	755	755	756	756	756	756	756	758	758	760	760	760	760	760	760	760	760	760	760	760	760	760	760	760	760	760	760	760	761	761	761	761	761	761	761	761	763	761	761	760	758	756	755	753	755	755	755	756	756	758	758	760	760	760	760	0	760	760	760	760	760	761	761	763	763	765	765	765	767	767	880	880	882	884	884	884	884	887	887	889	889	891	891	891	891	891	891	891	768	772	770	770	772	772	772	773	773	775	777	777	779	779	779	779	779	969	969	969	969	969	972	972	972	972	972	972	972	972	972	974	974	974	974	977	977	977	980	980	980	980	983	983	983	985	985	985	985	985	985	985	985	988	988	988	991	988	988	991	991	991	991	991	991	991	994	994	994	994	997	997	1000	1000	1000	1000	1003	1003	1003	1003	1003	1003	1003	1003	0	0	0	0	705	703	703	703	703	703	703	703	703	703	701	701	701	701	701	701	701	700	700	698	698	698	697	697	697	697	695	695	695	695	695	639	636	636	635	634	634	634	634	635	635	636	638	639	640	640	641	644	644	644	645	645	645	647	650	650	651	652	653	653	655	655	657	657	658	660	661	662	662	662	662	663	665	665	665	666	666	666	667	667	713	713	713	713	713	713	713	713	713	711	711	711	713	711	711	711	711	711	711	711	711	711	711	711	711	711	711	711	711	711	711	711	711	711	710	710	710	710	710	710	708	708	708	708	707	707	707	707	707	707	707	707	707	707	707	707	707	707	705	705	705	705	705	705	705	705	704	704	704	704	703	703	703	703	703	703	703	701	701	701	701	701	700	700	700	700	700	701	700	700	700	700	700	698	698	698	698	698	698	698	698	698	698	698	698	698	697	697	695	695	695	695	694	694	694	693	693	691	687	687	687	0	0	0	0	0	0	0	0	0	0	0	0	0	0	0	0	0	0	0	0	0	0	0	0	0	0	0	0	0	0	0	0	0	0	0	0	0	0	0	0	0	0	0	0	0	0	0	0	0	0	0	0	0	0	0	0	0	0	0	0	0	0	0	0	0	0	0	0	0	0	0	0	0	0	0	0	0	0	0	0	0	0	0	0	0	0	0	0	0	0	0	0	0	0	0	0	0	0	0	0	0	0	0	0	0	675	675	675	675	675	675	675	675	675	674	674	672	672	672	672	671	671	671	671	670	670	669	669	669	670	670	670	670	670	670	671	670	670	670	670	670	670	669	669	669	667	667	667	667	667	667	667	665	665	666	666	0	0	0	0	0	0	0	0	0	0	0	0	0	0	0	0	0	0	0	0
0	0	0	0	0	0	0	0	0	0	0	0	0	0	0	0	0	0	0	0	0	0	0	0	0	0	0	0	0	0	0	0	0	0	0	743	743	743	743	743	743	745	745	745	747	747	748	748	748	747	747	747	748	747	748	748	748	748	748	748	748	750	750	750	750	752	752	752	752	753	753	753	753	753	753	753	753	753	755	755	755	755	755	755	756	758	756	756	758	758	758	758	758	758	758	760	760	760	760	761	760	760	760	760	760	761	761	760	760	761	761	761	761	761	761	761	761	761	761	761	761	761	763	763	763	763	761	760	756	755	755	755	755	756	756	758	758	758	760	760	760	760	0	760	760	760	760	761	763	763	763	765	765	765	767	767	880	880	880	882	884	884	884	884	884	887	887	889	889	891	891	891	891	891	891	0	773	772	772	772	772	773	773	773	775	777	777	779	779	779	779	779	969	969	969	969	969	972	972	972	974	974	974	974	974	974	974	974	977	977	977	980	980	980	983	983	983	983	983	985	985	985	985	985	985	988	988	988	991	991	991	991	991	991	991	991	991	991	994	994	994	994	997	997	997	997	1000	1000	1000	1000	1000	1003	1003	1003	1003	1003	1006	1006	1006	0	0	0	0	0	701	701	703	701	701	701	701	700	700	698	698	700	700	698	698	698	698	698	697	697	697	697	697	695	695	695	695	695	695	695	695	636	635	635	635	634	634	635	635	635	636	638	639	639	640	641	644	644	644	645	645	646	647	648	650	651	652	653	653	655	655	657	657	658	660	661	662	662	662	662	663	665	665	666	666	667	667	667	667	713	713	713	713	713	713	711	711	711	711	711	711	711	711	711	711	711	711	711	711	711	711	711	711	711	711	711	711	711	710	710	710	710	710	710	708	708	708	708	708	707	707	707	707	707	707	707	707	707	707	707	705	705	705	705	705	705	705	705	705	705	704	704	704	704	704	704	703	703	703	701	701	701	701	701	701	701	700	700	700	700	698	698	698	698	698	700	698	698	698	698	698	698	697	697	698	698	697	697	697	698	698	698	698	697	697	697	695	695	695	695	694	694	694	694	693	693	691	691	691	687	0	0	0	0	0	0	0	0	0	0	0	0	0	0	0	0	0	0	0	0	0	0	0	0	0	0	0	0	0	0	0	0	0	0	0	0	0	0	0	0	0	0	0	0	0	0	0	0	0	0	0	0	0	0	0	0	0	0	0	0	0	0	0	0	0	0	0	0	0	0	0	0	0	0	0	0	0	0	0	0	0	0	0	0	0	0	0	0	0	0	0	0	0	0	0	0	0	0	0	0	0	0	0	0	0	674	672	672	674	674	674	674	674	674	674	672	671	671	671	671	671	670	670	670	670	669	669	669	669	669	669	669	669	669	670	670	669	669	669	669	669	669	667	667	667	667	667	667	667	667	667	665	665	665	665	666	0	0	0	0	0	0	0	0	0	0	0	0	0	0	0	0	0	0	0	0
0	0	0	0	0	0	0	0	0	0	0	0	0	0	0	0	0	0	0	0	0	0	0	0	0	0	0	0	0	0	0	0	0	0	0	743	743	743	743	745	745	745	745	747	747	748	748	748	748	747	747	747	748	748	748	748	748	748	750	750	750	750	750	752	752	752	752	752	753	753	753	755	755	753	755	755	755	755	755	756	756	756	756	756	758	758	758	758	758	760	760	760	760	760	760	760	761	761	761	761	761	761	761	763	763	761	761	761	761	765	765	765	765	765	765	765	765	763	763	763	763	763	763	765	765	765	763	761	758	755	755	755	755	756	758	758	760	760	760	760	761	761	0	0	0	761	761	761	763	765	765	765	765	767	767	767	882	882	882	882	882	884	884	884	884	887	887	889	889	889	891	891	891	891	891	0	775	773	773	773	773	773	773	775	777	777	777	779	780	780	780	780	0	972	972	972	974	974	974	974	974	974	974	974	974	974	977	977	980	980	980	983	983	983	983	983	983	983	983	985	985	985	988	988	988	988	988	991	991	994	994	994	991	991	991	991	994	994	994	994	994	997	1000	1000	1000	1000	1000	1003	1003	1003	1003	1003	1003	1006	1006	1006	1006	1006	1006	0	0	0	0	0	701	701	701	701	700	700	700	700	698	698	698	698	698	697	697	697	697	697	695	695	695	695	695	695	695	695	695	695	695	695	695	0	635	635	635	635	635	635	635	635	636	638	639	639	640	641	642	644	644	645	645	646	647	648	650	651	652	653	653	655	655	657	658	658	660	661	661	661	662	662	663	665	665	666	666	667	667	667	667	711	711	713	713	713	713	711	711	711	711	711	711	711	711	711	710	710	711	710	710	711	711	711	710	710	710	710	710	710	708	708	707	707	708	707	707	707	707	707	707	707	705	705	705	705	705	705	705	705	705	704	704	704	704	704	704	705	705	704	704	704	704	704	703	703	703	703	701	701	701	701	700	700	700	700	700	700	698	698	698	697	697	697	697	697	697	698	698	698	698	698	698	697	697	697	697	695	695	695	695	695	697	697	695	695	695	694	694	694	694	694	694	694	693	693	691	691	693	693	691	0	0	0	0	0	0	0	0	0	0	0	0	0	0	0	0	0	0	0	0	0	0	0	0	0	0	0	0	0	0	0	0	0	0	0	0	0	0	0	0	0	0	0	0	0	0	0	0	0	0	0	0	0	0	0	0	0	0	0	0	0	0	0	0	0	0	0	0	0	0	0	0	0	0	0	0	0	0	0	0	0	0	0	0	0	0	0	0	0	0	0	0	0	0	0	0	0	0	0	0	0	0	0	0	0	0	671	671	671	671	671	671	671	672	672	671	670	670	670	670	670	670	669	669	669	669	669	667	667	669	669	669	669	667	667	669	669	669	669	669	669	669	667	666	666	666	666	666	666	666	666	666	665	665	665	666	666	666	0	0	0	0	0	0	0	0	0	0	0	0	0	0	0	0	0	0	0
0	0	0	0	0	0	0	0	0	0	0	0	0	0	0	0	0	0	0	0	0	0	0	0	0	0	0	0	0	0	0	0	0	0	0	743	743	743	743	745	745	747	747	747	748	748	748	748	748	747	747	747	748	748	748	748	750	750	752	752	752	752	752	753	753	753	753	753	753	753	755	755	755	753	755	755	755	755	755	756	758	758	758	758	758	760	760	760	760	760	760	760	760	761	761	761	761	761	761	761	761	761	763	763	763	763	763	765	765	767	767	767	767	767	767	767	767	767	767	767	767	765	765	765	765	765	763	760	758	756	756	756	756	756	758	758	760	760	760	760	761	761	0	0	0	761	763	763	765	765	765	765	767	767	767	767	767	882	882	882	882	884	884	884	884	887	887	887	889	889	891	891	891	891	891	0	775	775	773	773	773	773	775	775	777	777	779	779	780	780	780	780	0	972	972	972	974	974	974	974	974	974	974	974	974	977	977	980	980	980	983	983	983	983	983	983	983	985	985	985	985	985	988	988	988	991	991	991	994	994	994	994	991	994	994	994	994	994	997	997	997	1000	1000	1000	1003	1003	1003	1003	1003	1003	1003	1003	1006	1006	1006	1006	1008	1006	1006	1006	0	0	0	0	701	701	701	700	698	698	698	697	697	697	697	698	697	697	697	697	695	695	694	694	694	694	694	694	694	694	694	694	694	694	691	691	0	636	636	635	635	635	635	635	636	636	638	639	640	641	642	644	644	645	645	646	647	648	650	651	651	652	653	655	655	657	657	658	660	661	661	661	662	662	663	663	665	666	666	667	667	667	667	710	710	711	711	711	711	711	711	710	710	710	710	710	710	710	708	708	710	708	708	708	708	708	708	708	708	708	708	708	707	707	705	705	705	704	704	704	705	705	705	705	704	704	705	704	704	704	704	704	703	703	701	701	701	701	701	703	703	704	703	703	703	703	701	701	701	701	700	700	700	700	700	700	700	698	698	698	697	695	695	695	695	695	695	695	697	697	697	697	697	697	697	695	695	695	695	694	694	694	694	695	695	694	694	694	693	693	693	693	693	693	693	693	691	691	691	691	691	691	0	0	0	0	0	0	0	0	0	0	0	0	0	0	0	0	0	0	0	0	0	0	0	0	0	0	0	0	0	0	0	0	0	0	0	0	0	0	0	0	0	0	0	0	0	0	0	0	0	0	0	0	0	0	0	0	0	0	0	0	0	0	0	0	0	0	0	0	0	0	0	0	0	0	0	0	0	0	0	0	0	0	0	0	0	0	0	0	0	0	0	0	0	0	0	0	0	0	0	0	0	0	0	0	0	0	0	671	670	670	669	669	669	669	670	667	667	667	667	667	667	669	667	667	666	667	667	667	667	667	667	667	667	667	667	667	669	667	667	667	667	667	667	667	666	666	666	665	665	663	663	663	663	662	662	663	663	663	666	0	0	0	0	0	0	0	0	0	0	0	0	0	0	0	0	0	0	0
0	0	0	0	0	0	0	0	0	0	0	0	0	0	0	0	0	0	0	0	0	0	0	0	0	0	0	0	0	0	0	0	0	0	0	745	745	745	745	747	747	747	747	748	748	748	748	748	750	747	747	747	748	748	750	750	750	752	752	752	752	753	753	753	753	753	753	753	753	755	755	755	755	755	755	756	756	756	756	756	758	758	758	758	760	760	760	760	760	760	760	761	761	761	761	761	761	761	763	763	763	763	763	765	765	765	765	765	767	767	767	767	767	767	767	767	767	767	767	767	767	767	767	767	767	765	765	763	761	760	760	758	758	758	760	760	760	760	760	761	761	761	0	0	0	0	765	765	765	765	765	767	767	767	767	767	773	773	880	880	882	884	884	884	884	887	887	887	889	889	889	891	891	891	891	0	777	777	775	775	775	775	775	777	777	777	779	779	780	780	780	780	0	0	972	972	974	974	974	974	977	977	977	977	977	977	980	980	983	983	983	983	983	983	983	983	985	985	985	988	988	988	991	991	991	991	994	994	994	994	997	997	994	994	994	994	994	997	997	997	997	1000	1000	1000	1003	1003	1003	1003	1003	1003	1003	1006	1006	1006	1006	1008	1008	1006	1006	1006	0	0	0	0	0	700	700	700	698	697	697	697	697	697	695	697	695	695	695	695	695	694	693	693	693	693	694	693	693	694	694	693	691	691	691	684	684	640	640	636	635	635	635	636	636	636	638	639	640	641	642	644	644	644	645	645	647	648	650	650	651	652	653	655	655	657	657	658	660	661	662	662	662	662	663	663	665	665	665	666	667	667	708	708	708	710	710	710	710	710	710	708	708	708	708	708	708	708	707	707	708	708	707	708	708	708	708	707	707	707	707	707	705	704	704	704	704	703	703	703	703	703	703	703	703	703	703	703	703	703	703	701	701	701	700	700	700	700	700	701	701	701	701	701	701	701	700	700	700	700	700	698	698	698	698	698	698	698	697	697	695	695	695	694	694	694	694	694	695	695	695	695	695	697	697	695	694	694	694	694	693	693	694	694	694	693	691	691	691	691	691	691	691	691	691	691	691	690	690	690	690	690	0	0	0	0	0	0	0	0	0	0	0	0	0	0	0	0	0	0	0	0	0	0	0	0	0	0	0	0	0	0	0	0	0	0	0	0	0	0	0	0	0	0	0	0	0	0	0	0	0	0	0	0	0	0	0	0	0	0	0	0	0	0	0	0	0	0	0	0	0	0	0	0	0	0	0	0	0	0	0	0	0	0	0	0	0	0	0	0	0	0	0	0	0	0	0	0	0	0	0	0	0	0	0	0	0	0	0	669	669	669	667	667	667	667	667	667	667	667	667	666	666	666	666	666	665	665	665	666	666	666	666	666	666	666	666	666	666	666	665	665	666	665	665	666	665	665	665	663	662	661	661	661	661	661	661	661	662	663	662	662	663	665	665	0	0	0	0	0	0	0	0	0	0	0	0	0	0	0
0	0	0	0	0	0	0	0	0	0	0	0	0	0	0	0	0	0	0	0	0	0	0	0	0	0	0	0	0	0	0	0	0	0	0	747	747	747	747	747	747	748	748	748	748	748	750	750	750	748	748	748	748	750	750	750	752	752	753	753	753	753	753	753	753	755	755	755	755	755	755	755	755	755	756	756	758	758	758	758	758	758	760	760	760	760	760	760	760	760	760	761	761	761	761	761	761	763	763	763	763	763	765	765	765	765	767	767	767	767	767	767	767	768	768	768	768	767	767	767	767	767	767	767	767	767	765	763	761	761	760	760	760	760	760	760	760	761	761	761	761	761	0	0	0	0	767	767	767	767	767	768	768	770	770	772	773	773	880	880	882	882	884	884	884	884	887	887	887	887	889	889	891	891	891	0	779	779	777	777	777	777	777	779	779	779	779	779	780	780	780	780	0	0	972	974	974	974	977	977	977	980	980	980	980	980	980	983	983	983	983	983	985	985	985	985	985	985	988	988	988	991	991	994	994	994	994	997	997	997	997	997	994	994	994	997	997	997	1000	1000	1000	1003	1003	1003	1003	1003	1003	1006	1006	1006	1006	1006	1006	1006	1008	1011	1011	1008	1006	1006	0	0	0	0	0	700	700	697	697	697	695	695	695	695	695	695	695	695	694	694	694	693	691	691	691	691	693	691	691	693	691	691	690	689	687	684	683	683	640	638	636	636	636	636	636	638	639	639	640	641	642	644	644	644	645	645	647	648	648	650	650	651	653	655	655	657	657	658	660	661	662	662	662	662	663	663	663	665	665	666	667	707	707	707	707	707	708	708	708	708	708	708	708	708	707	707	707	707	707	707	707	707	707	707	708	708	707	707	707	705	705	705	704	703	703	703	703	701	701	701	701	701	701	701	701	701	703	701	701	701	701	701	700	700	700	700	698	698	700	700	700	700	698	698	697	697	697	697	698	698	698	697	697	697	697	697	697	697	697	695	694	694	694	694	693	693	693	694	694	694	694	694	694	695	694	694	693	694	694	693	693	693	693	693	693	691	690	690	690	690	690	690	690	690	690	690	689	689	689	689	689	689	0	0	0	0	0	0	0	0	0	0	0	0	0	0	0	0	0	0	0	0	0	0	0	0	0	0	0	0	0	0	0	0	0	0	0	0	0	0	0	0	0	0	0	0	0	0	0	0	0	0	0	0	0	0	0	0	0	0	0	0	0	0	0	0	0	0	0	0	0	0	0	0	0	0	0	0	0	0	0	0	0	0	0	0	0	0	0	0	0	0	0	0	0	0	0	0	0	0	0	0	0	0	0	0	0	0	0	669	667	667	666	666	666	666	666	666	666	666	666	666	666	666	666	666	665	665	665	666	665	665	665	665	665	665	665	663	663	662	662	662	665	663	663	663	665	663	663	661	661	661	661	661	660	660	661	661	661	662	662	662	662	663	663	0	665	665	0	0	0	0	0	0	0	0	0	0	0	0
0	0	0	0	0	0	0	0	0	0	0	0	0	0	0	0	0	0	0	0	0	0	0	0	0	0	0	0	0	0	0	0	0	0	0	748	748	748	748	748	748	748	748	750	750	750	750	750	750	748	748	748	748	752	752	752	752	753	753	753	753	753	755	755	755	755	755	755	755	755	755	756	756	756	756	758	758	758	758	760	760	760	760	760	760	761	761	761	761	761	761	761	761	763	763	763	763	763	763	763	765	765	765	767	767	767	767	767	767	767	767	767	767	768	768	768	768	768	768	768	768	768	768	768	768	767	767	765	763	761	760	760	760	760	760	760	761	761	761	761	763	763	0	0	0	0	767	767	767	767	768	768	770	770	772	772	773	773	773	884	884	884	884	884	884	887	887	887	887	889	889	891	891	891	891	0	779	779	779	779	777	777	777	779	779	779	779	780	780	782	782	786	786	913	913	913	913	913	913	977	980	980	980	980	980	983	983	983	983	985	985	985	985	985	985	985	988	988	988	991	991	994	994	994	994	994	994	997	997	997	997	997	997	997	997	997	1000	1000	1000	1003	1003	1003	1003	1003	1006	1006	1006	1006	1006	1006	1006	1006	1006	1008	1008	1011	1011	1011	1011	1011	1014	1014	0	0	0	700	700	695	695	695	694	694	694	694	694	693	693	693	693	691	691	691	691	691	691	691	691	691	691	691	690	690	687	687	686	683	683	682	682	682	638	638	638	636	636	638	639	639	640	641	642	642	644	644	645	645	647	648	648	650	650	651	652	655	655	657	657	658	660	661	662	662	662	662	663	663	663	665	665	666	667	707	707	707	707	707	707	707	707	707	707	707	707	707	707	705	705	705	705	705	705	707	707	707	707	707	705	704	704	703	703	703	703	701	701	701	701	701	700	700	700	700	701	701	701	701	701	701	701	701	700	700	698	698	698	698	698	698	698	698	697	697	697	697	695	695	695	695	695	695	695	697	697	697	695	695	695	695	695	695	694	693	693	693	693	693	693	694	694	693	693	693	693	693	691	691	691	691	691	691	691	691	690	690	690	689	689	689	689	689	689	689	689	689	689	689	687	687	689	689	689	689	0	0	0	0	0	0	0	0	0	0	0	0	0	0	0	0	0	0	0	0	0	0	0	0	0	0	0	0	0	0	0	0	0	0	0	0	0	0	0	0	0	0	0	0	0	0	0	0	0	0	0	0	0	0	0	0	0	0	0	0	0	0	0	0	0	0	0	0	0	0	0	0	0	0	0	0	0	0	0	0	0	0	0	0	0	0	0	0	0	0	0	0	0	0	0	0	0	0	0	0	0	0	0	0	0	0	0	666	666	666	665	665	666	665	665	665	665	665	665	665	665	665	665	665	665	665	665	665	665	665	665	662	662	663	663	662	662	661	661	661	662	662	662	662	662	662	662	661	661	661	661	660	660	660	660	660	661	661	660	660	661	663	663	665	665	665	0	0	0	0	0	0	0	0	0	0	0	0
0	0	0	0	0	0	0	0	0	0	0	0	0	0	0	0	0	0	0	0	0	0	0	0	0	0	0	0	0	0	0	0	0	0	0	748	748	748	748	748	748	750	750	750	750	750	750	750	750	748	748	748	752	752	752	752	752	753	753	753	753	755	755	755	755	755	756	755	755	755	755	756	756	756	756	758	758	758	760	760	761	761	761	761	761	761	761	761	761	761	761	761	763	763	763	763	765	765	765	765	765	765	767	767	767	767	767	768	768	767	767	768	768	768	768	768	768	768	768	768	768	768	768	768	768	768	767	765	763	763	761	760	760	761	761	761	761	761	761	763	765	765	0	0	0	0	767	767	768	768	768	770	770	772	772	772	773	773	773	884	884	884	884	884	884	887	887	887	887	889	889	891	891	891	891	891	779	780	780	780	779	779	780	780	780	780	780	782	784	786	786	786	788	913	913	913	913	913	920	920	920	983	983	983	983	983	983	985	985	985	985	985	988	988	988	988	991	991	991	994	994	994	994	994	994	997	997	997	997	997	997	997	997	997	1000	1000	1000	1003	1003	1003	1003	1003	1003	1006	1006	1006	1006	1006	1006	1006	1006	1006	1008	1008	1011	1014	1014	1011	1011	1014	1014	1014	0	0	0	0	0	695	695	695	694	694	694	693	693	691	691	691	691	691	691	691	690	690	690	689	689	690	690	690	689	689	687	686	684	683	683	683	683	683	639	639	638	636	636	636	638	639	639	641	642	642	644	644	645	645	646	648	648	650	650	651	652	653	655	657	657	658	658	660	661	661	662	662	663	663	663	665	666	667	667	705	705	705	705	705	705	705	705	705	705	705	705	705	705	705	704	704	704	704	704	704	704	705	705	704	704	704	703	701	701	701	701	701	701	701	701	700	700	700	700	700	700	700	700	700	701	700	700	700	700	698	697	697	697	697	697	697	697	697	695	695	695	695	694	694	694	694	694	694	694	695	695	695	695	695	695	694	694	694	693	693	693	693	693	691	691	693	693	691	691	691	691	693	691	691	690	690	691	690	690	690	689	689	689	689	689	689	689	689	689	687	687	687	687	687	687	687	687	689	689	689	0	0	0	0	0	0	0	0	0	0	0	0	0	0	0	0	0	0	0	0	0	0	0	0	0	0	0	0	0	0	0	0	0	0	0	0	0	0	0	0	0	0	0	0	0	0	0	0	0	0	0	0	0	0	0	0	0	0	0	0	0	0	0	0	0	0	0	0	0	0	0	0	0	0	0	0	0	0	0	0	0	0	0	0	0	0	0	0	0	0	0	0	0	0	0	0	0	0	0	0	0	0	0	0	0	0	0	666	665	665	663	663	665	663	663	665	665	665	665	663	663	663	663	663	663	662	662	662	662	662	662	661	661	661	661	661	661	661	661	661	661	661	661	661	662	661	661	660	660	660	660	660	660	660	660	660	660	660	660	660	660	662	665	665	663	663	663	0	0	0	0	0	0	0	0	0	0	0
