0	0	0	0	0	0	0	0	0	0	0	0	0	0	0	0	0	0	0	0	0	0	0	0	0	0	0	0	0	0	0	0	0	0	0	0	0	0	0	0	0	565	565	565	567	570	570	570	570	571	572	574	574	572	572	571	571	571	571	571	571	572	573	575	577	577	577	577	577	577	578	578	578	578	578	580	580	580	581	581	581	581	581	584	585	586	586	589	0	0	0	0	0	594	593	593	593	594	590	590	591	591	592	592	592	592	590	590	593	593	594	600	602	602	598	598	598	598	598	598	598	599	600	599	599	599	604	604	606	606	606	606	607	608	608	608	607	607	608	608	608	611	611	611	611	611	611	611	613	614	614	615	616	617	618	618	619	619	619	619	619	620	619	619	619	619	622	626	626	626	628	629	629	631	631	631	632	632	633	633	632	632	633	633	633	634	634	635	636	636	638	638	638	640	640	640	640	641	641	641	642	644	644	644	645	646	648	648	648	648	648	650	650	650	651	652	652	653	653	653	655	655	656	656	656	656	656	657	657	662	662	662	663	663	662	662	661	661	661	591	591	591	590	589	588	587	585	584	583	582	581	580	580	579	579	578	578	577	577	576	576	575	575	575	575	575	575	575	575	575	575	576	576	576	576	577	577	577	577	579	579	580	580	581	582	583	583	584	587	587	588	590	591	592	592	592	592	0	0	0	0	697	697	698	700	700	700	700	700	701	703	703	703	703	711	711	711	711	713	713	713	713	713	713	713	714	716	716	716	717	720	722	723	723	725	725	725	725	725	725	725	728	729	731	731	734	737	737	739	739	739	740	740	740	740	740	742	742	742	743	743	743	745	748	750	750	750	748	748	750	745	745	750	756	756	758	758	758	758	758	760	760	763	765	767	767	767	767	767	768	768	770	770	770	772	773	775	775	772	772	773	775	775	775	775	779	779	780	784	788	788	788	788	789	791	793	795	795	793	793	795	793	793	793	812	810	810	812	812	812	812	815	802	802	806	810	812	812	812	814	815	817	819	821	827	833	835	837	839	839	843	852	856	858	858	860	867	871	875	875	875	875	875	0	0	0	2015	2003	2003	2003	2003	2003	2015	2015	2015	2015	2015	2027	2027	2027	2027	2027	2027	2027	2027	2027	2015	2015	2015	2015	2015	2015	2015	2015	2015	2015	2003	2003	2003	2003	2003	2003	2003	2003	2015	2015	2015	1553	1560	1560	1560	1553	1553	1553	1553	1546	1546	1546	1546	1546	1546	1553	1553	1553	1553	1553	1553	1553	0	0	1123	1123	1123	1123	1123	1123	1120	1120	1120	1116	1105	1102	1098	1095	1088	1085	1081	1081	1078	1074	1071	1068	1068	1061	1058	1058	1055	1052	1052	1045	1039	1036	1033	1030	1026	1023	1023	1020	1017	1014	1008	1003	1000	997	994	994	994	991	988	985	980	974	972	972	972	972	969	969	966	963	961	958	955	953	950	950	950	948	948	948	945	942	942	940	940	937	935	932	930	930	930	927	927	927	927	927	925	925	925	925	925	922	922	922	0	0	0	0	0	0	0	0	0	0	0	0	0	0	0	0
0	0	0	0	0	0	0	0	0	0	0	0	0	0	0	0	0	0	0	0	0	0	0	0	0	0	0	0	0	0	0	0	0	0	0	0	0	0	0	0	0	561	561	562	560	560	560	559	560	560	560	559	565	568	568	568	570	570	568	568	568	569	569	569	569	575	575	575	575	576	576	576	576	574	574	574	575	575	579	579	576	576	579	580	585	585	585	0	0	0	0	0	0	0	593	580	589	589	589	589	589	589	590	590	590	591	590	590	592	592	593	593	592	592	595	597	597	597	597	597	597	598	597	597	597	598	599	599	601	602	602	603	603	605	604	604	605	605	606	606	608	609	609	609	611	611	612	612	613	614	615	615	615	615	617	617	618	618	619	618	618	619	619	619	619	620	622	623	623	626	626	627	627	627	629	629	629	629	629	629	629	629	629	629	631	631	632	633	635	635	635	636	636	636	636	636	636	636	636	639	638	638	638	639	640	641	641	641	642	642	644	645	645	646	646	646	647	647	648	648	650	651	651	651	652	652	652	652	653	655	655	661	661	662	661	661	661	661	661	0	592	592	590	589	588	587	585	584	583	582	581	580	580	579	579	578	578	577	577	576	576	575	575	575	575	575	575	575	575	575	575	576	576	576	577	577	577	578	578	579	579	580	580	581	582	583	584	586	587	588	588	590	591	591	592	592	592	0	0	0	697	695	695	697	698	698	698	698	700	700	701	701	701	703	705	708	708	708	711	711	711	711	711	711	711	713	713	713	714	714	716	719	720	722	722	722	723	723	723	722	722	725	725	728	728	731	734	736	737	737	737	737	737	740	737	737	739	739	739	740	742	742	743	747	745	745	743	743	743	745	743	743	745	753	753	755	755	755	755	755	756	756	756	753	753	756	758	758	758	765	767	768	768	768	768	772	773	763	763	765	770	770	772	772	773	777	777	779	780	784	784	786	786	788	789	791	793	793	791	791	789	789	791	791	791	791	784	788	782	782	798	798	798	800	802	806	810	812	812	814	815	817	819	821	827	831	833	835	837	839	843	852	856	858	858	860	871	871	873	878	878	875	875	0	0	2015	2015	2003	2003	2015	2015	2015	2015	2015	2015	2015	2015	2027	2027	2015	2015	2015	2015	2027	2027	2027	2015	2015	2015	2015	2015	2015	2015	2015	2015	2015	2015	2003	2003	2003	2003	2003	2003	2003	2015	2015	2015	2015	2015	2015	2015	2015	1553	1553	1553	1553	1546	1546	1546	1546	1546	1553	1553	1553	1553	1553	1553	1553	1553	0	1123	1123	1123	1127	1127	1123	1123	1120	1120	1120	1109	1105	1098	1095	1091	1088	1085	1081	1081	1078	1074	1071	1068	1064	1061	1058	1055	1052	1052	1045	1042	1039	1033	1030	1026	1023	1023	1020	1017	1014	1011	1006	1000	997	997	994	994	991	988	985	980	974	972	972	972	972	969	969	966	963	961	958	955	953	950	950	950	948	948	948	945	942	942	940	940	937	935	932	930	930	930	930	927	927	927	927	925	925	922	922	922	922	922	922	0	0	0	0	0	0	0	0	0	0	0	0	0	0	0	0
0	0	0	0	0	0	0	0	0	0	0	0	0	0	0	0	0	0	0	0	0	0	0	0	0	0	0	0	0	0	0	0	0	0	0	0	0	0	0	0	0	560	560	560	559	559	559	559	560	560	560	559	565	565	565	565	567	567	567	567	567	568	568	568	569	569	574	573	573	573	573	573	574	573	573	573	573	574	574	574	575	575	577	576	576	577	578	579	579	0	0	0	0	0	580	580	581	584	584	584	588	589	589	589	590	590	590	590	591	591	591	591	590	590	592	595	595	595	595	595	596	596	596	596	596	597	597	598	598	599	600	601	601	602	602	603	604	604	605	606	606	607	607	608	609	609	611	611	611	613	614	614	614	615	616	616	617	617	618	618	618	618	618	619	619	620	622	623	623	624	625	626	626	626	627	627	628	627	627	627	627	628	628	628	629	629	631	632	633	633	634	635	635	634	634	634	634	634	634	635	636	635	635	636	638	638	635	635	636	640	641	642	642	642	645	645	646	646	647	647	647	648	648	648	648	650	650	650	651	653	655	655	660	660	660	661	661	661	661	0	592	592	590	589	588	587	586	584	583	582	581	580	580	579	579	579	578	578	577	576	576	575	575	575	575	575	575	575	576	576	576	576	576	576	577	577	577	577	578	578	579	579	581	581	582	583	584	586	586	588	589	590	591	591	592	592	593	0	0	0	697	693	693	695	697	697	698	698	700	700	700	700	701	701	703	704	707	707	710	710	710	710	710	710	711	710	710	711	711	713	714	714	714	717	717	717	720	719	719	717	717	719	719	716	716	717	734	736	737	737	737	737	731	729	729	729	732	734	736	739	739	739	739	737	737	737	737	740	742	742	743	743	743	752	752	753	753	755	753	753	753	753	752	752	752	752	753	753	753	755	760	765	765	767	765	765	763	763	763	763	765	767	770	770	770	773	775	777	777	779	779	782	786	788	788	791	791	788	784	784	784	788	788	786	784	784	784	788	782	782	795	795	797	798	800	802	806	810	812	812	814	817	819	821	827	829	831	833	837	839	843	854	858	858	858	860	869	871	873	873	878	0	2027	2027	2027	2015	2015	2015	2015	2015	2015	2015	2015	2015	2015	2015	2015	2027	2027	2015	2015	2015	2015	2027	2027	2027	2015	2015	2015	2015	2015	2015	2015	2015	2015	2015	2015	2015	2015	2015	2015	2003	2003	2015	2015	2015	2015	2015	2015	2015	2015	2015	2015	2015	2015	2027	2027	2027	2027	1546	1553	1553	1553	1553	1553	1553	1553	1553	1553	0	0	1123	1123	1127	1127	1123	1123	1123	1120	1120	1113	1105	1105	1098	1095	1091	1088	1085	1085	1081	1074	1071	1068	1064	1061	1058	1058	1055	1052	1048	1045	1042	1036	1033	1030	1023	1023	1023	1017	1014	1011	1006	1000	997	997	994	994	991	988	985	980	977	974	974	972	969	969	966	966	963	958	958	955	953	950	950	950	948	945	945	942	942	940	940	937	935	935	932	930	930	930	930	930	927	927	925	925	925	922	922	922	922	922	922	0	0	0	0	0	0	0	0	0	0	0	0	0	0	0	0
0	0	0	0	0	0	0	0	0	0	0	0	0	0	0	0	0	0	0	0	0	0	0	0	0	0	0	0	0	0	0	0	0	0	0	0	0	0	0	0	0	558	558	560	557	557	557	558	558	559	559	559	559	561	562	563	565	566	566	566	566	567	567	567	567	568	569	570	571	571	571	571	571	572	572	572	572	573	573	573	574	574	576	576	576	576	577	578	579	579	0	0	0	581	580	580	581	581	581	583	585	588	588	588	589	589	589	589	589	589	589	590	589	589	590	591	591	593	594	595	595	595	595	595	595	595	596	597	597	597	598	599	599	600	601	601	601	602	603	605	605	605	606	607	608	608	608	609	609	613	614	614	614	615	615	615	616	616	617	617	617	617	617	618	618	619	620	623	623	624	625	626	626	626	623	623	624	625	625	626	626	627	627	628	629	629	631	632	633	633	633	633	632	631	631	632	632	632	632	634	634	633	633	634	635	635	635	635	636	639	640	640	640	641	642	642	644	645	645	645	646	646	646	646	647	648	647	647	648	648	655	655	655	645	645	645	661	595	595	595	593	593	592	591	589	587	586	584	583	582	581	580	580	580	579	579	578	578	577	576	576	576	576	576	576	576	576	576	576	576	576	576	576	577	577	578	578	578	579	579	580	580	581	583	583	584	585	587	588	589	590	591	591	592	592	592	682	682	682	680	680	682	683	684	690	690	691	693	694	694	697	698	698	700	701	701	703	703	703	704	705	705	705	707	707	707	708	708	707	707	707	707	710	711	711	711	713	713	713	714	714	714	714	714	714	713	713	716	717	719	720	720	720	720	723	723	723	723	725	728	728	731	732	731	731	731	732	732	732	732	734	737	737	739	740	740	742	740	740	745	745	747	747	750	750	750	750	750	752	752	753	755	758	758	761	761	758	758	760	761	761	763	765	767	768	770	772	775	775	773	773	768	767	767	768	768	768	788	788	780	780	786	786	784	784	784	784	786	782	782	793	795	795	798	798	800	804	808	810	812	814	815	819	821	825	829	831	833	837	845	852	854	856	858	858	860	869	869	873	873	0	2027	2027	2027	2027	2027	2027	2027	2027	2015	2015	2015	2015	2015	2015	2015	2015	2027	2027	2015	2015	2027	2027	2027	2027	2027	2015	2015	2015	2015	2015	2015	2015	2015	2015	2015	2015	2015	2015	2015	2015	2003	2003	2015	2015	2015	2015	2015	2015	2015	2015	2015	2015	2015	2015	2027	2027	2027	2027	2027	2027	1553	1553	1553	1553	1553	1553	1553	1553	1553	0	1123	1123	1123	1123	1123	1123	1123	1120	1116	1116	1105	1102	1098	1095	1095	1088	1088	1085	1081	1078	1074	1071	1064	1061	1058	1058	1058	1055	1052	1048	1042	1042	1033	1033	1026	1026	1026	1023	1020	1017	1006	1000	997	997	997	997	994	988	985	983	980	974	974	972	969	969	966	966	963	958	958	955	953	950	948	948	945	945	945	942	940	940	940	937	935	935	932	930	930	930	930	930	927	927	925	925	925	922	922	922	922	922	922	0	0	0	0	0	0	0	0	0	0	0	0	0	0	0	0
0	0	0	0	0	0	0	0	0	0	0	0	0	0	0	0	0	0	0	0	0	0	0	0	0	0	0	0	0	0	0	0	0	0	0	0	0	0	0	0	0	557	557	556	556	556	556	557	557	558	559	558	558	560	561	562	563	565	565	565	565	567	567	567	567	567	568	569	570	570	570	570	570	569	569	569	569	569	572	573	573	574	576	576	576	576	577	577	577	577	575	575	576	579	579	579	579	579	580	581	582	586	588	588	588	588	588	588	588	587	587	589	588	588	589	589	589	591	591	592	594	594	594	594	595	595	595	596	597	597	597	598	598	599	600	600	600	601	602	604	603	603	606	607	608	608	608	609	609	613	613	613	613	614	614	614	614	614	615	615	615	615	615	617	617	618	618	619	619	619	625	584	584	622	622	623	624	625	624	624	625	626	626	624	624	624	626	626	631	631	632	632	629	629	629	631	631	631	631	632	632	632	632	632	633	633	633	634	636	636	639	639	639	640	641	641	642	644	644	644	645	645	644	644	645	645	645	646	646	646	646	646	645	645	646	646	0	595	594	594	593	592	592	591	589	588	586	584	583	582	581	580	580	580	579	579	579	578	578	577	577	576	576	576	576	576	576	576	576	576	576	576	577	577	578	578	578	579	579	579	580	581	582	583	584	584	585	587	588	589	590	591	591	592	592	602	603	604	604	680	680	682	682	684	687	687	687	686	686	689	691	695	697	697	698	698	700	703	703	703	704	704	705	704	704	705	705	705	704	704	704	705	707	708	708	711	711	711	713	713	713	713	713	713	714	713	713	716	717	719	719	719	719	719	720	720	720	720	720	723	725	726	728	728	728	729	729	731	731	731	732	734	736	736	734	734	736	736	737	742	742	742	742	745	743	743	743	747	747	748	748	748	750	752	752	753	753	755	756	756	758	758	758	761	763	763	763	763	767	765	765	765	763	763	763	767	767	768	768	770	775	782	782	782	780	780	782	784	784	784	789	791	793	795	797	798	802	808	810	812	814	815	819	821	827	831	833	833	841	845	848	850	852	852	854	854	860	869	0	0	2027	2027	2027	2027	2027	2027	2027	2027	2027	2015	2015	2015	2015	2015	2015	2015	2015	2027	2027	2015	2015	2027	2027	2027	2027	2027	2015	2015	2015	2015	2015	2015	2015	2015	2015	2015	2015	2015	2015	2015	2015	2015	2015	2015	2015	2015	2015	2015	2015	2015	2015	2015	2015	2015	2015	2027	2027	2027	2027	2027	2027	2027	2027	2027	2015	2015	2015	2015	1553	1553	0	0	1123	1123	1123	1123	1123	1123	1120	1116	1113	1109	1105	1105	1098	1095	1091	1088	1088	1085	1081	1078	1071	1068	1061	1058	1058	1058	1055	1055	1052	1045	1042	1036	1033	1030	1030	1030	1026	1026	1023	1017	1006	1000	1000	997	997	994	994	991	983	980	977	974	972	972	969	969	966	963	961	958	955	950	950	948	948	945	945	945	942	940	940	940	937	935	935	932	932	930	930	930	930	930	927	927	925	925	925	922	922	922	922	922	0	0	0	0	0	0	0	0	0	0	0	0	0	0	0	0
0	0	0	0	0	0	0	0	0	0	0	0	0	0	0	0	0	0	0	0	0	0	0	0	0	0	0	0	0	0	0	0	0	0	0	0	0	0	0	0	0	557	556	555	555	555	555	556	556	558	558	557	557	559	559	562	562	564	563	563	565	566	566	566	565	565	565	567	568	568	569	569	569	568	568	568	568	568	568	568	568	573	574	574	576	576	576	575	575	574	574	574	575	576	577	577	577	578	578	580	579	578	578	579	588	587	587	587	586	586	586	587	587	587	588	587	587	590	590	591	593	594	594	594	594	594	594	594	596	596	596	596	596	597	599	599	600	600	600	602	602	602	602	602	604	604	605	607	613	613	613	613	613	614	614	578	578	579	579	579	579	579	615	615	580	580	580	619	619	619	584	584	584	622	622	623	623	584	584	584	584	584	584	624	584	584	624	626	631	629	631	631	629	629	629	631	629	629	629	631	631	629	628	629	631	631	631	632	633	633	632	632	634	634	639	640	640	642	641	641	642	640	640	640	642	642	642	641	641	641	641	642	641	641	646	646	0	0	594	594	593	592	591	591	590	589	587	584	583	582	581	580	580	580	579	579	579	578	578	577	577	576	576	576	576	576	576	576	576	576	576	576	577	577	578	578	578	579	579	580	580	581	583	584	584	584	585	588	589	590	591	591	591	592	592	601	601	601	601	679	679	680	680	682	684	684	684	686	686	686	687	687	686	693	693	693	695	703	695	695	698	698	701	701	701	703	703	703	703	701	701	703	701	701	704	704	707	707	708	710	710	710	708	708	711	711	711	716	717	717	717	717	717	717	717	719	719	719	719	720	720	723	725	725	725	728	728	729	729	729	731	732	732	731	731	731	732	732	732	734	734	737	737	740	740	740	740	743	743	745	745	745	747	750	750	750	752	752	755	755	756	756	756	760	761	760	760	760	761	761	761	761	763	763	767	767	767	768	768	768	770	770	768	780	780	780	780	782	782	782	789	791	793	795	797	798	802	808	810	812	815	817	819	821	827	833	835	839	841	845	848	850	852	854	854	854	860	0	2027	2027	2027	2027	2027	2027	2027	2027	2027	2027	2027	2027	2027	2027	2027	2027	2015	2015	2027	2027	2027	2027	2027	2027	2027	2027	2027	2027	2015	2015	2015	2015	2015	2015	2015	2015	2015	2015	2015	2015	2015	2015	2015	2015	2015	2015	2015	2015	2015	2015	2015	2015	2027	2015	2015	2015	2015	2015	2027	2027	2027	2027	2027	2027	2027	2027	2015	2015	2015	2015	2015	0	0	0	1123	1127	1123	1123	1123	1123	1123	1120	1116	1113	1109	1109	1105	1098	1095	1091	1091	1088	1085	1081	1074	1071	1068	1061	1061	1058	1055	1055	1052	1042	1042	1036	1033	1033	1030	1030	1030	1026	1023	1017	1014	1006	1003	1000	997	997	994	994	983	980	977	974	974	972	972	969	969	963	961	958	955	950	950	948	948	945	945	945	942	940	940	940	937	935	935	935	932	932	930	930	930	930	927	927	927	925	925	922	922	922	922	922	0	0	0	0	0	0	0	0	0	0	0	0	0	0	0	0
0	0	0	0	0	0	0	0	0	0	0	0	0	0	0	0	0	0	0	0	0	0	0	0	0	0	0	0	0	0	0	0	0	0	0	0	0	0	0	0	0	0	555	555	555	555	555	555	556	558	558	557	557	558	558	559	557	557	558	558	565	566	566	566	565	563	563	567	567	567	567	567	568	568	567	567	567	567	567	568	568	573	572	572	573	574	575	574	573	573	573	574	574	575	574	574	575	577	577	578	578	577	577	578	579	579	585	585	586	585	585	585	585	585	585	585	586	588	589	589	590	591	591	593	593	593	593	593	595	594	594	594	594	595	598	598	599	600	600	601	601	601	601	601	601	602	602	607	607	607	607	577	577	578	578	578	578	578	578	579	579	579	580	580	580	580	580	582	582	582	584	584	584	584	584	584	584	584	584	584	584	584	584	584	583	583	583	623	629	629	628	628	628	628	628	628	628	628	628	628	628	628	627	627	628	628	628	629	631	631	629	629	631	631	628	628	628	631	632	632	633	633	635	636	638	640	641	640	640	640	641	641	641	641	642	642	642	0	595	595	593	592	591	591	590	589	588	584	583	582	581	580	580	580	579	578	578	578	577	577	577	576	576	576	576	576	576	576	576	576	576	577	577	577	578	578	578	579	579	580	581	582	583	584	584	585	586	588	589	589	591	591	592	592	592	600	601	601	603	678	678	678	679	680	682	682	682	682	683	684	686	686	686	686	686	689	687	687	687	690	691	693	695	695	697	697	698	700	701	700	700	700	700	700	700	700	701	701	700	700	701	705	707	707	708	708	707	707	707	716	716	716	716	716	716	717	717	717	717	719	719	720	720	723	725	726	728	728	729	729	729	731	731	729	729	731	732	732	732	732	732	732	732	734	736	737	739	742	740	740	740	743	745	747	748	748	750	750	752	753	753	753	753	755	758	756	756	756	758	760	760	760	763	761	765	767	767	767	767	765	765	768	768	773	773	775	779	780	780	782	788	789	793	795	797	798	802	806	810	812	815	817	821	829	829	833	833	839	843	843	848	850	852	854	854	0	0	0	2027	2027	2027	2027	2027	2027	2027	2027	2027	2027	2027	2027	2027	2027	2027	2027	2027	2027	2027	2027	2027	2027	2027	2027	2027	2027	2027	2027	2015	2015	2015	2015	2015	2015	2015	2015	2015	2015	2015	2015	2015	2015	2015	2015	2015	2015	2027	2027	2027	2027	2027	2027	2027	2027	2027	2015	2015	2015	2027	2027	2027	2015	2015	2027	2027	2027	2015	2015	2027	2027	2027	2027	2027	2027	0	1127	1123	1123	1123	1123	1123	1120	1120	1116	1113	1113	1109	1105	1098	1095	1095	1088	1085	1081	1078	1078	1078	1068	1068	1061	1058	1055	1052	1042	1039	1033	1030	1030	1030	1030	1030	1030	1020	1017	1014	1014	1014	1000	997	997	994	994	983	983	980	977	977	974	974	972	969	969	961	958	955	950	948	948	948	948	948	948	945	942	940	940	937	937	935	935	935	935	930	930	930	930	927	927	927	925	925	925	922	922	922	922	0	0	0	0	0	0	0	0	0	0	0	0	0	0	0	0
0	0	0	0	0	0	0	0	0	0	0	0	0	0	0	0	0	0	0	0	0	0	0	0	0	0	0	0	0	0	0	0	0	0	0	0	0	0	0	0	0	0	555	552	552	553	555	555	555	555	555	555	555	556	556	556	556	556	557	558	558	559	559	561	561	562	562	563	560	560	566	566	567	567	566	566	566	567	567	567	566	566	566	572	569	569	573	570	570	570	571	573	573	572	572	572	573	575	575	575	575	576	576	578	578	578	578	578	578	578	579	585	581	581	581	581	581	586	588	588	589	591	591	592	592	592	592	592	592	592	592	591	591	593	594	598	598	598	598	598	599	600	600	600	600	601	601	602	602	576	577	577	577	577	578	578	578	578	578	578	578	579	580	580	580	580	581	582	582	581	581	582	583	583	583	583	583	583	583	583	582	582	582	582	582	580	580	580	579	579	578	578	579	627	627	626	626	626	626	627	627	627	627	627	627	627	627	627	627	628	628	628	628	627	627	628	628	629	631	631	632	632	633	635	636	640	640	640	640	640	640	640	640	640	641	641	642	0	595	593	593	592	592	591	590	588	587	584	583	582	581	580	580	580	579	578	578	578	577	577	577	577	577	576	576	576	576	577	577	577	577	578	578	578	579	579	579	579	579	580	581	582	584	584	585	585	586	588	589	589	591	591	592	592	599	600	601	601	603	676	676	676	678	678	679	679	679	679	682	682	683	683	683	684	686	687	686	686	686	687	687	690	695	695	695	695	695	697	698	698	698	698	698	698	698	698	698	698	697	697	698	700	705	705	705	705	707	707	707	707	707	707	710	711	711	713	713	714	716	717	717	719	719	722	723	725	725	726	728	728	729	729	729	728	728	729	731	731	731	731	731	731	731	731	732	734	736	737	737	737	737	740	742	747	745	745	747	748	750	750	750	750	750	752	752	753	753	755	756	758	756	756	750	750	765	755	755	765	765	761	761	763	763	765	772	773	777	779	780	780	786	789	793	795	797	798	802	806	810	814	817	819	821	827	831	833	833	833	843	843	0	0	0	0	0	0	2027	2027	2027	2027	2027	2027	2027	2027	2027	2027	2027	2027	2027	2027	2027	2027	2027	2027	2027	2027	2027	2027	2027	2027	2027	2027	2027	2027	2027	2027	2027	2027	2015	2015	2015	2015	2015	2015	2015	2015	2015	2015	2015	2027	2027	2015	2015	2027	2027	2027	2027	2027	2027	2027	2027	2027	2027	2015	2015	2015	2027	2027	2027	2015	2015	2027	2027	2027	2027	2027	2027	2027	2027	2027	2027	2027	2027	2027	2027	2027	2027	1123	1123	1120	1120	1120	1116	1116	1113	1113	1113	1098	1095	1095	2015	2015	1081	1078	1078	2027	2027	2027	1058	1055	1052	1042	1039	1033	1030	1030	1030	1030	1030	1030	1030	1030	1017	1017	1017	0	0	0	0	997	991	991	991	991	1553	1560	1560	1560	1560	969	961	958	955	950	948	948	948	948	948	948	948	945	942	942	942	940	937	937	935	935	930	930	930	930	927	927	927	927	927	925	925	925	925	925	0	0	0	0	0	0	0	0	0	0	0	0	0	0	0	0
0	0	0	0	0	0	0	0	0	0	0	0	0	0	0	0	0	0	0	0	0	0	0	0	0	0	0	0	0	0	0	0	0	0	0	0	0	0	0	0	0	0	555	551	551	553	553	553	553	554	555	555	553	553	555	555	555	555	555	556	556	556	556	556	556	556	557	556	556	558	558	558	566	566	566	566	566	567	567	566	565	565	565	565	565	569	573	570	570	570	571	572	571	571	571	571	572	573	573	574	574	576	576	577	577	577	577	578	578	578	578	579	579	580	579	579	580	579	579	580	582	583	588	590	590	590	590	590	590	590	591	590	590	590	590	590	594	594	597	597	598	599	599	574	574	574	574	574	575	576	577	577	577	577	577	578	578	578	578	578	578	579	579	579	580	581	581	582	582	581	581	582	583	583	583	583	583	583	583	582	582	582	582	582	581	580	580	579	579	579	578	578	577	577	577	577	576	576	626	626	626	626	626	626	626	626	626	626	626	626	627	627	627	627	627	627	627	628	629	629	631	632	633	634	636	638	640	639	639	640	640	640	640	640	641	641	641	0	593	593	593	592	591	590	589	588	587	584	583	582	582	581	580	580	579	579	579	578	578	578	578	577	577	577	577	577	577	577	577	577	577	578	578	578	579	579	579	579	579	580	581	582	584	584	585	586	587	588	589	590	591	592	592	592	599	599	599	599	600	605	674	675	675	675	676	676	676	676	679	680	682	682	682	683	684	686	684	684	684	684	684	686	689	686	686	691	691	691	691	691	690	690	691	694	694	695	695	695	695	695	697	697	705	704	704	704	704	705	705	705	705	707	708	708	708	708	710	710	710	714	716	716	717	719	719	722	722	725	725	726	728	728	728	725	725	728	729	729	729	729	729	729	729	729	731	731	732	732	732	734	736	737	740	747	745	742	742	745	747	748	748	748	750	750	750	752	752	753	753	753	752	750	748	748	748	748	750	755	761	761	761	761	761	763	763	770	773	777	779	780	786	789	793	793	795	798	802	806	812	815	817	821	821	823	831	831	833	833	0	0	0	0	0	0	0	2039	2027	2027	2027	2027	2027	2027	2027	2027	2027	2027	2027	2027	2027	2027	2027	2027	2027	2027	2027	2027	2027	2039	2039	2039	2039	2039	2039	2039	2039	2039	2027	2027	2027	2015	2015	2015	2015	2015	2015	2027	2027	2027	2027	2027	2027	2027	2027	2027	2027	2027	2027	2027	2027	2027	2027	2027	2027	2027	2027	2027	2027	2027	2027	2027	2027	2027	2027	2027	2027	2027	2027	2027	2027	2027	2027	2027	2027	2027	2027	2027	2039	2039	2027	2027	2027	2027	2027	2015	2015	2015	2015	2015	2015	2015	2015	2027	2027	2027	2027	2039	2039	2039	2039	0	0	0	2063	2063	1030	1030	1030	1030	1030	1567	1567	1574	1574	1574	1567	1567	0	0	1546	1546	994	994	991	1553	1553	1560	1560	1560	1560	0	0	0	0	0	950	953	953	953	950	950	950	950	945	945	945	942	942	940	937	937	930	930	930	930	927	927	927	927	927	925	925	925	925	925	0	0	0	0	0	0	0	0	0	0	0	0	0	0	0	0
0	0	0	0	0	0	0	0	0	0	0	0	0	0	0	0	0	0	0	0	0	0	0	0	0	0	0	0	0	0	0	0	0	0	0	0	0	0	0	0	0	0	549	549	549	551	550	549	549	549	549	550	549	549	554	554	553	553	554	555	555	555	555	555	555	556	556	556	556	557	558	558	566	566	565	565	566	567	566	565	564	564	564	563	563	563	562	563	570	569	569	570	569	569	569	570	570	571	571	571	574	575	575	576	576	576	576	577	577	577	577	577	577	578	578	578	579	578	578	579	580	581	582	584	585	586	588	588	588	589	590	590	590	590	590	590	593	594	596	597	597	597	573	573	574	574	574	574	575	576	576	576	577	577	577	578	578	578	578	578	579	579	579	579	580	581	582	582	582	581	581	582	583	583	583	583	583	583	583	582	582	581	581	581	581	581	580	579	579	578	577	577	577	577	577	576	576	576	626	626	626	625	625	625	625	625	625	625	624	624	624	625	625	625	625	626	627	628	628	629	629	631	632	633	627	627	627	627	639	639	638	638	638	640	640	635	635	0	593	593	592	591	591	590	589	588	587	584	584	583	582	581	581	580	580	579	579	579	578	578	578	577	577	577	577	577	577	577	577	578	578	578	579	579	579	579	579	579	580	581	582	583	584	585	586	586	587	588	589	590	591	592	593	593	597	598	598	598	600	605	674	674	674	675	675	675	675	676	676	679	680	682	682	680	680	684	683	683	683	683	684	684	684	684	684	687	687	687	687	686	686	689	689	690	691	693	693	693	693	693	694	695	695	695	697	700	703	703	703	703	704	704	707	707	707	708	708	708	708	710	710	716	716	714	713	713	713	713	713	714	714	728	723	722	722	725	728	728	728	728	729	729	729	729	729	731	731	731	731	734	734	734	734	734	736	736	736	737	737	737	742	743	747	748	748	750	750	752	752	752	750	748	748	748	748	748	750	755	758	760	760	761	761	761	763	768	772	775	779	780	786	789	793	793	795	798	802	808	812	815	817	821	821	823	823	831	0	0	0	0	0	0	2039	2039	2051	2039	2039	2039	2027	2027	2027	2027	2027	2027	2027	2027	2027	2027	2027	2027	2027	2027	2027	2027	2027	2027	2039	2039	2039	2039	2039	2039	2039	2039	2039	2039	2027	2027	2027	2015	2015	2015	2015	2015	2015	2027	2027	2027	2027	2027	2027	2027	2027	2027	2027	2027	2027	2027	2027	2027	2027	2027	2027	2027	2027	2027	2027	2027	2027	2027	2027	2027	2027	2027	2027	2027	2027	2027	2027	2027	2027	2027	2027	2027	2027	2039	2039	2039	2039	2039	2027	2027	2027	2027	2027	2027	2027	2027	2027	2027	2027	2027	2027	2027	2039	2039	2039	2039	2051	2051	2039	2039	2051	2051	2051	1030	1553	1553	1560	1574	1574	1574	1574	1574	1574	1567	1560	1560	1553	1553	1553	1553	1560	1560	1560	1560	1560	1560	1560	1560	0	0	0	0	958	958	958	955	953	953	950	950	948	948	948	948	948	945	940	940	932	932	932	930	930	930	927	927	927	927	925	925	925	925	0	0	0	0	0	0	0	0	0	0	0	0	0	0	0	0
0	0	0	0	0	0	0	0	0	0	0	0	0	0	0	0	0	0	0	0	0	0	0	0	0	0	0	0	0	0	0	0	0	0	0	0	0	0	0	0	0	0	546	546	547	548	548	548	548	548	548	548	549	549	549	551	552	552	552	552	552	553	553	553	553	555	555	555	556	556	557	556	556	556	555	555	566	566	566	559	559	562	562	562	561	561	560	560	564	565	565	567	567	567	568	568	568	568	569	569	570	571	574	574	575	576	576	576	576	576	576	577	575	575	577	578	579	578	578	578	580	578	578	584	584	586	586	586	587	587	589	589	589	590	590	591	593	594	595	596	596	596	571	571	574	574	574	574	575	576	576	576	576	576	577	577	577	578	578	578	579	579	579	579	580	580	581	581	581	581	581	582	582	583	583	583	583	583	583	582	581	581	581	581	580	580	580	580	579	578	577	577	576	576	577	576	574	574	574	574	574	625	625	625	625	624	623	623	622	622	622	623	623	623	624	626	626	627	627	628	628	629	629	628	627	627	627	627	628	628	633	634	635	635	635	635	635	0	593	593	592	591	591	589	589	588	587	584	584	583	582	582	581	580	580	579	579	579	578	578	578	577	577	578	578	578	577	577	578	578	578	578	579	579	580	579	579	580	581	581	582	583	585	585	586	586	587	588	589	590	591	592	593	594	597	598	598	598	600	674	674	672	672	674	674	674	672	674	674	675	680	680	682	678	678	683	679	679	682	682	683	683	682	682	683	683	684	684	684	684	684	686	687	689	689	691	691	691	691	691	693	693	691	691	694	695	698	698	698	698	700	701	705	705	705	707	707	707	707	707	708	708	708	710	708	708	710	710	711	713	711	711	714	717	719	725	728	728	728	728	728	728	728	728	729	728	728	729	729	729	732	732	731	731	731	731	732	731	731	731	734	736	742	745	747	748	748	750	748	748	747	747	745	745	745	747	747	748	755	756	760	760	761	761	763	768	772	775	779	780	786	789	793	795	795	798	798	808	812	815	819	821	823	823	823	0	0	0	0	0	0	2039	2039	2039	2039	2039	2039	2039	2027	2027	2027	2027	2027	2027	2027	2027	2027	2039	2027	2027	2027	2027	2027	2027	2027	2027	2039	2039	2039	2039	2039	2039	2039	2039	2039	2039	2027	2027	2027	2027	2027	2027	2027	2015	2015	2027	2027	2027	2027	2027	2027	2027	2027	2027	2027	2027	2027	2027	2027	2027	2027	2027	2027	2027	2027	2027	2027	2027	2027	2027	2027	2027	2027	2027	2027	2027	2027	2027	2027	2027	2027	2027	2027	2027	2027	2027	2039	2039	2039	2039	2027	2027	2027	2027	2027	2027	2027	2027	2027	2027	2027	2027	2027	2027	2039	2039	2039	2039	2051	2039	2039	2039	2051	2039	2039	2039	2039	2039	1560	1574	1574	1574	1574	1581	1574	1567	1567	1567	1560	1560	1560	1560	1560	1560	1560	1560	1560	1560	1560	1560	0	0	0	961	958	958	958	958	955	955	955	953	948	948	948	950	950	950	948	948	950	940	935	932	932	930	930	930	930	927	927	925	925	925	0	0	0	0	0	0	0	0	0	0	0	0	0	0	0	0
0	0	0	0	0	0	0	0	0	0	0	0	0	0	0	0	0	0	0	0	0	0	0	0	0	0	0	0	0	0	0	0	0	0	0	0	0	0	0	0	0	0	542	542	542	543	543	545	545	545	546	546	547	547	548	549	549	549	550	550	550	550	550	550	551	549	549	554	554	555	555	555	555	554	554	555	566	566	566	559	559	561	561	560	560	560	559	559	560	561	560	560	564	565	565	566	567	567	569	569	569	570	573	574	575	574	574	574	573	573	572	572	572	573	575	577	577	577	577	577	578	577	577	578	584	584	584	586	587	587	589	589	589	563	563	564	566	566	566	569	569	569	570	570	573	574	574	574	575	576	576	576	576	576	577	577	577	577	577	577	578	578	579	579	580	580	580	580	581	580	580	581	581	582	582	582	582	583	583	582	581	581	581	580	580	580	580	580	579	578	577	577	576	576	575	574	573	573	573	573	570	570	625	625	623	623	622	622	620	620	622	622	622	622	622	623	623	625	626	627	627	627	628	626	624	624	625	626	627	627	629	629	633	632	632	632	632	0	593	593	591	591	590	589	588	587	586	584	584	583	583	582	582	581	580	580	579	579	579	579	579	579	579	579	578	578	578	578	578	578	578	579	580	580	580	580	580	581	581	582	583	584	585	585	586	586	588	589	590	590	591	592	593	594	598	598	598	598	604	604	674	672	672	671	670	670	670	671	671	670	670	670	670	671	674	674	672	672	678	679	679	679	679	680	682	682	684	684	684	684	684	684	686	687	689	690	690	690	690	691	691	690	689	689	690	693	694	694	694	695	695	698	700	704	704	705	705	705	705	705	705	705	705	707	707	708	710	710	711	711	711	711	713	713	710	710	708	708	713	713	728	720	720	723	723	723	723	725	726	728	728	728	729	729	728	728	728	728	729	729	729	732	736	736	736	734	734	736	736	737	737	743	743	743	743	745	747	748	752	755	758	760	761	763	768	770	773	775	779	780	786	789	793	795	795	798	798	798	815	815	819	821	821	823	0	0	0	0	2039	2039	2039	2039	2039	2039	2039	2039	2039	2039	2027	2027	2027	2027	2027	2027	2027	2027	2039	2039	2039	2027	2027	2039	2039	2039	2039	2039	2039	2039	2039	2039	2039	2039	2039	2039	2039	2039	2027	2027	2027	2027	2027	2027	2027	2027	2027	2027	2027	2027	2027	2027	2027	2027	2027	2027	2027	2027	2027	2027	2039	2039	2027	2027	2027	2027	2027	2027	2027	2027	2027	2027	2027	2027	2027	2027	2027	2027	2027	2027	2027	2027	2027	2027	2027	2027	2027	2027	2027	2039	2039	2039	2039	2039	2039	2027	2027	2027	2027	2027	2027	2027	2027	2027	2027	2027	2027	2039	2039	2039	2051	2039	2039	2039	2039	2039	2039	2039	2039	2039	2039	1574	1574	1574	1574	1581	1581	1574	1574	1574	1560	1560	1560	1560	1560	1560	1560	1560	1560	1560	1560	0	0	0	966	961	961	961	961	961	958	958	958	955	953	950	950	953	953	953	950	950	950	948	940	937	935	932	932	930	930	930	930	927	927	927	0	0	0	0	0	0	0	0	0	0	0	0	0	0	0	0
0	0	0	0	0	0	0	0	0	0	0	0	0	0	0	0	0	0	0	0	0	0	0	0	0	0	0	0	0	0	0	0	0	0	0	0	0	0	0	0	0	0	541	541	542	542	542	543	544	544	546	546	547	546	546	548	548	549	549	548	548	546	546	547	547	548	548	548	548	555	555	555	553	553	552	552	552	552	554	554	555	555	556	557	558	558	558	558	558	558	559	559	559	559	562	561	561	563	563	563	564	566	569	566	566	566	568	569	569	569	569	569	569	570	570	576	576	576	575	575	575	577	577	577	577	584	584	557	557	557	559	559	559	561	562	563	564	565	566	567	568	569	569	570	570	571	571	572	573	573	573	574	574	575	575	576	576	576	577	577	577	578	579	579	580	580	580	580	580	580	580	580	581	581	582	582	582	582	582	582	581	581	580	580	580	580	579	579	579	578	578	577	576	576	575	573	572	571	571	570	570	570	569	569	623	623	622	619	619	619	619	619	619	619	619	619	620	620	626	627	627	620	620	623	623	623	624	625	625	626	627	627	628	628	627	627	627	0	0	593	591	591	590	589	588	587	586	584	584	583	583	582	582	581	580	580	580	580	579	579	579	579	579	579	579	579	579	578	579	579	579	579	580	580	580	580	580	581	582	583	583	584	585	585	586	586	588	590	590	591	592	593	595	595	598	597	597	597	597	604	0	665	665	665	665	665	666	667	670	669	669	669	669	670	670	670	670	671	675	672	672	672	675	678	679	679	682	683	683	682	682	682	684	686	687	689	689	689	689	690	690	687	686	686	689	689	691	691	691	694	694	695	695	698	703	704	704	704	704	704	703	703	703	703	704	704	704	704	707	710	707	707	707	710	708	707	707	708	710	711	711	711	713	719	719	720	720	722	723	723	723	723	725	725	725	725	726	726	726	726	728	729	732	732	732	732	732	734	734	734	737	740	742	743	743	745	747	747	750	755	758	760	761	763	770	770	773	775	779	780	788	791	795	795	797	798	800	800	815	815	819	821	821	0	0	0	2027	2039	2039	2039	2039	2039	2039	2039	2039	2027	2027	2027	2027	2027	2027	2027	2027	2027	2039	2039	2039	2039	2039	2039	2039	2039	2039	2039	2039	2039	2039	2039	2039	2039	2039	2039	2039	2039	2039	2039	2027	2027	2027	2027	2027	2027	2027	2027	2027	2027	2027	2027	2027	2027	2027	2027	2027	2027	2027	2027	2027	2039	2039	2039	2039	2027	2027	2039	2039	2039	2039	2027	2027	2027	2027	2027	2027	2027	2027	2027	2027	2027	2027	2027	2027	2027	2027	2027	2027	2027	2027	2039	2039	2039	2039	2039	2039	2039	2039	2039	2039	2039	2039	2027	2027	2027	2027	2027	2027	2039	2039	2039	2039	2039	2039	2039	2039	2039	2039	2039	2039	2039	2027	2027	1574	1581	1581	1581	1581	1581	1574	1574	1560	1560	1560	1560	1560	1560	1560	1560	1560	1560	0	966	969	972	966	966	966	963	963	961	961	961	958	958	955	955	955	955	955	955	953	953	953	950	948	942	940	940	940	945	950	950	950	950	950	927	0	0	0	0	0	0	0	0	0	0	0	0	0	0	0	0
0	0	0	0	0	0	0	0	0	0	0	0	0	0	0	0	0	0	0	0	0	0	0	0	0	0	0	0	0	0	0	0	0	0	0	0	0	0	0	0	0	0	540	540	541	541	541	542	543	543	543	541	541	542	540	540	546	546	545	545	546	546	546	546	547	547	547	547	547	547	548	553	553	553	552	552	552	552	552	553	554	555	555	555	556	558	557	557	558	557	557	558	558	558	559	559	559	560	560	561	562	562	562	562	565	565	567	567	567	567	567	568	568	568	568	569	569	576	575	575	577	577	577	577	577	584	584	557	557	558	559	559	559	561	562	563	564	565	565	567	568	568	569	569	569	570	571	571	573	573	573	573	574	575	575	576	576	576	577	577	577	578	579	579	580	580	580	580	580	581	581	581	581	581	581	581	582	582	582	582	581	581	580	580	579	579	579	579	579	577	577	577	576	575	571	571	570	570	569	569	569	568	568	568	569	623	622	622	618	617	617	617	616	616	615	615	616	616	617	617	617	617	617	618	619	619	620	620	622	622	623	623	623	623	623	623	629	629	0	593	591	591	590	589	589	587	586	584	584	584	583	583	582	582	581	580	580	580	580	580	579	579	579	579	579	579	579	579	579	579	579	580	580	580	581	581	581	582	583	583	583	584	584	585	586	587	587	590	591	592	594	595	595	597	598	597	597	597	597	0	0	665	663	663	663	663	663	665	667	666	666	666	666	667	666	666	669	670	672	671	671	672	672	674	675	676	676	682	682	680	680	680	682	679	679	676	676	680	686	686	687	684	684	684	687	687	689	689	690	691	691	691	690	690	690	693	695	697	697	698	698	698	698	700	701	703	703	703	703	703	704	704	705	707	707	707	707	707	710	710	710	710	711	714	714	714	717	719	720	720	720	720	722	722	722	722	723	723	725	725	726	728	729	729	731	731	731	732	732	732	736	739	742	742	743	743	745	747	750	755	758	761	761	765	772	772	773	775	779	780	788	793	795	797	797	798	798	800	0	0	0	0	0	0	0	2027	2027	2027	2039	2039	2039	2039	2039	2039	2039	2027	2027	2027	2027	2027	2027	2039	2039	2039	2039	2039	2039	2039	2039	2039	2039	2039	2039	2039	2039	2039	2039	2039	2039	2039	2039	2039	2039	2039	2039	2039	2027	2027	2027	2027	2027	2027	2027	2027	2027	2027	2027	2027	2027	2027	2027	2027	2027	2027	2039	2039	2039	2039	2039	2039	2039	2039	2039	2039	2039	2039	2039	2039	2027	2027	2027	2027	2027	2027	2027	2027	2027	2039	2027	2027	2027	2027	2027	2027	2027	2027	2039	2039	2039	2039	2039	2039	2039	2039	2039	2039	2039	2039	2027	2027	2027	2027	2027	2027	2027	2039	2039	2039	2039	2039	2039	2039	2039	2039	2039	2039	2039	2039	2027	2027	2015	2015	2015	2015	2015	2015	2027	2039	2039	1560	1560	1560	1560	1560	0	0	0	0	966	966	969	969	969	969	966	966	963	961	961	961	961	961	958	958	958	955	955	955	955	955	955	955	953	948	948	948	948	953	950	950	950	950	950	0	0	0	0	0	0	0	0	0	0	0	0	0	0	0	0	0
0	0	0	0	0	0	0	0	0	0	0	0	0	0	0	0	0	0	0	0	0	0	0	0	0	0	0	0	0	0	0	0	0	0	0	0	0	0	0	0	0	0	539	539	540	540	540	541	542	542	539	539	539	539	539	539	539	539	539	542	544	545	545	545	546	546	546	546	547	547	548	548	548	552	552	551	551	552	552	553	552	552	554	555	555	557	555	555	555	555	555	555	555	557	558	558	558	559	559	559	559	562	560	560	563	563	565	565	566	566	566	566	566	567	567	567	567	576	575	575	577	577	577	577	577	0	0	0	557	558	559	559	559	561	562	562	563	563	564	565	567	567	568	568	568	569	570	570	570	573	573	573	0	0	0	0	0	0	0	0	0	0	0	0	0	0	0	0	0	581	581	581	581	581	581	581	582	582	582	582	581	580	580	580	580	580	579	579	579	577	576	576	576	576	571	570	570	569	569	568	568	567	567	567	569	0	622	622	618	617	617	615	615	614	614	614	614	614	614	614	614	615	615	616	618	618	618	618	619	619	620	620	620	620	620	620	620	629	0	0	0	591	590	590	588	588	588	585	584	584	584	583	583	583	582	582	581	580	580	580	580	580	580	579	579	579	579	579	579	580	580	580	582	582	583	583	583	583	583	583	584	585	586	586	587	587	589	591	592	592	594	595	596	598	598	599	599	599	597	0	0	657	657	657	657	658	658	660	661	662	662	662	662	662	662	663	663	665	663	663	665	669	665	665	674	674	675	675	676	675	675	674	674	675	674	674	674	675	676	678	680	680	682	682	682	684	684	684	687	687	689	687	687	687	687	687	687	693	693	694	695	695	695	695	697	697	698	698	698	698	700	700	701	703	701	701	703	703	704	703	703	704	705	707	707	713	714	714	717	719	719	719	719	719	720	720	723	723	723	725	725	725	728	728	729	729	729	731	731	732	732	737	740	740	742	743	745	745	750	755	758	761	761	765	772	772	773	777	780	782	788	793	795	797	797	798	798	0	0	0	0	0	2027	2027	2027	2027	2027	2027	2039	2039	2039	2039	2039	2039	2039	2039	2027	2027	2027	2039	2039	2039	2039	2039	2039	2039	2039	2039	2039	2039	2039	2039	2039	2039	2039	2039	2039	2039	2039	2039	2039	2039	2039	2039	2039	2039	2027	2027	2027	2027	2027	2027	2027	2027	2027	2027	2027	2027	2027	2027	2027	2027	2027	2027	2039	2039	2039	2039	2039	2039	2039	2039	2039	2039	2039	2051	2039	2039	2039	2027	2027	2027	2039	2039	2039	2039	2039	2039	2039	2039	2039	2039	2027	2027	2027	2027	2039	2039	2039	2039	2039	2039	2039	2039	2039	2039	2039	2039	2027	2027	2027	2027	2027	2027	2027	2039	2039	2039	2039	2039	2039	2039	2039	2039	2039	2039	2039	2039	2039	2027	2015	2015	2015	2015	2015	2015	2027	2039	2039	2051	2051	1560	1560	0	0	0	0	0	966	966	969	969	972	969	969	966	963	963	961	961	961	961	961	961	961	958	958	958	958	958	955	955	955	955	953	950	950	953	950	950	950	950	950	0	0	0	0	0	0	0	0	0	0	0	0	0	0	0	0	0
0	0	0	0	0	0	0	0	0	0	0	0	0	0	0	0	0	0	0	0	0	0	0	0	0	0	0	0	0	0	0	0	0	0	0	0	0	0	0	0	0	0	539	539	538	538	538	539	539	538	538	538	538	538	538	538	539	539	539	541	542	542	544	545	545	546	546	546	545	545	546	547	547	552	552	551	551	551	551	551	550	550	551	552	555	555	554	554	555	555	555	555	555	555	557	557	557	558	558	558	559	558	558	559	560	561	560	560	565	565	564	564	565	565	565	565	565	0	0	0	0	0	0	0	0	0	0	0	558	558	559	559	559	561	561	562	561	559	559	565	567	567	568	568	568	569	570	570	570	0	0	0	0	0	0	0	0	0	0	0	0	0	0	0	0	0	0	0	0	0	0	0	0	0	0	0	0	0	0	0	0	580	580	580	580	580	579	579	579	577	576	576	576	576	571	569	569	569	568	568	568	566	566	565	565	565	0	0	0	617	617	614	614	614	614	613	613	613	613	613	613	614	614	615	617	617	617	617	618	618	619	619	619	619	619	619	619	619	0	0	0	0	590	590	588	588	588	585	584	584	584	583	583	583	582	582	582	582	581	581	580	580	580	579	579	580	580	580	580	580	580	581	582	582	583	583	583	583	583	583	584	585	586	586	587	588	590	592	593	595	595	596	596	599	599	599	599	599	0	0	651	651	652	655	656	656	657	660	661	662	661	661	661	661	661	661	661	662	663	663	665	665	665	665	665	665	665	672	672	672	672	672	672	672	672	672	672	674	675	675	678	678	678	680	680	682	683	683	683	684	686	684	684	684	686	686	686	687	690	691	694	694	694	694	694	694	694	694	695	695	698	698	700	698	698	700	701	701	703	701	701	703	704	704	705	710	710	710	711	713	716	716	716	714	716	716	716	716	717	719	720	722	722	723	725	726	728	729	729	731	732	736	736	739	740	742	743	745	750	755	760	763	765	765	772	773	775	777	779	782	782	788	795	795	797	797	798	0	0	0	2027	2027	2027	2027	2027	2027	2027	2027	2039	2039	2039	2039	2039	2039	2039	2039	2039	2039	2039	2039	2039	2039	2039	2039	2039	2039	2039	2039	2039	2039	2039	2039	2039	2039	2039	2039	2039	2039	2039	2039	2039	2039	2039	2039	2039	2039	2027	2027	2027	2027	2027	2027	2027	2027	2027	2027	2027	2027	2027	2027	2027	2027	2027	2039	2039	2039	2039	2039	2039	2039	2039	2039	2039	2039	2039	2051	2039	2039	2039	2039	2039	2039	2039	2039	2039	2039	2039	2039	2039	2039	2039	2039	2027	2027	2027	2027	2039	2039	2039	2039	2039	2039	2039	2039	2039	2039	2039	2039	2039	2039	2027	2027	2027	2027	2027	2039	2039	2039	2051	2039	2039	2039	2039	2051	2051	2051	2039	2039	2039	2027	2015	2015	2015	2015	2015	2027	2027	2039	2039	2051	2039	2039	0	0	0	0	0	0	966	966	969	969	969	969	969	969	966	963	961	961	961	961	961	961	961	961	961	961	958	958	958	958	955	955	955	955	955	953	953	953	950	950	950	0	0	0	0	0	0	0	0	0	0	0	0	0	0	0	0	0
0	0	0	0	0	0	0	0	0	0	0	0	0	0	0	0	0	0	0	0	0	0	0	0	0	0	0	0	0	0	0	0	0	0	0	0	0	0	0	0	0	0	538	537	536	536	536	536	537	536	536	537	537	537	538	538	538	538	539	540	541	542	544	545	545	545	544	544	544	544	544	545	545	545	548	547	547	547	548	548	548	548	551	551	552	555	553	553	553	553	554	554	554	554	555	555	555	556	557	557	558	557	557	558	558	559	558	558	559	563	563	563	564	565	565	565	565	0	0	0	0	0	0	0	0	0	0	0	558	558	558	558	560	559	559	559	556	556	556	565	565	567	568	568	568	569	570	570	570	0	0	0	0	0	0	0	0	0	0	0	0	0	0	0	0	0	0	0	0	0	0	0	0	0	0	0	0	0	0	0	0	0	0	0	0	0	0	0	0	0	576	576	576	0	0	569	569	566	566	566	566	565	565	565	565	565	0	0	0	0	0	614	614	613	613	609	609	609	611	611	611	612	612	612	615	615	615	616	617	618	619	619	618	618	618	617	616	616	616	0	0	0	0	0	588	588	588	585	584	584	584	583	583	583	583	583	582	582	581	580	580	580	580	580	580	580	580	580	580	580	580	581	582	582	582	583	583	583	584	584	584	586	586	587	587	588	591	592	594	595	596	596	596	599	599	0	0	0	0	0	651	651	652	652	652	651	651	652	652	662	661	658	658	660	660	660	660	661	661	661	662	661	661	662	663	661	661	661	662	665	671	671	671	671	671	672	672	674	674	675	676	676	676	676	676	679	678	678	678	678	679	679	679	679	680	680	684	686	687	690	693	693	693	693	693	693	693	693	693	693	694	694	695	695	695	697	698	700	701	701	701	701	703	703	704	707	707	707	711	713	716	716	716	713	714	714	713	713	713	714	716	717	719	720	723	725	726	728	729	731	732	736	739	739	740	743	745	745	750	755	760	763	768	772	772	773	775	775	779	786	789	789	797	797	797	797	0	2039	2027	2027	2027	2027	2027	2027	2027	2027	2027	2039	2039	2039	2027	2027	2027	2027	2027	2027	2027	2027	2027	2027	2039	2039	2039	2039	2039	2039	2039	2039	2039	2039	2039	2039	2039	2039	2039	2039	2039	2039	2039	2039	2039	2039	2039	2039	2039	2039	2027	2027	2027	2027	2027	2027	2027	2039	2039	2039	2027	2027	2039	2039	2039	2039	2039	2039	2039	2039	2039	2039	2039	2039	2039	2051	2051	2051	2051	2051	2051	2051	2039	2039	2039	2039	2039	2039	2039	2039	2039	2039	2039	2039	2039	2039	2039	2027	2027	2039	2039	2039	2039	2039	2039	2039	2039	2039	2039	2039	2039	2039	2039	2039	2027	2027	2027	2027	2027	2039	2039	2039	2051	2051	2051	2051	2051	2051	2051	2051	2039	2039	2039	2039	2027	2027	2027	2015	2015	2027	2039	2039	2039	2051	2039	2039	0	0	0	0	0	0	0	966	969	969	969	969	969	969	969	963	961	961	961	963	963	963	963	963	963	963	958	958	958	958	958	958	955	955	955	953	953	953	950	950	950	0	0	0	0	0	0	0	0	0	0	0	0	0	0	0	0	0
0	0	0	0	0	0	0	0	0	0	0	0	0	0	0	0	0	0	0	0	0	0	0	0	0	0	0	0	0	0	0	0	0	0	0	0	0	0	0	0	0	0	536	536	536	536	535	535	535	536	536	536	536	536	537	537	537	538	538	539	539	540	542	544	545	544	544	544	542	542	542	542	543	543	546	545	545	546	547	547	547	547	547	547	546	546	553	552	552	552	552	553	553	553	553	554	554	554	554	557	557	556	556	557	556	556	556	556	557	559	562	562	563	563	564	564	565	0	0	0	0	0	0	0	0	0	0	0	558	558	558	558	558	559	559	558	556	556	556	556	565	0	0	0	0	0	0	0	0	0	0	0	0	0	0	0	0	0	0	0	0	0	0	0	0	0	0	0	0	0	0	0	0	0	0	0	0	0	0	0	0	0	0	0	0	0	0	0	0	0	0	0	0	0	0	569	569	566	565	565	566	565	565	566	566	565	0	0	0	0	0	614	614	608	608	608	608	608	608	608	608	609	611	611	611	609	612	613	614	614	615	615	615	615	615	615	614	614	614	0	0	0	0	0	0	0	0	0	584	584	583	583	583	583	583	583	582	581	581	580	580	580	580	580	580	580	580	580	580	580	580	581	582	582	582	583	583	584	584	584	585	586	587	587	588	588	591	593	594	594	596	596	596	600	600	0	0	0	0	0	647	647	648	650	650	650	648	648	648	650	650	658	658	660	657	657	658	660	660	658	658	660	660	660	660	658	658	660	660	660	658	658	669	669	669	671	672	674	674	675	675	675	675	674	674	672	672	674	674	675	675	676	678	678	678	679	680	680	680	680	687	689	689	690	690	690	690	690	690	691	691	691	691	691	693	695	695	695	697	698	700	700	701	701	701	701	701	701	695	695	695	695	695	697	711	710	710	711	711	713	713	714	716	717	722	723	725	728	729	731	732	736	737	739	740	743	745	747	753	756	760	763	767	772	772	773	775	775	788	788	788	789	797	797	0	0	2027	2027	2027	2027	2027	2027	2027	2027	2027	2027	2027	2039	2039	2039	2027	2027	2027	2027	2027	2027	2039	2027	2027	2039	2039	2039	2039	2039	2039	2039	2039	2039	2039	2039	2039	2039	2039	2039	2039	2039	2039	2039	2039	2039	2039	2039	2039	2039	2039	2051	2039	2039	2039	2039	2039	2039	2039	2039	2039	2039	2039	2039	2039	2039	2039	2039	2039	2039	2039	2039	2039	2039	2039	2039	2051	2051	2051	2051	2051	2051	2051	2051	2051	2039	2039	2039	2051	2039	2039	2039	2039	2039	2039	2039	2039	2039	2039	2027	2027	2027	2039	2039	2039	2039	2039	2039	2039	2039	2039	2039	2039	2039	2039	2039	2027	2027	2027	2027	2027	2039	2039	2039	2039	2039	2051	2051	2051	2051	2051	2051	2051	2051	2051	2039	2027	2027	2027	2015	2015	2027	2039	2039	2051	2051	2051	2051	0	0	0	0	0	0	0	966	969	969	969	969	969	969	969	969	966	963	963	963	966	963	963	966	966	963	961	958	958	958	958	958	958	958	955	955	953	953	953	953	953	0	0	0	0	0	0	0	0	0	0	0	0	0	0	0	0	0
0	0	0	0	0	0	0	0	0	0	0	0	0	0	0	0	0	0	0	0	0	0	0	0	0	0	0	0	0	0	0	0	0	0	0	0	0	0	0	0	0	0	536	536	535	534	533	533	533	533	533	535	535	536	536	536	536	537	537	537	537	538	542	544	545	544	542	542	541	541	541	541	541	542	543	544	544	545	546	545	545	545	546	545	545	545	546	552	550	550	550	551	551	551	551	551	552	552	552	556	556	555	555	552	552	553	554	555	556	557	561	561	561	562	563	563	0	0	0	0	0	0	0	0	0	0	0	0	0	0	558	558	558	559	559	555	555	555	556	556	0	0	0	0	0	0	0	0	0	0	0	0	0	0	0	0	0	0	0	0	0	0	0	0	0	0	0	0	0	0	0	0	0	0	0	0	0	0	0	0	0	0	0	0	0	0	0	0	0	0	0	0	0	0	0	0	0	0	565	565	566	566	565	566	566	0	0	0	0	0	0	0	0	608	607	607	607	607	607	607	607	608	608	608	609	609	609	611	611	611	613	613	614	614	615	613	611	611	611	0	0	0	0	0	0	0	0	0	0	584	583	583	583	582	582	582	582	580	580	580	580	580	580	580	580	580	580	580	580	580	580	581	581	582	582	583	583	584	584	585	586	587	588	588	588	591	591	593	594	594	596	596	597	600	600	0	0	0	0	645	645	645	647	647	647	647	647	647	647	648	650	650	653	653	655	655	657	657	660	658	657	657	658	660	657	657	658	658	658	658	658	658	658	660	669	671	672	674	674	674	674	671	671	670	670	670	670	670	670	672	674	675	675	676	676	678	679	676	676	676	678	683	683	687	689	689	689	689	690	690	690	690	690	691	691	693	694	694	695	695	697	697	698	700	700	700	700	700	695	695	695	695	695	695	701	701	703	708	710	711	711	713	714	716	720	723	725	728	728	729	731	734	737	737	740	743	745	748	755	758	760	763	767	770	770	772	773	773	788	788	788	0	0	0	0	2027	2027	2027	2039	2027	2027	2027	2027	2039	2039	2039	2039	2039	2039	2039	2027	2027	2039	2027	2027	2027	2039	2039	2039	2039	2039	2039	2039	2039	2039	2039	2039	2039	2039	2039	2039	2039	2039	2039	2039	2039	2039	2039	2039	2039	2039	2039	2039	2039	2039	2051	2027	2027	2039	2039	2039	2039	2039	2039	2039	2039	2039	2039	2039	2039	2039	2039	2039	2039	2039	2051	2051	2051	2039	2039	2051	2063	2063	2063	2063	2063	2063	2051	2051	2051	2051	2051	2051	2039	2039	2039	2039	2039	2039	2039	2039	2039	2027	2027	2027	2039	2039	2039	2039	2039	2039	2039	2039	2039	2039	2039	2039	2039	2039	2039	2039	2039	2039	2039	2039	2039	2039	2039	2051	2051	2051	2051	2051	2051	2063	2063	2051	2051	2051	2039	2027	2027	2027	2015	2015	2027	2039	2039	2051	2051	2051	2051	2051	0	0	0	0	0	0	966	969	969	969	969	969	969	969	969	966	966	966	966	966	966	966	966	966	966	963	963	961	961	958	958	958	958	958	955	953	953	953	953	953	0	0	0	0	0	0	0	0	0	0	0	0	0	0	0	0	0
0	0	0	0	0	0	0	0	0	0	0	0	0	0	0	0	0	0	0	0	0	0	0	0	0	0	0	0	0	0	0	0	0	0	0	0	0	0	0	0	0	0	536	536	535	535	533	532	532	532	532	532	532	532	535	536	536	536	536	536	537	538	538	538	533	533	542	542	541	541	541	541	541	542	542	543	543	544	545	545	545	545	545	544	544	545	545	545	550	548	548	551	550	550	549	549	549	550	551	556	555	555	554	552	552	553	553	553	554	554	555	561	561	562	563	563	0	0	0	0	0	0	0	0	0	0	0	0	0	0	0	0	0	0	0	555	555	555	556	556	0	0	0	0	0	0	0	0	0	0	0	0	0	0	0	0	0	0	0	0	0	0	0	0	0	0	0	0	0	0	0	0	0	0	0	0	0	0	0	0	0	0	0	0	0	0	0	0	0	0	0	0	0	0	0	0	0	0	565	565	566	566	0	0	0	0	0	0	0	0	0	0	0	0	606	606	606	605	605	605	606	606	606	607	608	608	608	609	611	611	612	613	613	613	613	612	609	609	609	0	0	0	0	0	0	0	0	0	0	0	583	583	583	582	582	582	582	580	580	581	580	580	581	580	580	580	580	580	580	580	580	580	581	581	582	583	583	584	585	586	587	588	588	588	589	592	592	593	594	595	596	596	597	601	601	634	634	634	0	642	642	644	644	645	646	645	645	645	645	646	646	647	648	648	650	650	651	650	650	650	651	655	657	657	657	657	657	658	658	658	658	658	658	660	669	671	672	672	672	672	672	669	666	666	667	667	669	669	669	671	672	672	674	674	675	675	671	671	671	672	672	672	676	679	679	683	683	686	687	687	687	687	687	689	690	690	690	691	691	693	693	693	694	697	698	698	698	697	695	694	694	695	695	695	697	698	701	707	708	710	711	711	713	714	717	723	725	728	728	729	731	734	737	737	742	745	747	755	756	758	760	761	763	767	768	768	773	773	0	0	0	0	0	0	2027	2027	2027	2039	2039	2027	2027	2027	2039	2039	2039	2039	2039	2039	2039	2039	2027	2027	2039	2027	2027	2039	2039	2039	2039	2039	2039	2039	2039	2039	2039	2039	2039	2039	2039	2039	2039	2039	2039	2039	2039	2039	2039	2039	2039	2051	2051	2051	2051	2051	2051	2051	2027	2027	2039	2039	2039	2039	2039	2039	2039	2039	2039	2039	2039	2039	2039	2039	2051	2051	2051	2051	2051	2051	2051	2051	2063	2063	2063	2063	2063	2063	2063	2063	2051	2051	2051	2051	2051	2051	2039	2039	1402	1402	2039	2039	2039	2039	2039	2027	2027	2039	2039	2039	2039	2027	2027	2027	2027	2039	2039	2039	2039	2039	2051	2051	2039	2039	2039	2039	2039	2051	2039	2039	2051	2063	2063	2063	2063	2063	2063	2063	2051	2051	2051	2039	2039	2039	2039	2027	2027	2039	2039	2051	2051	2051	2051	2051	2051	0	0	0	0	0	0	972	972	972	972	972	972	972	972	972	969	969	969	969	969	969	969	969	969	969	966	966	963	961	961	961	958	958	958	955	955	955	955	955	955	0	0	0	0	0	0	0	0	0	0	0	0	0	0	0	0	0
0	0	0	0	0	0	0	0	0	0	0	0	0	0	0	0	0	0	0	0	0	0	0	0	0	0	0	0	0	0	0	0	0	0	0	0	0	0	0	0	0	0	536	536	535	535	533	532	532	532	531	531	531	532	533	535	535	535	536	536	536	530	530	530	533	533	533	534	540	540	540	540	540	542	542	542	542	544	544	544	544	545	545	543	543	544	544	544	545	545	545	545	546	547	547	547	547	548	548	548	548	551	551	551	552	552	552	552	552	553	554	555	555	562	563	563	0	0	0	0	0	0	0	0	0	0	0	0	0	0	0	0	0	0	0	555	555	555	555	556	0	0	0	0	0	0	0	0	0	0	0	0	0	0	0	0	0	0	0	0	0	0	0	0	0	0	0	0	0	0	0	0	0	0	0	0	0	0	0	0	0	0	0	0	0	0	0	0	0	0	0	0	0	0	0	0	0	0	0	0	0	0	0	0	0	0	0	0	0	0	0	0	0	0	606	606	605	603	603	604	604	605	605	606	607	607	608	609	609	612	612	613	613	613	613	612	607	607	606	606	606	0	0	0	0	0	0	0	0	0	0	583	583	582	582	582	582	580	580	581	581	581	581	582	582	581	581	581	580	580	580	580	580	581	581	583	583	584	585	586	587	588	588	588	589	592	592	592	594	595	596	600	600	600	601	634	634	634	0	642	641	641	641	642	644	642	642	645	645	645	645	645	646	647	648	648	648	648	648	648	650	651	653	655	652	652	656	656	657	657	657	657	658	658	658	658	657	657	658	658	658	658	658	662	662	666	666	666	667	669	670	671	671	672	672	671	671	670	670	671	671	672	674	675	676	678	680	682	683	683	684	684	686	687	687	687	689	689	689	689	689	690	690	691	693	693	695	695	694	694	694	694	695	697	697	698	700	705	708	710	711	711	713	714	717	723	725	728	728	731	732	734	737	737	742	745	748	755	756	758	760	761	763	765	767	767	767	773	0	0	0	0	0	2027	2027	2027	2027	2039	2039	2039	2039	2039	2039	2039	2039	2039	2039	2039	2039	2039	2039	2039	2039	2039	2039	2039	2039	2039	2039	2039	2039	2039	2039	2039	2039	2039	2039	2039	2039	2039	2039	2039	2039	2039	2051	2051	2051	2051	2051	2051	2051	2051	2051	2051	2051	2051	2039	2039	2039	2039	2039	2039	2039	2051	2051	2051	2039	2039	2039	2039	2039	2039	2051	2051	2051	2051	2051	2051	2051	1449	1449	1461	1455	1455	1455	1455	2063	2063	2063	2051	2051	2051	2051	2051	1396	1396	1402	1402	1402	1402	2039	2039	2039	2039	2027	2039	1396	1396	1390	1390	2027	2027	2027	2027	2027	2039	2039	2051	2051	2051	2051	2051	2039	2039	2051	2051	2051	2051	2051	2063	2063	2063	2063	2063	2063	2063	2051	2051	2051	2039	2039	2039	2051	2027	2027	2039	2051	2051	2051	2051	2051	2063	2063	0	0	0	0	0	0	977	972	972	972	972	972	972	972	972	972	969	969	969	969	969	969	969	969	969	966	966	966	963	961	961	961	958	958	955	955	955	955	955	955	0	0	0	0	0	0	0	0	0	0	0	0	0	0	0	0	0
0	0	0	0	0	0	0	0	0	0	0	0	0	0	0	0	0	0	0	0	0	0	0	0	0	0	0	0	0	0	0	0	0	0	0	0	0	0	0	0	0	0	536	536	534	534	532	532	532	532	530	530	529	529	528	528	528	529	531	531	532	530	530	530	530	530	532	532	532	532	539	539	539	541	539	539	541	544	544	544	544	544	544	544	542	542	542	542	542	542	542	544	544	545	546	546	546	547	547	548	548	548	549	550	551	551	551	551	551	551	552	555	555	0	0	0	0	0	0	0	0	0	0	0	0	0	0	0	0	0	0	0	0	0	0	0	555	555	555	0	0	0	0	0	0	0	0	0	0	0	0	0	0	0	0	0	0	0	0	0	0	0	0	0	0	0	0	0	0	0	0	0	0	0	0	0	0	0	0	0	0	0	0	0	0	0	0	0	0	0	0	0	0	0	0	0	0	0	0	0	0	0	0	0	0	0	0	0	0	0	0	0	0	0	606	606	605	602	602	603	603	604	604	605	606	606	607	609	609	609	612	613	613	613	613	605	605	605	605	605	605	0	0	0	0	0	0	0	0	0	0	0	0	0	0	0	0	0	0	0	581	581	581	582	582	581	581	581	580	580	579	579	580	580	580	583	583	584	584	586	588	588	588	592	592	592	592	592	0	0	0	600	600	600	0	634	634	634	0	638	638	640	640	641	641	640	640	642	644	642	641	641	642	645	645	646	647	647	647	647	648	650	651	655	651	651	652	653	653	653	653	653	655	656	656	656	656	656	657	657	657	657	658	660	660	662	663	663	665	666	667	667	669	671	670	669	669	669	670	670	671	671	672	674	675	675	678	679	679	679	680	680	684	687	687	687	687	687	687	687	689	689	689	690	690	690	691	691	690	690	691	693	694	695	697	698	700	703	707	710	710	711	713	714	717	723	725	728	729	731	732	736	737	737	743	747	748	755	756	758	760	761	763	765	765	767	767	0	0	0	0	2027	2027	2027	2027	2027	2027	2039	2039	2039	2039	2039	2039	2039	2039	2039	2039	2039	2039	2039	2039	2039	2039	2039	2039	2039	2039	2039	2039	2051	2051	2051	2051	2051	2051	2039	2039	2039	2039	2039	2039	2039	2039	2051	2051	2051	2051	2051	2051	2051	2063	2063	2063	2063	2063	2063	2039	2039	2039	2051	2039	2039	2051	2051	2051	2051	2039	2039	2039	2039	2039	2051	2051	2051	2051	2051	2051	1449	1449	1449	1449	1455	1455	1455	1449	1449	2063	2063	2063	2051	1402	1402	1396	1396	1396	1396	1396	1402	1402	1402	1402	1396	1396	1396	1396	1390	1390	1390	1390	1390	1390	1390	1374	1374	1379	2039	2039	2051	2051	2051	2051	2051	2039	2039	1358	1358	1358	2051	2051	1352	1352	2063	2063	2063	2063	2063	2063	2051	2051	2051	2051	2051	2051	2039	2039	2051	2051	2051	2063	2063	2063	2063	2063	0	0	0	0	0	977	977	974	972	972	972	972	972	972	972	972	972	972	972	972	969	969	969	969	969	969	969	966	963	961	961	961	961	958	953	953	953	953	953	953	0	0	0	0	0	0	0	0	0	0	0	0	0	0	0	0	0
0	0	0	0	0	0	0	0	0	0	0	0	0	0	0	0	0	0	0	0	0	0	0	0	0	0	0	0	0	0	0	0	0	0	0	0	0	0	0	0	0	0	536	536	534	534	532	532	532	532	530	529	529	528	528	526	526	527	527	528	528	529	529	530	530	530	531	531	531	531	532	532	539	541	539	539	541	537	536	536	536	536	536	536	536	540	540	540	541	541	541	543	543	544	544	545	545	546	546	547	547	546	548	549	551	551	551	550	550	551	552	552	555	0	0	0	0	0	0	0	0	0	0	0	0	0	0	0	0	0	0	0	0	0	0	0	555	555	555	0	0	0	0	0	0	0	0	0	0	0	0	0	0	0	0	0	0	0	0	0	0	0	0	0	0	0	0	0	0	0	0	0	0	0	0	0	0	0	0	0	0	0	0	0	0	0	0	0	0	0	0	0	0	0	0	0	0	0	0	0	0	0	0	0	0	0	0	0	0	0	0	0	0	0	0	0	605	602	602	602	603	604	604	604	605	605	607	607	609	609	0	0	613	613	613	605	604	604	604	605	605	0	0	0	0	0	0	0	0	0	0	0	0	0	0	0	0	0	0	0	0	0	0	0	0	0	0	0	0	0	579	579	579	580	580	580	583	584	584	586	586	588	0	592	592	592	0	0	0	0	0	0	0	0	0	0	0	0	0	636	636	638	639	639	639	639	640	640	641	641	641	641	639	639	642	644	646	647	647	647	647	648	650	650	650	650	650	652	652	652	652	652	652	652	652	652	653	653	656	657	656	656	657	658	658	660	660	661	662	663	663	665	665	665	665	665	665	666	667	669	669	670	671	671	672	672	674	674	674	674	675	675	675	676	678	679	679	679	687	687	686	686	687	687	687	687	689	689	689	689	690	691	694	695	697	698	700	703	707	708	710	711	713	714	717	723	725	728	729	732	736	736	737	739	743	747	748	755	756	758	761	761	763	765	765	765	767	0	2039	2039	2027	2027	2027	2027	2027	2039	2039	2039	2039	2039	2039	2039	2039	2039	2039	2039	2039	2039	2039	2039	2039	2039	2039	2039	2039	2039	2039	2039	2039	2051	2051	2051	2051	2051	2051	2051	2039	2039	2039	2051	2051	2051	2051	2051	2051	2051	2051	2051	2063	2063	2063	2063	2063	2063	2063	2063	2051	2051	2051	2063	2051	2051	2051	2051	2039	2039	2027	2027	2027	2039	2039	1467	1461	1461	1449	1449	1449	1449	1449	1449	1449	1455	1455	1449	1443	1413	1413	1402	1402	1402	1402	1402	1396	1396	1396	1396	1396	1402	1402	1396	1396	1396	1396	1390	1390	1390	1390	1390	1390	1390	1385	1385	1374	1374	1379	1379	1379	2051	2051	2051	2051	2051	0	0	1352	1352	1352	1352	1352	1352	1352	1352	1347	1347	1347	1342	1342	1347	2051	2051	2051	2051	2051	2039	2039	2051	2051	2063	2063	2063	2063	2063	0	0	0	980	980	980	977	977	977	974	974	974	974	974	972	972	972	972	972	972	972	972	972	972	969	969	969	969	969	966	963	963	961	961	958	953	953	953	953	953	953	0	0	0	0	0	0	0	0	0	0	0	0	0	0	0	0	0
0	0	0	0	0	0	0	0	0	0	0	0	0	0	0	0	0	0	0	0	0	0	0	0	0	0	0	0	0	0	0	0	0	0	0	0	0	0	0	0	0	0	536	536	534	534	532	532	531	531	531	529	528	527	527	526	526	526	527	527	527	528	528	529	530	530	530	530	531	531	532	532	532	532	532	533	533	537	534	534	535	535	535	535	536	536	537	538	539	540	540	541	541	542	542	543	543	544	544	545	545	545	545	544	544	545	549	549	549	549	549	552	0	0	0	0	0	0	0	0	0	0	0	0	0	0	0	0	0	0	0	0	0	0	0	0	0	0	0	0	0	0	0	0	0	0	0	0	0	0	0	0	0	0	0	0	0	0	0	0	0	0	0	0	0	0	0	0	0	0	0	0	0	0	0	0	0	0	0	0	0	0	0	0	0	0	0	0	0	0	0	0	0	0	0	0	0	0	0	0	0	0	0	0	0	0	0	0	0	0	0	0	0	0	0	0	0	602	602	602	602	604	604	604	605	605	605	607	0	0	0	0	0	0	0	605	604	604	604	605	605	0	0	0	0	0	0	0	0	0	0	0	0	0	0	0	0	0	0	0	0	0	0	0	0	0	0	0	0	0	579	579	579	579	580	580	583	584	584	586	586	0	0	0	0	0	0	0	0	0	0	0	0	0	0	0	0	0	0	633	634	636	636	638	635	635	638	639	640	640	640	640	639	639	640	641	644	644	645	645	646	648	650	650	648	648	650	650	650	650	650	650	651	651	651	651	652	652	653	655	655	655	657	657	657	658	658	660	661	660	660	661	662	662	662	662	663	665	667	667	669	670	671	670	671	672	671	671	671	671	672	674	674	674	675	676	676	676	676	679	679	679	680	682	684	684	686	687	687	687	689	691	693	694	697	698	700	703	707	708	710	711	713	714	717	723	726	728	729	732	734	736	737	740	743	747	750	755	756	758	758	761	763	765	765	765	0	0	2039	2039	2027	2027	2027	2027	2027	2039	2039	2039	2039	2039	2039	2039	2039	2039	2039	2039	2039	2039	2039	2039	2039	2039	2039	2039	2039	2039	2039	2039	2039	2051	2051	2051	2051	2051	2051	2051	2051	2051	2051	2051	2051	2051	2051	2051	2051	2063	2063	2063	2063	2063	2076	2063	2063	2063	2063	2076	2051	2051	2051	2063	2051	2051	2051	2039	2039	2039	2027	1480	1480	1473	1467	1461	1455	1449	1449	1449	1449	1449	1449	1449	1449	1449	1449	1443	1413	1407	1407	1402	1402	1402	1402	1402	1396	1396	1396	1396	1396	1396	1396	1396	1396	1390	1390	1390	1390	1385	1385	1385	1385	1385	1379	1379	1374	1374	1374	1379	1379	2051	2051	2051	2051	2051	1342	1342	1347	1347	1352	1352	1352	1352	1352	1352	1342	1342	1342	1342	1342	1342	1342	2051	2051	2051	2051	2039	2039	2039	2051	2063	2063	0	0	0	0	983	983	980	980	980	980	980	980	980	980	980	974	974	972	972	972	972	972	972	972	972	972	972	969	969	969	969	969	966	966	963	961	961	958	953	953	953	950	950	950	0	0	0	0	0	0	0	0	0	0	0	0	0	0	0	0	0
0	0	0	0	0	0	0	0	0	0	0	0	0	0	0	0	0	0	0	0	0	0	0	0	0	0	0	0	0	0	0	0	0	0	0	0	0	0	0	0	0	0	536	536	534	534	532	532	531	531	530	529	527	527	527	526	526	526	526	527	527	527	528	528	529	529	529	529	529	529	529	529	531	532	532	532	532	532	533	533	533	534	534	535	535	536	536	537	538	539	539	540	540	541	542	542	542	543	543	543	544	544	544	543	543	545	545	547	549	549	549	0	0	0	0	0	0	0	0	0	0	0	0	0	0	0	0	0	0	0	0	0	0	0	0	0	0	0	0	0	0	0	0	0	0	0	0	0	0	0	0	0	0	0	0	0	0	0	0	0	0	0	0	0	0	0	0	0	0	0	0	0	0	0	0	0	0	0	0	0	0	0	0	0	0	0	0	0	0	0	0	0	0	0	0	0	0	0	0	0	0	0	0	0	0	0	0	0	0	0	0	0	0	0	0	0	0	0	602	602	602	602	604	604	604	605	605	0	0	0	0	0	0	0	0	605	604	597	597	596	596	596	0	0	0	0	0	0	0	0	0	0	0	0	0	0	0	0	0	0	0	0	0	0	0	0	0	0	0	0	0	579	579	579	0	0	0	0	0	0	0	0	0	0	0	0	0	0	0	0	0	0	0	0	0	0	0	0	627	627	624	624	624	625	626	633	635	634	633	633	635	636	635	635	638	638	635	635	635	639	646	646	634	648	648	641	641	642	644	644	644	644	646	646	646	646	648	650	652	652	653	653	656	656	656	656	656	657	656	656	656	656	660	658	658	660	661	663	665	666	667	669	669	669	669	670	670	670	670	670	671	672	672	672	672	674	674	674	674	675	675	678	678	679	682	683	684	686	686	686	689	690	693	694	697	698	701	703	707	710	711	713	714	716	722	723	726	728	729	731	732	736	737	737	743	747	755	755	755	758	758	0	0	0	0	0	2051	2051	2039	2039	2027	2027	2027	2039	2039	2039	2039	2039	2039	2039	2039	2039	2039	2039	2039	2039	2039	2039	2039	2039	2039	2039	2039	2039	2039	2039	2051	2051	2051	2063	2063	2051	2051	2051	2051	2051	2051	2051	2051	2063	2051	2051	2051	2051	2051	2063	2063	2063	2063	2076	2076	2076	2063	2076	2076	2076	2051	2051	2051	2063	2051	2051	2051	2051	2039	1480	1480	1480	1480	1473	1467	1461	1455	1449	1449	1449	1443	1443	1443	1443	1443	1443	1425	1419	1407	1407	1407	1402	1402	1402	1402	1396	1396	1396	1396	1396	1396	1396	1396	1390	1390	1385	1385	1385	1385	1379	1379	1379	1379	1379	1374	1374	1368	1368	1368	1352	1352	1342	1342	1336	1336	1331	1331	1336	1342	1347	1347	1347	1352	1352	1342	1342	1342	1342	1342	1342	1342	1342	1342	1347	1347	1347	2051	2051	2039	2039	0	0	0	0	0	980	980	983	983	983	983	980	980	983	983	980	980	980	980	980	977	977	974	974	974	972	972	972	972	972	969	969	969	969	969	966	966	963	961	961	958	953	953	950	950	950	950	0	0	0	0	0	0	0	0	0	0	0	0	0	0	0	0	0
0	0	0	0	0	0	0	0	0	0	0	0	0	0	0	0	0	0	0	0	0	0	0	0	0	0	0	0	0	0	0	0	0	0	0	0	0	0	0	0	0	0	537	536	535	535	532	532	531	530	530	529	527	527	527	526	525	525	525	525	525	526	527	527	527	527	527	527	527	527	527	527	528	528	529	529	531	531	531	531	531	532	533	533	533	533	534	534	534	536	536	537	538	538	538	538	542	542	532	542	542	542	542	542	542	542	544	544	546	549	549	0	0	0	0	0	0	0	0	0	0	0	0	0	0	0	0	0	0	0	0	0	0	0	0	0	0	0	0	0	0	0	0	0	0	0	0	0	0	0	0	0	0	0	0	0	0	0	0	0	0	0	0	0	0	0	0	0	0	0	0	0	0	0	0	0	0	0	0	0	0	0	0	0	0	0	0	0	0	0	0	0	0	0	0	0	0	0	0	0	0	0	537	537	537	0	0	0	0	0	0	0	0	0	0	0	0	0	0	601	601	601	604	604	604	605	605	0	0	0	0	0	0	0	0	0	0	596	596	596	596	596	595	595	595	595	595	0	0	0	0	0	0	0	0	0	0	0	0	0	0	0	0	0	0	0	0	0	0	0	0	0	0	0	0	0	0	0	0	0	0	0	0	0	0	0	0	0	0	0	0	0	0	0	0	625	625	625	625	625	624	624	623	623	625	625	625	626	626	629	629	631	631	632	633	633	633	633	634	634	634	632	632	634	635	635	636	636	636	639	642	642	642	642	642	644	645	645	644	644	648	650	651	652	652	652	653	652	652	652	653	653	655	655	655	656	657	658	663	665	665	666	666	667	667	660	660	666	666	667	667	669	669	669	669	670	669	669	669	670	670	671	672	672	675	679	679	684	684	686	687	690	693	695	698	700	701	703	707	710	711	713	716	717	722	725	726	728	729	731	732	732	737	737	0	0	755	755	755	0	0	0	0	0	0	0	2051	2051	2039	2039	2039	2039	2039	2039	2039	2039	2039	2039	2039	2039	2039	2039	2039	2039	2051	2051	2051	2039	2039	2039	2039	2039	2039	2039	2051	2051	2051	2051	2063	2063	2063	2051	2051	2051	2063	2063	2051	2051	2051	2063	2063	2063	2063	2063	2063	2063	2063	2063	2076	2076	2076	2076	2076	2076	2076	2076	2051	2051	2063	2063	2051	2051	2051	2051	0	1480	1480	1480	1480	1473	1467	1461	1455	1449	1449	1449	1443	1443	1443	1443	1437	1437	1425	1419	1407	1402	1402	1402	1396	1396	1396	1396	1396	1396	1396	1396	1396	1396	1390	1390	1390	1385	1379	1379	1379	1374	1374	1374	1374	1374	1374	1368	1363	1363	1358	1352	1352	1342	1336	1331	1331	1331	1331	1331	1336	1336	1342	1342	1347	1347	1336	1336	1336	1342	1342	1342	1342	1342	1342	1347	1347	1347	1347	1347	1347	0	0	0	0	0	0	980	980	983	983	983	983	983	983	983	983	983	980	980	980	980	977	977	974	974	974	972	972	972	972	972	972	969	969	969	969	963	963	963	963	961	958	958	953	950	950	950	950	0	0	0	0	0	0	0	0	0	0	0	0	0	0	0	0	0
0	0	0	0	0	0	0	0	0	0	0	0	0	0	0	0	0	0	0	0	0	0	0	0	0	0	0	0	0	0	0	0	0	0	0	0	0	0	0	0	0	0	538	537	536	536	532	532	530	530	529	529	527	527	526	526	525	525	525	525	525	525	526	527	527	527	527	527	527	527	527	527	528	528	528	528	531	531	531	531	531	531	531	530	530	531	532	532	532	533	535	535	535	536	536	536	535	534	532	532	532	541	541	542	540	540	540	540	546	0	0	0	0	0	0	0	0	0	0	0	0	0	0	0	0	0	0	0	0	0	0	0	0	0	0	0	0	0	0	0	0	0	0	0	0	0	0	0	0	0	0	0	0	0	0	0	0	0	0	0	0	0	0	0	0	0	0	0	0	0	0	0	0	0	0	0	0	0	0	0	0	0	0	0	0	0	0	0	0	0	0	0	0	0	0	0	0	0	0	0	0	0	537	537	537	0	0	0	0	0	0	0	0	0	0	0	0	0	0	601	601	601	604	604	604	605	605	0	0	0	0	0	0	0	0	0	0	596	595	595	595	594	593	593	594	594	594	0	592	592	593	593	0	0	0	0	0	0	0	0	0	0	0	0	0	0	0	0	0	0	0	0	0	0	0	0	0	0	0	0	0	0	0	0	0	0	0	0	0	0	0	0	0	0	0	625	623	623	623	623	622	622	623	622	622	623	623	624	625	625	626	629	629	631	632	632	632	632	633	634	633	632	632	634	635	635	635	635	635	636	639	639	641	642	642	642	644	644	644	644	647	647	648	652	651	651	651	650	650	651	651	652	653	652	652	655	656	656	661	661	650	651	653	653	655	655	657	658	658	666	666	666	666	666	667	667	667	667	669	669	670	670	671	672	675	679	679	680	680	683	686	687	689	689	698	700	701	707	708	711	711	714	716	717	722	723	726	728	729	729	731	731	0	0	0	0	0	0	0	0	0	0	0	0	0	2063	2051	2051	2051	2039	2039	2039	2039	2039	2039	2039	2039	2039	2039	2039	2039	2039	2039	2051	2051	2051	2051	2051	2039	2039	2039	2039	2039	2051	2051	2051	2051	2051	2063	2063	2063	2063	2051	2051	2063	2063	2051	2051	2051	2063	2063	2063	2063	2063	2063	2063	2063	2063	2076	2076	2076	2076	2076	2076	2076	2076	2063	2063	2063	2063	2063	2063	2063	2051	1492	1480	1480	1480	1480	1473	1467	1461	1455	1449	1449	1449	1443	1443	1443	1443	1437	1431	1419	1419	1407	1402	1396	1396	1396	1396	1396	1396	1396	1396	1396	1390	1390	1390	1390	1385	1385	1379	1379	1379	1374	1368	1368	1363	1363	1363	1363	1358	1358	1358	1352	1342	1342	1336	1331	1331	1326	1326	1331	1331	1331	1336	1336	1336	1336	1336	1336	1336	1336	1336	1336	1342	1342	1342	1342	1342	1342	1342	1342	1342	1342	1342	0	0	0	983	980	980	980	983	983	983	983	983	983	983	983	983	983	983	980	980	977	977	977	977	974	974	974	974	974	972	972	969	969	966	966	963	963	963	961	961	958	958	955	950	950	950	950	0	0	0	0	0	0	0	0	0	0	0	0	0	0	0	0	0
0	0	0	0	0	0	0	0	0	0	0	0	0	0	0	0	0	0	0	0	0	0	0	0	0	0	0	0	0	0	0	0	0	0	0	0	0	0	0	0	0	0	539	538	536	535	535	532	530	530	529	529	527	527	526	526	525	524	524	523	523	524	526	526	527	527	527	527	527	526	525	525	525	525	525	523	523	523	528	528	528	529	529	527	527	527	529	529	532	533	535	535	535	536	536	536	533	533	532	532	532	532	532	532	534	537	537	537	0	0	0	0	0	0	0	0	0	0	0	0	0	0	0	0	0	0	0	0	0	0	0	0	0	0	0	0	0	0	0	0	0	0	0	0	0	0	0	0	0	0	0	0	0	0	0	0	0	0	0	0	0	0	0	0	0	0	0	0	0	0	0	0	0	0	0	0	0	0	0	0	0	0	0	0	0	0	0	0	0	0	0	0	0	0	0	0	0	0	0	0	0	536	536	537	537	0	0	0	0	0	0	0	0	0	0	0	0	0	0	601	601	601	0	0	0	0	0	0	0	0	0	0	0	0	0	0	0	596	594	594	594	593	593	593	593	593	592	592	592	592	592	592	592	0	0	592	592	592	0	0	0	0	0	0	0	0	0	0	0	0	0	0	0	0	0	0	0	0	0	0	0	0	0	0	0	0	0	0	0	0	613	613	614	614	614	0	623	623	623	622	622	622	620	620	620	620	622	622	624	624	625	625	625	626	629	629	631	631	631	633	632	632	632	633	634	634	634	634	634	635	636	636	638	639	640	641	644	644	642	642	644	647	648	648	651	647	647	647	647	647	650	651	651	651	651	652	652	656	656	650	650	651	651	652	655	655	656	657	657	658	658	660	662	663	665	666	666	667	667	669	669	670	671	672	674	678	679	680	680	683	686	686	686	701	701	703	703	707	708	711	713	714	716	719	722	723	726	728	731	731	731	731	0	0	0	0	0	0	0	0	0	0	0	0	0	2063	2051	2051	2051	2039	2039	2039	2039	2039	2039	2039	2039	2039	2039	2039	2039	2039	2039	2051	2051	2051	2063	2051	2051	2051	2051	2051	2051	2051	2051	2051	2051	2051	2051	2063	2063	2063	2051	2051	2051	2063	2063	2063	2063	2063	2063	2063	2063	2063	2063	2076	2076	2076	2076	2076	2076	2076	2076	2076	2076	2076	2063	2063	2063	2063	2063	2063	2063	1492	1492	1480	1480	1480	1473	1473	1467	1455	1455	1449	1449	1449	1443	1443	1443	1437	1431	1431	1419	1413	1407	1402	1396	1396	1390	1390	1390	1390	1390	1390	1390	1390	1390	1390	1385	1385	1379	1379	1379	1374	1363	1363	1363	1358	1358	1358	1358	1352	1352	1352	1342	1336	1336	1331	1326	1326	1321	1321	1326	1326	1331	1331	1336	1336	1336	1336	1336	1336	1336	1336	1336	1336	1336	1336	1342	1342	1336	1336	1336	1336	1342	1342	0	0	0	983	980	980	980	988	988	988	985	985	985	985	985	983	983	983	983	983	980	980	980	980	977	977	977	974	974	974	974	969	969	966	966	963	963	963	961	961	958	958	955	953	950	950	950	0	0	0	0	0	0	0	0	0	0	0	0	0	0	0	0	0
0	0	0	0	0	0	0	0	0	0	0	0	0	0	0	0	0	0	0	0	0	0	0	0	0	0	0	0	0	0	0	0	0	0	0	0	0	0	0	0	0	0	539	538	536	535	535	532	532	530	529	529	528	527	526	526	525	524	523	522	521	519	519	519	519	519	519	519	523	523	523	523	523	523	523	523	522	522	523	523	524	526	527	527	527	527	527	527	527	527	528	528	527	537	537	532	532	532	532	531	531	532	532	532	532	532	537	537	0	0	0	0	0	0	0	0	0	0	0	0	0	0	0	0	0	0	0	0	0	0	0	0	0	0	0	0	0	0	0	0	0	0	0	0	0	0	0	0	0	0	0	0	0	0	0	0	0	0	0	0	0	0	0	0	0	0	0	0	0	0	0	0	0	0	0	0	0	0	0	0	0	0	0	0	0	0	0	0	0	0	0	0	0	0	0	0	0	0	0	0	0	536	536	536	536	536	0	0	0	0	0	0	0	0	0	0	0	0	0	601	601	601	0	0	0	0	0	0	0	0	0	0	0	0	0	0	0	0	594	593	593	593	592	592	592	593	592	591	591	591	591	591	591	591	591	592	592	592	0	0	0	0	0	0	0	0	0	0	0	0	0	0	0	0	0	0	0	0	0	0	0	0	0	0	0	0	0	0	608	608	608	608	613	613	613	613	612	614	613	613	614	618	618	618	618	618	618	618	619	619	622	623	623	625	625	628	628	628	628	629	629	629	629	632	633	633	633	633	634	634	634	634	634	635	638	639	640	641	640	640	641	641	640	640	642	644	646	646	646	647	648	650	651	650	650	651	648	648	648	648	648	651	651	652	653	653	655	655	656	657	657	658	658	660	660	662	663	665	667	667	669	670	671	672	674	678	678	680	680	683	683	683	701	701	701	703	704	705	708	711	713	714	717	719	722	723	723	728	731	731	731	0	0	0	0	0	0	0	0	0	0	0	0	0	0	0	2051	2051	2051	2039	2039	2039	2039	2039	2039	2039	2039	2039	2039	2039	2051	2051	2051	2051	2063	2063	2063	2063	2051	2051	2051	2051	2051	2051	2051	2051	2063	2051	2051	2063	2063	2063	2051	2051	2063	2063	2063	2063	2063	2076	2076	2076	2076	2076	2076	2076	2076	2076	2076	2076	2076	2076	2076	2076	2076	2076	2076	2076	2076	2076	2063	2063	1480	1480	1480	1473	1473	1473	1467	1467	1461	1455	1455	1449	1449	1449	1443	1443	1437	1437	1431	1425	1419	1407	1402	1396	1390	1385	1385	1385	1385	1379	1379	1379	1379	1379	1379	1374	1374	1374	1368	1368	1374	1368	1363	1358	1358	1352	1352	1352	1352	1352	1352	1342	1336	1331	1331	1321	1321	1321	1321	1321	1326	1326	1331	1331	1331	1331	1331	1331	1331	1331	1331	1331	1331	1331	1336	1336	1336	1336	1336	1336	1336	1336	1336	1336	1336	0	0	983	994	991	991	991	991	991	991	988	988	988	988	988	988	988	988	988	988	985	983	983	980	977	977	977	977	977	974	969	969	966	966	963	963	963	961	961	958	958	955	953	950	950	950	0	0	0	0	0	0	0	0	0	0	0	0	0	0	0	0	0
0	0	0	0	0	0	0	0	0	0	0	0	0	0	0	0	0	0	0	0	0	0	0	0	0	0	0	0	0	0	0	0	0	0	0	0	0	0	0	0	0	0	539	538	536	536	535	532	532	530	529	529	528	527	527	526	525	523	523	520	519	519	519	519	519	519	519	519	523	523	523	523	523	523	523	523	522	522	522	523	523	523	524	525	525	525	526	526	526	526	527	527	527	527	530	530	530	531	532	531	531	532	532	532	532	532	532	532	0	0	0	0	0	0	0	0	0	0	0	0	0	0	0	0	0	0	0	0	0	0	0	0	0	0	0	0	0	0	0	0	0	0	0	0	0	0	0	0	0	0	0	0	0	0	0	0	0	0	0	0	0	0	0	0	0	0	0	0	0	0	0	0	0	0	0	0	0	0	0	0	0	0	0	0	0	0	0	0	0	0	0	0	0	0	0	0	0	0	0	0	0	536	536	536	536	536	0	0	0	0	0	0	0	0	0	0	0	0	0	0	0	0	0	0	0	0	0	0	0	0	0	0	0	0	0	0	0	0	594	593	593	591	590	590	591	591	589	589	589	589	590	590	589	589	589	590	592	592	0	590	590	590	0	0	0	0	0	0	0	0	0	0	0	0	0	0	0	0	0	0	0	0	0	600	600	600	601	603	607	607	608	608	609	611	611	611	612	612	612	612	613	615	615	616	616	616	616	617	618	618	617	617	618	619	619	622	624	625	626	628	628	628	628	629	632	632	633	633	633	633	633	628	628	634	636	639	640	641	640	640	641	640	639	639	639	641	646	646	646	647	647	650	651	650	648	648	648	647	647	647	647	650	651	651	652	652	653	653	653	655	656	656	657	657	658	660	661	663	666	667	669	670	671	672	674	678	678	680	680	687	687	700	700	700	701	703	704	705	708	711	713	714	717	719	722	896	896	894	894	894	0	0	0	0	0	0	0	0	0	0	0	0	0	0	0	0	2051	2063	2051	2051	2039	2039	2039	2039	2039	2039	2039	2039	2039	2039	2051	2051	2051	2051	2063	2063	2063	2063	2063	2063	2063	2051	2051	2051	2051	2051	2063	2051	2051	2063	2063	2063	2063	2063	2063	2063	2063	2063	2063	2076	2076	2076	2076	2076	2076	2076	2076	2076	2076	2076	2076	2076	2076	2076	2076	2076	2088	2088	2088	2076	0	1480	1480	1480	1473	1473	1473	1473	1467	1461	1461	1455	1449	1443	1443	1443	1437	1425	1425	1419	1419	1413	1407	1402	1396	1385	1385	1379	1379	1379	1379	1379	1379	1374	1374	1374	1374	1368	1358	1352	1352	1358	1358	1352	1352	1352	1352	1347	1347	1342	1342	1342	1336	1326	1326	1326	1326	1321	1321	1321	1321	1321	1321	1326	1326	1326	1326	1326	1326	1326	1326	1326	1326	1326	1331	1331	1331	1331	1336	1336	1331	1331	1336	1336	1331	1331	1331	0	0	0	994	994	991	994	994	991	991	991	991	991	988	988	988	988	988	988	988	985	985	983	983	980	980	980	980	977	974	972	969	969	969	963	963	963	961	961	958	958	955	953	950	950	950	0	0	0	0	0	0	0	0	0	0	0	0	0	0	0	0	0
0	0	0	0	0	0	0	0	0	0	0	0	0	0	0	0	0	0	0	0	0	0	0	0	0	0	0	0	0	0	0	0	0	0	0	0	0	0	0	0	0	0	539	538	536	536	535	532	532	530	529	528	527	527	527	527	526	523	522	520	519	519	519	519	519	519	519	519	523	523	522	522	522	523	523	523	522	522	522	522	523	523	523	523	524	524	524	524	525	525	526	527	527	527	527	528	528	530	531	531	531	532	532	532	531	531	531	531	531	531	531	0	0	0	0	0	0	0	0	0	0	0	0	0	0	0	0	0	0	0	0	0	0	0	0	0	0	0	0	0	0	0	0	0	0	0	0	0	0	0	0	0	0	0	0	0	0	0	0	0	0	0	0	0	0	0	0	0	0	0	0	0	0	0	0	0	0	0	0	0	0	0	0	0	0	0	0	0	0	0	0	0	0	0	0	0	0	0	0	0	0	535	535	532	532	528	528	528	528	0	0	0	0	0	0	0	0	0	0	0	0	0	0	0	0	0	0	0	0	0	0	0	0	0	0	0	0	0	0	589	589	589	589	589	589	589	589	588	588	588	588	588	588	588	588	589	589	589	589	590	589	589	588	588	588	587	587	587	0	0	0	0	0	0	0	0	0	0	0	0	598	598	599	599	599	600	600	600	603	607	607	607	608	609	609	611	611	611	612	612	613	614	614	615	616	616	616	617	617	617	617	617	618	618	618	619	620	622	622	622	622	624	626	626	627	629	629	631	632	631	631	628	627	627	627	625	625	642	642	642	640	640	639	635	635	641	641	634	647	647	647	647	648	648	648	648	650	646	645	645	647	647	647	648	650	650	651	651	652	652	653	653	655	656	657	658	660	662	665	666	667	669	670	672	674	678	679	683	684	687	687	698	698	700	700	701	703	704	707	710	713	716	719	722	723	894	894	894	894	894	891	891	891	0	0	0	0	0	0	0	0	0	0	0	0	0	0	2063	2051	2051	2051	2051	2051	2051	2039	2039	2039	2039	2051	2051	2051	2051	2063	2063	2063	2063	2063	2063	2063	2063	2063	2063	2063	2063	2063	2063	2063	2063	2063	2063	2063	2063	2063	2063	2063	2063	2076	2076	2076	2076	2076	2076	2076	2076	2076	2076	2076	2076	2076	2076	2076	2076	2076	2076	2076	2076	2076	2076	2088	0	1480	1480	1480	1473	1473	1473	1473	1467	1461	1461	1455	1449	1443	1443	1443	1437	1437	1425	1419	1419	1419	1407	1402	1396	1390	1385	1379	1379	1374	1374	1374	1374	1374	1374	1368	1368	1363	1363	1358	1352	1352	1358	1352	1347	1347	1347	1342	1342	1336	1331	1331	1326	1326	1321	1321	1321	1321	1316	1316	1316	1316	1316	1321	1321	1321	1321	1321	1321	1321	1321	1321	1321	1321	1321	1316	1316	1316	1321	1326	1326	1326	1326	1331	1331	1326	1326	1326	0	0	0	997	994	994	994	994	994	994	991	991	991	988	988	988	988	988	988	988	985	985	983	983	980	980	980	980	980	977	972	972	969	969	966	963	963	961	961	958	958	955	953	953	953	953	0	0	0	0	0	0	0	0	0	0	0	0	0	0	0	0	0
0	0	0	0	0	0	0	0	0	0	0	0	0	0	0	0	0	0	0	0	0	0	0	0	0	0	0	0	0	0	0	0	0	0	0	0	0	0	0	0	0	0	538	537	536	536	535	534	534	530	529	528	527	527	527	527	527	523	522	520	519	519	519	519	519	519	518	518	518	518	522	522	522	522	522	522	521	521	521	522	522	522	522	522	522	523	523	523	524	525	525	526	526	526	526	527	527	527	528	528	529	530	530	530	530	530	530	530	530	531	532	532	0	0	0	0	0	0	0	0	0	0	0	0	0	0	0	0	0	0	0	0	0	0	0	0	0	0	0	0	0	0	0	0	0	0	0	0	0	0	0	0	0	0	0	0	0	0	0	0	0	0	0	0	0	0	0	0	0	0	0	0	0	0	0	0	0	0	0	0	0	0	0	0	0	0	0	0	0	0	0	0	0	0	0	0	0	0	0	0	533	533	533	531	528	527	527	527	527	527	0	0	0	0	0	0	0	0	0	0	0	0	0	0	0	0	0	0	0	0	0	0	0	0	0	0	0	0	0	589	580	583	583	586	586	589	588	587	587	587	588	588	587	587	588	588	588	588	588	588	588	588	588	588	588	587	587	589	590	590	590	591	592	592	0	0	0	595	595	596	596	598	598	598	599	600	600	600	601	603	605	605	607	607	605	605	611	611	611	612	612	614	614	615	614	614	614	615	615	616	616	617	617	617	618	618	619	619	620	620	620	622	623	623	625	625	626	628	628	627	627	627	625	625	624	624	624	625	625	625	631	631	631	634	634	634	634	634	636	636	636	634	634	632	631	631	631	646	645	645	645	645	644	644	647	647	648	648	650	651	652	653	655	656	657	658	658	661	663	666	667	669	670	672	674	679	680	683	684	687	690	697	697	698	700	701	703	704	707	708	713	889	891	894	894	894	894	894	894	891	891	891	891	891	0	0	0	0	0	0	0	0	0	0	0	0	0	0	2051	2039	2039	2039	2039	2051	2039	2039	2051	2051	2051	2051	2051	2063	2063	2063	2063	2076	2063	2063	2063	2063	2063	2063	2063	2063	2063	2063	2063	2063	2063	2063	2063	2063	2063	2063	2063	2063	2076	2076	2076	2076	2076	2076	2076	2076	2076	2076	2076	2076	2076	2076	2076	2076	2076	2076	2076	2076	2076	2076	0	0	1473	1473	1473	1473	1473	1467	1467	1467	1455	1455	1455	1449	1443	1443	1443	1437	1437	1425	1419	1419	1413	1402	1396	1390	1385	1379	1379	1379	1374	1374	1374	1374	1368	1368	1363	1363	1358	1358	1352	1352	1352	1347	1347	1342	1342	1336	1336	1336	1331	1326	1326	1321	1321	1316	1316	1316	1316	1316	1311	1311	1316	1316	1316	1316	1316	1316	1321	1321	1316	1316	1321	1321	1316	1316	1311	1311	1311	1311	1311	1311	1311	1311	1311	1331	1326	1326	1326	0	0	1000	1000	997	994	997	997	994	994	994	994	991	991	991	991	991	988	988	988	988	988	985	983	983	983	983	980	980	977	972	972	969	969	966	963	963	961	961	958	958	955	953	953	953	953	0	0	0	0	0	0	0	0	0	0	0	0	0	0	0	0	0
0	0	0	0	0	0	0	0	0	0	0	0	0	0	0	0	0	0	0	0	0	0	0	0	0	0	0	0	0	0	0	0	0	0	0	0	0	0	0	0	0	0	538	537	536	536	535	534	532	530	530	528	527	526	526	527	526	523	522	519	519	519	519	519	519	518	518	516	516	516	516	522	522	522	522	522	521	520	520	521	521	521	521	521	521	522	523	523	524	524	524	524	524	525	525	526	527	527	527	527	528	529	529	530	530	530	530	530	530	531	531	531	0	0	0	0	0	0	0	0	0	0	0	0	0	0	0	0	0	0	0	0	0	0	0	0	0	0	0	0	0	0	0	0	0	0	0	0	0	0	0	0	0	0	0	0	0	0	0	0	0	0	0	0	0	0	0	0	0	0	0	0	0	0	0	0	0	0	0	0	0	0	0	0	0	0	0	0	0	0	0	0	0	0	0	0	0	0	0	0	533	533	529	528	527	527	527	527	527	527	0	0	0	0	0	0	0	0	0	0	0	0	0	0	0	0	0	0	0	0	0	0	0	0	0	0	582	581	581	580	580	581	581	582	582	581	581	587	587	587	588	587	586	586	587	587	587	587	587	587	588	587	587	587	587	587	588	588	589	589	590	591	592	592	592	593	593	594	594	595	596	597	597	598	599	599	599	600	600	600	600	600	603	607	605	605	604	604	611	612	612	613	613	613	613	613	613	614	614	615	616	616	616	616	617	618	619	619	620	620	620	620	622	622	622	622	622	622	625	625	626	625	624	624	624	624	624	624	624	624	629	629	628	628	634	634	634	634	636	636	634	634	634	632	631	631	631	631	639	639	639	639	640	640	642	644	646	647	648	650	651	651	653	655	656	657	658	660	662	666	667	669	671	674	675	680	682	684	687	689	690	694	694	697	698	701	703	704	707	708	889	889	891	894	894	894	894	894	894	891	891	891	889	889	889	889	0	0	0	0	0	0	0	0	0	0	0	0	2051	2039	2039	2039	2039	2051	2039	2039	2051	2051	2051	2051	2051	2063	2063	2063	2063	2076	2076	2076	2076	2063	2063	2063	2063	2063	2063	2063	2076	2063	2063	2063	2063	2063	2063	2063	2063	2076	2076	2076	2076	2076	2076	2076	2076	2076	2076	2076	2076	2076	2076	2076	2076	2076	2076	2076	2076	2076	2076	2076	0	0	1473	1473	1473	1473	1473	1467	1467	1461	1455	1455	1449	1449	1443	1443	1437	1437	1431	1425	1419	1413	1407	1390	1385	1385	1379	1379	1374	1374	1374	1374	1374	1368	1363	1363	1358	1358	1352	1352	1347	1347	1347	1342	1342	1336	1336	1331	1331	1331	1321	1321	1321	1316	1316	1311	1311	1311	1311	1311	1311	1311	1311	1311	1311	1311	1306	1306	1306	1311	1311	1311	1311	1311	1311	1311	1301	1301	1301	1301	1301	1301	1301	1301	1301	1311	1311	1311	0	0	0	1000	1000	997	997	997	997	997	997	994	994	994	991	991	991	991	991	991	988	988	988	985	985	985	985	983	983	983	980	980	972	972	972	966	963	961	961	961	958	958	958	955	953	953	953	0	0	0	0	0	0	0	0	0	0	0	0	0	0	0	0	0
0	0	0	0	0	0	0	0	0	0	0	0	0	0	0	0	0	0	0	0	0	0	0	0	0	0	0	0	0	0	0	0	0	0	0	0	0	0	0	0	0	0	537	536	536	536	534	534	532	531	531	528	527	526	526	526	526	523	522	519	519	519	519	519	516	516	516	516	516	514	514	513	513	513	513	513	513	513	514	515	515	520	520	519	519	521	521	521	523	523	523	523	523	523	523	524	526	526	527	527	527	528	528	528	528	528	528	528	528	530	531	531	0	0	0	0	0	0	0	0	0	0	0	0	0	0	0	0	0	0	0	0	0	0	0	0	0	0	0	0	0	0	0	0	0	0	0	0	0	0	0	0	0	0	0	0	0	0	0	0	0	0	0	0	0	0	0	0	0	0	0	0	0	0	0	0	0	0	0	0	0	0	0	0	0	0	0	0	0	0	0	0	0	0	0	0	0	0	0	518	518	518	524	524	525	525	525	526	527	527	527	0	0	0	0	0	0	0	0	0	0	0	0	0	0	0	0	0	0	0	0	0	0	0	0	0	582	578	578	577	577	577	578	580	580	580	580	587	586	586	587	587	586	586	587	587	587	587	587	587	588	587	587	587	587	587	588	588	588	588	589	590	591	591	592	592	592	593	593	594	595	595	596	597	598	599	599	599	599	599	599	599	599	600	607	607	604	604	605	605	605	613	612	612	612	612	612	613	613	615	615	616	616	616	616	617	618	618	619	620	619	619	619	619	620	620	622	622	623	624	624	623	623	623	623	623	623	623	623	624	624	624	628	627	627	633	633	633	634	633	633	633	631	631	631	631	631	633	634	635	638	638	639	639	640	642	645	646	648	648	650	651	653	655	656	657	658	660	662	666	667	670	672	674	675	682	683	684	687	689	689	691	694	697	698	701	703	703	704	887	889	889	889	891	891	891	891	894	891	889	889	889	889	887	887	884	884	884	0	0	0	0	0	0	0	0	0	0	2051	2039	2039	2039	2039	2051	2051	2051	2051	2051	2051	2051	2051	2063	2063	2063	2063	2076	2076	2076	2076	2076	2063	2063	2076	2076	2076	2076	2076	2076	2076	2076	2076	2076	2076	2076	2076	2076	2076	2076	2076	2076	2076	2076	2076	2076	2076	2076	2076	2076	2076	2076	2076	2076	2076	2076	2088	2088	2076	2076	1480	1467	1467	1473	1473	1467	1467	1467	1467	1461	1455	1449	1449	1449	1443	1437	1437	1431	1425	1419	1407	1402	1390	1385	1379	1379	1379	1374	1374	1374	1368	1368	1368	1363	1358	1358	1358	1352	1352	1352	1347	1342	1342	1336	1336	1336	1331	1326	1321	1321	1316	1316	1316	1311	1301	1301	1301	1306	1306	1306	1306	1306	1306	1306	1306	1306	1301	1296	1296	1296	1301	1306	1301	1301	1306	1301	1296	1296	1296	1296	1296	1296	1296	1296	1296	1306	1306	1306	0	0	0	1003	1000	1000	997	997	997	997	997	997	997	994	994	991	991	991	991	991	988	988	988	985	985	985	985	983	983	983	980	980	977	972	972	963	963	961	961	961	958	958	958	958	955	955	955	0	0	0	0	0	0	0	0	0	0	0	0	0	0	0	0	0
0	0	0	0	0	0	0	0	0	0	0	0	0	0	0	0	0	0	0	0	0	0	0	0	0	0	0	0	0	0	0	0	0	0	0	0	0	0	0	0	0	0	537	536	536	536	533	533	532	532	532	529	527	527	527	527	527	523	523	521	519	519	519	516	516	516	516	514	514	513	513	512	512	513	513	513	513	513	513	513	513	514	514	515	516	519	520	521	520	520	521	521	522	522	523	523	523	523	527	527	527	528	528	528	527	527	527	527	528	530	530	531	0	0	0	0	0	0	0	0	0	0	0	0	0	0	0	0	0	0	0	0	0	0	0	0	0	0	0	0	0	0	0	0	0	0	0	0	0	0	0	0	0	0	0	0	0	0	0	0	0	0	0	0	0	0	0	0	0	0	0	0	0	0	0	0	0	0	0	0	0	0	0	0	0	0	0	0	0	0	0	0	0	0	0	516	516	516	516	516	517	518	519	523	523	524	525	526	526	527	527	0	0	0	0	0	0	0	0	0	0	0	0	0	0	0	0	0	0	0	0	0	0	572	572	573	574	574	576	576	576	577	578	579	579	578	578	579	579	579	579	584	584	584	586	586	586	586	586	586	587	587	587	586	586	586	586	585	585	586	588	589	590	591	591	591	591	592	592	594	595	595	596	596	596	597	597	598	598	598	598	599	599	598	598	600	601	602	605	605	600	600	612	612	612	608	608	608	609	613	614	614	614	614	616	617	618	618	619	620	619	619	619	619	619	619	620	620	622	622	623	623	622	622	622	622	622	622	622	622	624	624	624	625	626	629	629	629	632	631	631	632	629	629	631	631	631	631	632	633	635	636	638	638	639	641	644	645	647	648	648	650	652	655	656	657	660	661	662	665	667	670	672	675	680	683	683	684	687	689	689	691	694	695	698	700	701	701	704	887	887	887	889	889	889	889	889	891	891	889	889	889	887	887	887	884	882	882	882	0	0	0	0	0	0	0	0	0	0	2039	2039	2039	2039	2051	2051	2051	2051	2051	2063	2063	2063	2063	2063	2063	2063	2076	2076	2076	2076	2076	2076	2076	2076	2076	2076	2076	2076	2076	2076	2076	2076	2076	2076	2076	2076	2076	2076	2076	2076	2076	2076	2076	2076	2076	2076	2076	2076	2076	2076	2076	2076	2076	2076	2076	2088	2088	1480	1480	1480	1467	1467	1467	1473	1467	1467	1467	1461	1455	1449	1449	1449	1443	1437	1431	1425	1425	1413	1407	1402	1390	1385	1379	1379	1379	1374	1374	1374	1374	1368	1363	1363	1358	1358	1358	1352	1352	1352	1352	1347	1342	1342	1336	1336	1331	1326	1321	1321	1316	1316	1311	1311	1311	1306	1296	1296	1296	1301	1301	1301	1306	1301	1301	1301	1301	1296	1296	1296	1296	1296	1296	1296	1296	1296	1296	1291	1291	1291	1291	1291	1291	1291	1291	1291	1296	1296	1296	0	0	0	1003	1000	1000	1000	1000	1000	1000	1000	1000	997	997	994	994	994	991	991	991	991	988	988	988	985	985	985	983	983	983	980	980	974	972	972	963	963	961	961	961	958	958	958	955	955	955	955	0	0	0	0	0	0	0	0	0	0	0	0	0	0	0	0	0
0	0	0	0	0	0	0	0	0	0	0	0	0	0	0	0	0	0	0	0	0	0	0	0	0	0	0	0	0	0	0	0	0	0	0	0	0	927	930	930	0	0	537	536	536	536	533	533	533	532	530	530	527	527	527	527	527	523	523	522	520	519	519	516	516	516	514	513	513	513	513	512	512	512	512	513	513	513	513	513	513	513	513	514	515	516	516	516	516	516	517	519	519	520	522	521	521	522	522	527	527	527	527	527	527	527	527	527	528	530	530	0	0	0	0	0	0	0	0	0	0	0	0	0	0	0	0	0	0	0	0	0	0	0	0	0	0	0	0	0	0	0	0	0	0	0	0	0	0	0	0	0	0	0	0	0	0	0	0	0	0	0	0	0	0	0	0	0	0	0	0	0	0	0	0	0	0	0	0	0	0	0	0	0	0	508	508	508	509	509	509	509	0	515	515	515	516	516	516	516	517	518	519	521	522	523	523	524	525	525	527	0	0	0	0	0	0	0	0	0	0	0	0	0	0	0	0	0	0	0	0	0	0	569	569	572	573	574	574	575	575	576	576	577	577	578	578	578	577	577	577	577	580	581	584	585	586	586	586	586	586	586	585	584	584	584	584	584	584	585	586	588	589	590	590	590	591	591	591	592	592	594	595	595	595	595	595	595	595	595	595	596	597	597	597	599	600	600	600	600	600	600	601	601	601	603	605	606	608	613	614	613	613	614	614	604	604	605	605	605	611	611	619	619	619	619	616	616	617	619	619	620	620	620	620	620	620	620	620	620	622	623	623	624	626	629	629	629	632	629	629	629	629	629	629	629	631	631	632	633	634	635	636	638	639	641	644	645	647	647	648	650	652	655	656	657	660	661	662	665	669	672	674	676	680	683	683	686	686	687	689	691	694	695	698	700	701	701	884	884	887	887	887	889	887	889	889	889	889	887	887	887	887	887	884	882	882	882	882	0	0	0	0	0	0	0	0	0	0	0	2039	2039	2039	2051	2051	2051	2051	2051	2051	2063	2063	2063	2063	2063	2063	2076	2076	2076	2076	2076	2076	2076	2076	2076	2076	2076	2076	2076	2076	2076	2076	2076	2076	2076	2076	2076	2076	2076	2076	2076	2076	2076	2076	2076	2076	2076	2076	2076	2076	2076	2076	2076	2076	2076	0	0	1480	1480	1480	1467	1467	1467	1473	1467	1467	1461	1461	1455	1449	1449	1449	1443	1431	1425	1425	1419	1407	1402	1396	1390	1385	1379	1379	1374	1374	1374	1368	1368	1363	1363	1358	1358	1352	1352	1352	1352	1347	1347	1342	1336	1336	1336	1336	1331	1326	1321	1316	1311	1311	1306	1306	1306	1301	1296	1296	1296	1296	1301	1301	1301	1296	1296	1296	1291	1291	1291	1291	1291	1291	1291	1287	1287	1291	1291	1291	1291	1291	1291	1291	1287	1287	1287	1291	1291	1291	1291	1291	0	0	1006	1003	1003	1000	1000	1000	1000	1000	1000	1000	997	994	994	994	994	991	991	991	991	988	988	985	985	985	983	983	983	980	980	974	972	972	966	963	963	961	961	958	958	958	955	955	955	955	0	0	0	0	0	0	0	0	0	0	0	0	0	0	0	0	0
0	0	0	0	0	0	0	0	0	0	0	0	0	0	0	0	0	0	0	0	0	0	0	0	0	0	0	0	0	0	0	0	0	0	925	925	927	930	930	932	932	0	537	536	536	536	533	533	533	0	530	530	527	527	527	527	527	523	523	522	520	519	519	518	516	516	513	513	512	512	512	511	511	512	512	512	512	512	512	513	513	513	513	513	514	514	515	515	515	515	516	516	516	518	521	519	519	522	522	527	527	527	527	527	527	527	527	527	528	530	530	0	0	0	0	0	0	0	0	0	0	0	0	0	0	0	0	0	0	0	0	0	0	0	0	0	0	0	0	0	0	0	0	0	0	0	0	0	0	0	0	0	0	0	0	0	0	0	0	0	0	0	0	0	0	0	0	0	0	0	0	0	0	0	0	0	0	0	0	0	0	0	0	0	0	508	508	508	509	509	509	509	509	513	513	514	515	515	515	516	516	517	518	520	521	521	523	523	523	524	0	0	0	0	0	0	0	0	0	0	0	0	0	0	563	563	562	562	562	567	567	567	567	567	568	568	571	572	573	573	573	573	573	574	575	575	575	576	576	575	575	575	575	575	580	580	580	580	581	581	581	581	584	580	580	580	581	581	581	583	583	584	585	588	585	588	589	589	590	590	592	593	591	591	589	590	590	591	592	593	595	596	596	596	595	595	595	597	596	596	598	598	598	598	598	598	600	605	606	608	608	604	604	603	603	603	604	604	604	604	605	605	607	607	608	609	611	614	614	614	614	615	615	615	616	619	619	618	618	619	619	619	619	619	623	619	619	620	622	624	625	626	626	627	628	628	628	629	631	633	633	634	635	636	638	641	644	645	645	647	648	650	653	656	657	660	660	661	663	667	670	674	676	678	682	682	683	683	686	687	687	690	854	854	856	880	880	882	882	884	884	887	887	887	887	887	887	887	889	887	887	887	887	887	884	882	882	882	882	882	0	0	0	0	0	0	0	0	0	0	0	2039	2039	2051	2051	2051	2051	2051	2051	2063	2063	2063	2063	2063	2063	2076	2076	2076	2076	2076	2076	2076	2076	2076	2076	2076	2076	2076	2076	2076	2076	2076	2076	2076	2076	2076	2076	2076	2076	2076	2076	2076	2076	2076	2076	2076	2076	2076	2076	2076	2076	2076	2076	2076	0	0	1480	1480	1480	1467	1467	1467	1473	1467	1467	1461	1461	1455	1449	1443	1443	1437	1425	1425	1419	1413	1402	1396	1390	1385	1379	1379	1374	1374	1374	1368	1363	1363	1358	1358	1358	1358	1352	1352	1352	1347	1347	1347	1342	1336	1331	1331	1331	1321	1316	1316	1311	1306	1301	1296	1296	1296	1296	1296	1296	1296	1296	1296	1296	1296	1296	1291	1291	1287	1287	1282	1282	1282	1282	1282	1282	1282	1282	1287	1287	1287	1287	1287	1287	1287	1287	1287	1287	1291	1291	1291	1291	0	0	1006	1003	1003	1000	1000	1000	1000	1000	1000	1000	1000	1000	997	994	994	991	991	991	991	991	988	988	985	985	985	985	985	983	980	974	972	972	969	963	963	961	961	958	958	958	958	955	955	955	0	0	0	0	0	0	0	0	0	0	0	0	0	0	0	0	0
0	0	0	0	0	0	0	0	0	0	0	0	0	0	0	0	0	0	0	0	0	0	0	0	0	0	0	0	0	0	0	0	0	925	925	927	927	930	930	932	932	935	935	0	0	0	0	0	0	0	0	0	527	527	527	527	526	524	523	522	521	520	519	518	514	513	512	512	512	512	512	511	511	512	512	512	511	511	512	512	512	512	512	512	513	513	513	512	512	513	514	515	515	516	516	516	517	517	517	516	516	527	527	527	527	527	527	527	527	530	530	0	0	0	0	0	0	0	0	0	0	0	0	0	0	0	0	0	0	0	0	0	0	0	0	0	0	0	0	0	0	0	0	0	0	0	0	0	0	0	0	0	0	0	0	0	0	0	0	0	0	0	0	0	0	0	0	0	0	0	0	0	0	0	0	0	0	0	0	0	0	0	0	0	507	507	507	507	508	509	509	510	510	511	514	514	515	515	515	516	516	517	518	518	520	522	523	523	523	524	0	0	0	0	0	0	0	0	0	0	0	0	562	562	562	562	562	562	563	564	565	565	566	567	567	568	570	571	571	572	572	573	573	572	572	573	575	575	575	575	575	574	574	573	573	573	573	573	577	577	576	576	576	576	579	580	580	580	580	580	582	583	585	588	584	584	586	589	590	590	593	593	591	589	589	589	589	589	589	590	590	595	595	595	595	595	595	594	594	595	596	596	596	597	597	597	600	600	592	592	603	603	603	602	602	602	603	603	603	604	604	605	606	607	607	608	609	612	612	613	613	613	613	613	612	612	613	613	615	615	619	617	616	616	616	616	618	618	618	618	619	624	625	626	627	628	628	628	629	632	633	634	635	636	638	641	644	645	646	648	650	651	655	657	660	661	662	663	666	669	671	674	676	678	682	683	683	684	686	686	687	852	852	852	852	850	850	850	882	882	884	884	884	884	884	884	882	882	882	882	882	882	884	884	884	884	882	880	880	880	878	878	875	875	875	0	0	0	0	0	0	0	0	878	878	878	875	875	875	875	878	878	878	2076	2076	2076	2076	2076	2076	2076	2076	2076	2076	2076	2076	2076	2076	2076	2076	2076	2076	2076	2076	2076	2076	2076	2076	2076	2076	2076	2076	2088	2088	2088	2088	2088	2088	2088	2088	2088	2088	2088	2076	2076	0	0	1480	1480	1480	1467	1467	1467	1473	1467	1467	1461	1455	1449	1443	1443	1443	1437	1425	1419	1413	1407	1402	1390	1385	1385	1379	1379	1374	1374	1368	1368	1363	1363	1358	1352	1352	1352	1347	1347	1347	1347	1342	1342	1336	1331	1326	1326	1326	1321	1316	1311	1306	1306	1301	1296	1296	1296	1296	1296	1296	1296	1296	1296	1296	1296	1291	1291	1282	1282	1282	1277	1277	1277	1277	1277	1277	1277	1277	1282	1282	1282	1287	1287	1287	1287	1282	1282	1287	1287	1287	1287	1287	0	0	1006	1006	1003	1003	1003	1003	1003	1003	1000	1000	1000	1000	1000	1000	994	991	991	991	991	991	991	988	988	988	985	985	985	983	980	977	974	972	969	963	963	963	961	958	958	958	958	955	955	955	0	0	0	0	0	0	0	0	0	0	0	0	0	0	0	0	0
