# .PCD v.7 - Point Cloud Data file format
VERSION .7
FIELDS x y z rgb
SIZE 4 4 4 4
TYPE F F F F
COUNT 1 1 1 1
WIDTH 1311
HEIGHT 1
POINTS 1311
DATA ascii
-0.0131246 -0.144371 -0.77 11905470
-0.0116663 -0.144371 -0.77 11644611
-0.0102081 -0.144371 -0.77 11444161
-0.00874976 -0.144371 -0.77 11182271
-0.00729147 -0.144371 -0.77 10920126
-0.00583317 -0.144371 -0.77 10657980
-0.00436352 -0.143996 -0.768 10395325
-0.00290901 -0.143996 -0.768 10722750
-0.00145451 -0.143996 -0.768 11050429
0 -0.143996 -0.768 11312829
0.00145261 -0.143809 -0.767 11574973
0.00290522 -0.143809 -0.767 11313598
0.00435784 -0.143809 -0.767 11051967
0.00581045 -0.143809 -0.767 11118017
0.00726306 -0.143809 -0.767 11183040
0.00867022 -0.143059 -0.763 11314624
0.0101153 -0.143059 -0.763 11511745
0.0115603 -0.143059 -0.763 11446467
0.0130053 -0.143059 -0.763 11445953
0.0144504 -0.143059 -0.763 11379646
0.0158954 -0.143059 -0.763 11379391
0.0173404 -0.143059 -0.763 11641535
0.0187362 -0.142684 -0.761 11903676
0.0201775 -0.142684 -0.761 11379129
0.0216187 -0.142684 -0.761 10918841
0.02306 -0.142684 -0.761 10459577
0.0245012 -0.142684 -0.761 10000056
0.0259425 -0.142684 -0.761 9800887
0.0274557 -0.143059 -0.763 9669033
0.0289007 -0.143059 -0.763 8161179
0.0303458 -0.143059 -0.763 6629763
0.0318741 -0.143434 -0.765 6896491
0.033323 -0.143434 -0.765 7225203
0.0347718 -0.143434 -0.765 8995707
0.0362206 -0.143434 -0.765 10792085
0.0372263 -0.141746 -0.756 10657712
0.038658 -0.141746 -0.756 10525104
0.0400368 -0.141559 -0.755 10261680
0.0414667 -0.141559 -0.755 9999539
0.0428966 -0.141559 -0.755 9737398
0.0443264 -0.141559 -0.755 9540014
0.0457563 -0.141559 -0.755 8680871
0.0471862 -0.141559 -0.755 7894683
0.0486161 -0.141559 -0.755 8419471
0.050046 -0.141559 -0.755 9010076
0.0514759 -0.141559 -0.755 9338794
0.0529057 -0.141559 -0.755 9734831
0.0541917 -0.141184 -0.753 9934516
0.0555439 -0.140996 -0.752 10197425
0.0569681 -0.140996 -0.752 10198447
0.0580041 -0.140059 -0.747 10262447
0.0592597 -0.139684 -0.745 10064303
0.0606707 -0.139684 -0.745 9867181
0.061915 -0.139309 -0.743 9539244
0.0633221 -0.139309 -0.743 9275823
0.0647293 -0.139309 -0.743 9733554
0.0661364 -0.139309 -0.743 10193585
0.0675436 -0.139309 -0.743 10325936
0.0689508 -0.139309 -0.743 10524082
0.0702632 -0.139121 -0.742 10853300
0.0716685 -0.139121 -0.742 11246772
0.0730738 -0.139121 -0.742 10984885
0.074479 -0.139121 -0.742 10788022
0.0758843 -0.139121 -0.742 10853559
0.0769771 -0.138559 -0.739 10919865
0.0781645 -0.138184 -0.737 10919611
0.0794524 -0.137996 -0.736 10984634
0.0806266 -0.137621 -0.734 10919097
0.0820167 -0.137621 -0.734 10919097
0.0834068 -0.137621 -0.734 10723002
0.0847969 -0.137621 -0.734 10591670
0.086187 -0.137621 -0.734 10460083
0.0875772 -0.137621 -0.734 10327217
0.0889673 -0.137621 -0.734 10196400
0.0903574 -0.137621 -0.734 10129324
0.0919975 -0.137996 -0.736 10259369
0.0933914 -0.137996 -0.736 10456236
0.0947853 -0.137996 -0.736 10718895
0.0961792 -0.137996 -0.736 10982322
0.0977057 -0.138184 -0.737 10983606
0.0993704 -0.138559 -0.739 10984119
0.10077 -0.138559 -0.739 10919097
0.102308 -0.138746 -0.74 10918842
0.103709 -0.138746 -0.74 10984380
0.105395 -0.139121 -0.742 11115191
0.1068 -0.139121 -0.742 11114931
0.108205 -0.139121 -0.742 11115446
0.109758 -0.139309 -0.743 11115448
0.111166 -0.139309 -0.743 11115705
0.112573 -0.139309 -0.743 11115962
0.11398 -0.139309 -0.743 11117499
0.115387 -0.139309 -0.743 11116988
0.117109 -0.139684 -0.745 11182271
0.118838 -0.140059 -0.747 11183298
0.120252 -0.140059 -0.747 11183039
0.121667 -0.140059 -0.747 10920380
0.123247 -0.140246 -0.748 10722743
0.12533 -0.140996 -0.752 10524850
0.126923 -0.141184 -0.753 10323622
0.12869 -0.141559 -0.755 10124698
0.130292 -0.141746 -0.756 9995421
0.132072 -0.142121 -0.758 9997472
0.134036 -0.142684 -0.761 9997216
0.135833 -0.143059 -0.763 9931424
0.137278 -0.143059 -0.763 9866142
0.139633 -0.143996 -0.768 9997468
0.141087 -0.143996 -0.768 10129313
0.14347 -0.144934 -0.773 9867941
0.144934 -0.144934 -0.773 9603228
0.146398 -0.144934 -0.773 10718611
0.627218 -0.214119 -1.142 9208451
0.627176 -0.213369 -1.138 8814978
0.627119 -0.212619 -1.134 9666946
0.625383 -0.211307 -1.127 10518915
0.623619 -0.209994 -1.12 10059397
0.62574 -0.209994 -1.12 9666692
0.625619 -0.209244 -1.116 9601668
0.623795 -0.207932 -1.109 9601155
0.625896 -0.207932 -1.109 9863042
0.625731 -0.207182 -1.105 10190980
0.627824 -0.207182 -1.105 9863813
0.629916 -0.207182 -1.105 9602181
-0.299003 -0.167041 -0.882 12364466
-0.297333 -0.167041 -0.882 12233397
-0.295662 -0.167041 -0.882 12102595
-0.293992 -0.167041 -0.882 12102610
-0.291659 -0.166662 -0.88 12102855
-0.289992 -0.166662 -0.88 12036796
-0.286687 -0.165715 -0.875 11970749
-0.28503 -0.165715 -0.875 11773631
-0.282725 -0.165336 -0.873 11642563
-0.280428 -0.164958 -0.871 11445448
-0.278138 -0.164579 -0.869 11248578
-0.275856 -0.1642 -0.867 11050684
-0.274214 -0.1642 -0.867 10853050
-0.272572 -0.1642 -0.867 11049913
-0.27093 -0.1642 -0.867 11250109
-0.269288 -0.1642 -0.867 11314625
-0.267646 -0.1642 -0.867 11444932
-0.26539 -0.163821 -0.865 11511240
-0.263752 -0.163821 -0.865 11577031
-0.261205 -0.163253 -0.862 11183815
-0.259572 -0.163253 -0.862 10848442
-0.25794 -0.163253 -0.862 10914733
-0.256307 -0.163253 -0.862 10985399
-0.254084 -0.162874 -0.86 11116226
-0.252455 -0.162874 -0.86 11247044
-0.250826 -0.162874 -0.86 11312838
-0.249198 -0.162874 -0.86 11380424
-0.246993 -0.162496 -0.858 11183819
-0.244796 -0.162117 -0.856 10984895
-0.243175 -0.162117 -0.856 11115955
-0.24099 -0.161738 -0.854 11312570
-0.239372 -0.161738 -0.854 11379393
-0.237198 -0.161359 -0.852 11447747
-0.235584 -0.161359 -0.852 11512262
-0.23452 -0.161738 -0.854 11577546
-0.232903 -0.161738 -0.854 11643086
-0.231827 -0.162117 -0.856 11710420
-0.229668 -0.161738 -0.854 11710427
-0.228051 -0.161738 -0.854 11775955
-0.226433 -0.161738 -0.854 11906252
-0.224289 -0.161359 -0.852 12037066
-0.222153 -0.16098 -0.85 11840200
-0.220543 -0.16098 -0.85 11643593
-0.218933 -0.16098 -0.85 11841483
-0.217324 -0.16098 -0.85 11973836
-0.215206 -0.160602 -0.848 12104654
-0.2136 -0.160602 -0.848 12235213
-0.211244 -0.160034 -0.845 12298956
-0.209644 -0.160034 -0.845 12299728
-0.207551 -0.159655 -0.843 12497365
-0.205955 -0.159655 -0.843 12628690
-0.203873 -0.159276 -0.841 12365776
-0.20228 -0.159276 -0.841 12169173
-0.200688 -0.159276 -0.841 12103130
-0.199095 -0.159276 -0.841 12037076
-0.197032 -0.158897 -0.839 12102862
-0.195444 -0.158897 -0.839 12234185
-0.193392 -0.158518 -0.837 12168645
-0.191807 -0.158518 -0.837 12167881
-0.189768 -0.15814 -0.835 11840718
-0.187735 -0.157761 -0.833 11578830
-0.186158 -0.157761 -0.833 12038350
-0.184137 -0.157382 -0.831 12499664
-0.182563 -0.157382 -0.831 11842002
-0.180989 -0.157382 -0.831 11251661
-0.178984 -0.157003 -0.829 11448009
-0.177414 -0.157003 -0.829 11709898
-0.175844 -0.157003 -0.829 11775692
-0.174274 -0.157003 -0.829 11841231
-0.172704 -0.157003 -0.829 11710419
-0.170721 -0.156625 -0.827 11643600
-0.169154 -0.156625 -0.827 11708877
-0.167183 -0.156246 -0.825 11839436
-0.16562 -0.156246 -0.825 11773899
-0.16366 -0.155867 -0.823 11773896
-0.162102 -0.155867 -0.823 11708614
-0.160543 -0.155867 -0.823 11709125
-0.158598 -0.155488 -0.821 11708612
-0.157043 -0.155488 -0.821 11773642
-0.155109 -0.155109 -0.819 11708369
-0.153183 -0.154731 -0.817 11707341
-0.151636 -0.154731 -0.817 11641546
-0.150089 -0.154731 -0.817 11576009
-0.148178 -0.154352 -0.815 11772872
-0.146634 -0.154352 -0.815 12035528
-0.145091 -0.154352 -0.815 11905224
-0.143547 -0.154352 -0.815 11772872
-0.142004 -0.154352 -0.815 11642313
-0.14046 -0.154352 -0.815 11511241
-0.138917 -0.154352 -0.815 11379913
-0.137373 -0.154352 -0.815 11248585
-0.13583 -0.154352 -0.815 11249354
-0.134121 -0.154162 -0.814 11184074
-0.13258 -0.154162 -0.814 11249867
-0.131038 -0.154162 -0.814 11315658
-0.129496 -0.154162 -0.814 11184585
-0.12764 -0.153784 -0.812 11117245
-0.126103 -0.153784 -0.812 10658994
-0.122724 -0.151511 -0.8 10256298
-0.120906 -0.151132 -0.798 10125219
-0.119394 -0.151132 -0.798 10061990
-0.11744 -0.150564 -0.795 10128042
-0.115934 -0.150564 -0.795 10262702
-0.114429 -0.150564 -0.795 10261939
-0.112639 -0.150185 -0.793 10326697
-0.111137 -0.150185 -0.793 10194079
-0.109635 -0.150185 -0.793 10124962
-0.108133 -0.150185 -0.793 9666469
-0.106632 -0.150185 -0.793 9208227
-0.10513 -0.150185 -0.793 9405090
-0.103628 -0.150185 -0.793 9602211
-0.102126 -0.150185 -0.793 9669028
-0.100624 -0.150185 -0.793 9801638
-0.0984973 -0.149238 -0.788 9798568
-0.097128 -0.149428 -0.789 9796521
-0.0976943 -0.152647 -0.806 9929386
-0.0961678 -0.152647 -0.806 10062245
-0.0946414 -0.152647 -0.806 10392225
-0.0928838 -0.152269 -0.804 10788004
-0.0893157 -0.14886 -0.786 11113383
-0.0878271 -0.14886 -0.786 11440293
-0.0883158 -0.152269 -0.804 11702947
-0.0867931 -0.152269 -0.804 12031130
-0.0852704 -0.152269 -0.804 12423569
-0.0837477 -0.152269 -0.804 12816268
-0.082225 -0.152269 -0.804 13012615
-0.0809031 -0.152647 -0.806 13274497
-0.0793766 -0.152647 -0.806 13470843
-0.0778501 -0.152647 -0.806 13667191
-0.0761343 -0.152269 -0.804 13667188
-0.0746116 -0.152269 -0.804 13666426
-0.0730889 -0.152269 -0.804 13731712
-0.0715662 -0.152269 -0.804 13862783
-0.0700435 -0.152269 -0.804 13928830
-0.0685209 -0.152269 -0.804 13994364
-0.0669982 -0.152269 -0.804 13208187
-0.0654755 -0.152269 -0.804 12418666
-0.0637937 -0.15189 -0.802 13399129
-0.0622748 -0.15189 -0.802 14389870
-0.0607559 -0.15189 -0.802 14390660
-0.059237 -0.15189 -0.802 14323332
-0.0575742 -0.151511 -0.8 14456196
-0.0560591 -0.151511 -0.8 14587527
-0.054544 -0.151511 -0.8 14194314
-0.0530289 -0.151511 -0.8 13801356
-0.051385 -0.151132 -0.798 13670287
-0.0498736 -0.151132 -0.798 13604756
-0.0483623 -0.151132 -0.798 12884121
-0.046851 -0.151132 -0.798 12163483
-0.0453397 -0.151132 -0.798 11505566
-0.0438283 -0.151132 -0.798 10850469
-0.0413625 -0.147723 -0.78 10258349
-0.0398853 -0.147723 -0.78 9666217
-0.038408 -0.147723 -0.78 9206950
-0.0369308 -0.147723 -0.78 8747939
-0.0354536 -0.147723 -0.78 8749473
-0.0339763 -0.147723 -0.78 8751262
-0.0325824 -0.148102 -0.782 8682908
-0.031181 -0.148481 -0.784 8614810
-0.0296962 -0.148481 -0.784 8156313
-0.0282113 -0.148481 -0.784 7764123
-0.0267947 -0.14886 -0.786 8353437
-0.0253061 -0.14886 -0.786 9011873
-0.0238175 -0.14886 -0.786 9799846
-0.0222153 -0.148102 -0.782 10653355
-0.0207343 -0.148102 -0.782 10984112
-0.0190071 -0.146208 -0.772 11314866
-0.0174995 -0.145829 -0.77 11248053
-0.0160412 -0.145829 -0.77 11248312
-0.0145829 -0.145829 -0.77 11314364
-0.0131246 -0.145829 -0.77 11443902
-0.011636 -0.145451 -0.768 11247041
-0.0101815 -0.145451 -0.768 11115967
-0.00872703 -0.145451 -0.768 10985150
-0.00729147 -0.145829 -0.77 10854844
-0.00583317 -0.145829 -0.77 10723002
-0.00436352 -0.145451 -0.768 10591162
-0.00290901 -0.145451 -0.768 10853819
-0.00145451 -0.145451 -0.768 11050939
0 -0.145451 -0.768 11181755
0.00145261 -0.145261 -0.767 11312828
0.00290522 -0.145261 -0.767 11116221
0.00434647 -0.144882 -0.765 10985152
0.0057953 -0.144882 -0.765 11051204
0.00724412 -0.144882 -0.765 11117250
0.00867022 -0.144504 -0.763 11314112
0.0101153 -0.144504 -0.763 11512515
0.0115603 -0.144504 -0.763 11576775
0.0130053 -0.144504 -0.763 11642050
0.0144504 -0.144504 -0.763 11445182
0.0158954 -0.144504 -0.763 11183040
0.0173404 -0.144504 -0.763 11314115
0.0187362 -0.144125 -0.761 11445438
0.0201775 -0.144125 -0.761 11050681
0.0216187 -0.144125 -0.761 10722488
0.02306 -0.144125 -0.761 10393784
0.0245012 -0.144125 -0.761 10065334
0.0259425 -0.144125 -0.761 9538741
0.0274557 -0.144504 -0.763 9077926
0.0289007 -0.144504 -0.763 7565719
0.0304253 -0.144882 -0.765 6105469
0.0319575 -0.145261 -0.767 6898276
0.0334101 -0.145261 -0.767 7762295
0.0348627 -0.145261 -0.767 9264779
0.0360312 -0.144125 -0.761 10860703
0.0372263 -0.143178 -0.756 10657971
0.0386069 -0.142989 -0.755 10458291
0.0400368 -0.142989 -0.755 10327475
0.0414667 -0.142989 -0.755 10197172
0.0428966 -0.142989 -0.755 9605813
0.0443264 -0.142989 -0.755 9014695
0.0457563 -0.142989 -0.755 8416409
0.0471862 -0.142989 -0.755 7763094
0.0486161 -0.142989 -0.755 8681363
0.0499134 -0.14261 -0.753 9599648
0.0513395 -0.14261 -0.753 9865645
0.0527656 -0.14261 -0.753 10197684
0.0541197 -0.14242 -0.752 10131643
0.0553962 -0.142042 -0.75 10069172
0.0568166 -0.142042 -0.75 10132398
0.0580041 -0.141473 -0.747 10130350
0.0592597 -0.141095 -0.745 10063278
0.0606707 -0.141095 -0.745 9996455
0.061915 -0.140716 -0.743 9865633
0.0633221 -0.140716 -0.743 9734825
0.0647293 -0.140716 -0.743 10063793
0.0660474 -0.140526 -0.742 10393014
0.0674527 -0.140526 -0.742 10459580
0.068858 -0.140526 -0.742 10526393
0.0702632 -0.140526 -0.742 10721718
0.0716685 -0.140526 -0.742 10983350
0.0730738 -0.140526 -0.742 10786999
0.0742783 -0.140148 -0.74 10656438
0.0756797 -0.140148 -0.74 10722486
0.0770812 -0.140148 -0.74 10788794
0.0780585 -0.13939 -0.736 10788542
0.0790206 -0.138633 -0.732 10788027
0.080297 -0.138443 -0.731 10722489
0.0816815 -0.138443 -0.731 10722747
0.0834068 -0.139011 -0.734 10526141
0.0847969 -0.139011 -0.734 10329526
0.086187 -0.139011 -0.734 10066096
0.0875772 -0.139011 -0.734 9802671
0.0889673 -0.139011 -0.734 9867438
0.0903574 -0.139011 -0.734 9997742
0.0919975 -0.13939 -0.736 10325422
0.0933914 -0.13939 -0.736 10655920
0.0947853 -0.13939 -0.736 10853298
0.0961792 -0.13939 -0.736 11050676
0.0977057 -0.13958 -0.737 11116215
0.0991015 -0.13958 -0.737 11182008
0.100906 -0.140148 -0.74 10919353
0.102308 -0.140148 -0.74 10656953
0.10399 -0.140526 -0.742 10919097
0.105395 -0.140526 -0.742 11181496
0.1068 -0.140526 -0.742 11181239
0.108205 -0.140526 -0.742 11246777
0.109611 -0.140526 -0.742 11181244
0.111166 -0.140716 -0.743 11115968
0.112573 -0.140716 -0.743 11182276
0.11398 -0.140716 -0.743 11183297
0.115387 -0.140716 -0.743 11116991
0.117109 -0.141095 -0.745 11116734
0.118519 -0.141095 -0.745 11051453
0.120252 -0.141473 -0.747 11051964
0.121667 -0.141473 -0.747 10789820
0.123247 -0.141663 -0.748 10526384
0.12533 -0.14242 -0.752 10391716
0.126923 -0.14261 -0.753 10191516
0.12869 -0.142989 -0.755 10126484
0.130292 -0.143178 -0.756 9999770
0.131724 -0.143178 -0.756 9997729
0.133508 -0.143557 -0.758 9931424
0.135299 -0.143935 -0.76 9931167
0.137278 -0.144504 -0.763 9997729
0.139633 -0.145451 -0.768 10063523
0.141087 -0.145451 -0.768 10131362
0.142356 -0.145261 -0.767 9671074
0.143809 -0.145261 -0.767 9210013
0.145261 -0.145261 -0.767 10521497
0.629434 -0.217797 -1.15 9666180
0.627218 -0.216282 -1.142 9403779
0.624972 -0.214767 -1.134 9207171
0.62546 -0.214199 -1.131 9666691
0.625383 -0.213441 -1.127 10125442
0.623619 -0.212115 -1.12 9798018
0.62574 -0.212115 -1.12 9536130
0.625619 -0.211358 -1.116 9536131
0.623795 -0.210032 -1.109 9535874
0.623638 -0.209275 -1.105 9732993
0.624032 -0.208706 -1.102 9930115
0.626119 -0.208706 -1.102 9798789
0.628206 -0.208706 -1.102 9602181
-0.299003 -0.168711 -0.882 12429747
-0.297333 -0.168711 -0.882 12495030
-0.295662 -0.168711 -0.882 12561603
-0.293992 -0.168711 -0.882 12431825
-0.292322 -0.168711 -0.882 12299208
-0.289992 -0.168329 -0.88 12102847
-0.286687 -0.167372 -0.875 11970752
-0.28503 -0.167372 -0.875 11839424
-0.282725 -0.16699 -0.873 11708098
-0.280428 -0.166607 -0.871 11445444
-0.278138 -0.166225 -0.869 11248832
-0.276492 -0.166225 -0.869 11116989
-0.274214 -0.165842 -0.867 11049914
-0.272572 -0.165842 -0.867 11115960
-0.27093 -0.165842 -0.867 11246012
-0.269288 -0.165842 -0.867 11245249
-0.267646 -0.165842 -0.867 11248583
-0.26539 -0.165459 -0.865 11248845
-0.263752 -0.165459 -0.865 11314890
-0.261205 -0.164886 -0.862 11183816
-0.259572 -0.164886 -0.862 11045818
-0.25794 -0.164886 -0.862 10979756
-0.255713 -0.164503 -0.86 10918581
-0.254084 -0.164503 -0.86 11116223
-0.251868 -0.164121 -0.858 11312579
-0.250243 -0.164121 -0.858 11378119
-0.248618 -0.164121 -0.858 11446216
-0.246993 -0.164121 -0.858 11381193
-0.244796 -0.163738 -0.856 11312833
-0.243175 -0.163738 -0.856 11310778
-0.24099 -0.163355 -0.854 11379133
-0.239372 -0.163355 -0.854 11379392
-0.237198 -0.162973 -0.852 11446211
-0.235584 -0.162973 -0.852 11446981
-0.233971 -0.162973 -0.852 11512009
-0.232903 -0.163355 -0.854 11642573
-0.231285 -0.163355 -0.854 11775952
-0.229668 -0.163355 -0.854 11776980
-0.227517 -0.162973 -0.852 11776464
-0.225903 -0.162973 -0.852 11775692
-0.224289 -0.162973 -0.852 11774921
-0.222153 -0.16259 -0.85 11577798
-0.220024 -0.162208 -0.848 11446216
-0.218418 -0.162208 -0.848 11641291
-0.216812 -0.162208 -0.848 11908043
-0.215206 -0.162208 -0.848 12038860
-0.212845 -0.161634 -0.845 12168907
-0.211244 -0.161634 -0.845 12233419
-0.209148 -0.161251 -0.843 12299468
-0.207551 -0.161251 -0.843 12562638
-0.205955 -0.161251 -0.843 12890318
-0.203873 -0.160869 -0.841 12496845
-0.20228 -0.160869 -0.841 12168657
-0.200688 -0.160869 -0.841 12037333
-0.198621 -0.160486 -0.839 11971282
-0.197032 -0.160486 -0.839 11972303
-0.194978 -0.160104 -0.837 12038092
-0.19293 -0.159721 -0.835 12038345
-0.191349 -0.159721 -0.835 12038091
-0.189768 -0.159721 -0.835 11513550
-0.187735 -0.159338 -0.833 11054285
-0.186158 -0.159338 -0.833 11512781
-0.184137 -0.158956 -0.831 11971790
-0.182124 -0.158573 -0.829 11775439
-0.180554 -0.158573 -0.829 11578826
-0.178984 -0.158573 -0.829 11644613
-0.177414 -0.158573 -0.829 11710152
-0.175844 -0.158573 -0.829 11775691
-0.173853 -0.158191 -0.827 11906766
-0.172287 -0.158191 -0.827 11775697
-0.170721 -0.158191 -0.827 11709647
-0.168745 -0.157808 -0.825 11774413
-0.167183 -0.157808 -0.825 11905484
-0.165219 -0.157426 -0.823 11839947
-0.16366 -0.157426 -0.823 11774408
-0.162102 -0.157426 -0.823 11774406
-0.160543 -0.157426 -0.823 11839940
-0.158598 -0.157043 -0.821 11774402
-0.15666 -0.15666 -0.819 11708103
-0.155109 -0.15666 -0.819 11708364
-0.153183 -0.156278 -0.817 11773643
-0.151636 -0.156278 -0.817 11773642
-0.149721 -0.155895 -0.815 11773641
-0.148178 -0.155895 -0.815 12035783
-0.146634 -0.155895 -0.815 12297926
-0.145091 -0.155895 -0.815 12036294
-0.143547 -0.155895 -0.815 11773639
-0.142004 -0.155895 -0.815 11642313
-0.14046 -0.155895 -0.815 11576521
-0.138917 -0.155895 -0.815 11445449
-0.137373 -0.155895 -0.815 11379912
-0.13583 -0.155895 -0.815 11249095
-0.134121 -0.155704 -0.814 11183561
-0.13258 -0.155704 -0.814 11314892
-0.131038 -0.155704 -0.814 11446218
-0.129496 -0.155704 -0.814 11643848
-0.127955 -0.155704 -0.814 11907267
-0.126103 -0.155322 -0.812 11122111
-0.124258 -0.154939 -0.81 10322866
-0.120906 -0.152644 -0.798 10125478
-0.119394 -0.152644 -0.798 9930915
-0.11744 -0.15207 -0.795 10060705
-0.115934 -0.15207 -0.795 10196394
-0.114429 -0.15207 -0.795 10328242
-0.112639 -0.151687 -0.793 10458032
-0.111137 -0.151687 -0.793 10261678
-0.109635 -0.151687 -0.793 10127272
-0.108133 -0.151687 -0.793 9207459
-0.106632 -0.151687 -0.793 8355230
-0.104865 -0.151305 -0.791 8748185
-0.103366 -0.151305 -0.791 9207452
-0.101868 -0.151305 -0.791 9470112
-0.10037 -0.151305 -0.791 9732256
-0.0984973 -0.150731 -0.788 9601441
-0.0970049 -0.150731 -0.788 9472425
-0.0955125 -0.150731 -0.788 9671089
-0.0940202 -0.150731 -0.788 9864875
-0.0922929 -0.150348 -0.786 9927589
-0.0908043 -0.150348 -0.786 9995173
-0.0893157 -0.150348 -0.786 10193830
-0.0878271 -0.150348 -0.786 10457254
-0.0863385 -0.150348 -0.786 10524838
-0.08485 -0.150348 -0.786 10655908
-0.0835735 -0.150731 -0.788 10983843
-0.0837477 -0.153791 -0.804 11376542
-0.082225 -0.153791 -0.804 11900569
-0.0807023 -0.153791 -0.804 12488597
-0.0791797 -0.153791 -0.804 12882321
-0.077657 -0.153791 -0.804 13275021
-0.0761343 -0.153791 -0.804 13078154
-0.0746116 -0.153791 -0.804 12946825
-0.0730889 -0.153791 -0.804 13077640
-0.0715662 -0.153791 -0.804 13208453
-0.0700435 -0.153791 -0.804 13535875
-0.0685209 -0.153791 -0.804 13929088
-0.0669982 -0.153791 -0.804 12684158
-0.0654755 -0.153791 -0.804 11502708
-0.0637937 -0.153409 -0.802 12744554
-0.0622748 -0.153409 -0.802 14062455
-0.0607559 -0.153409 -0.802 13997189
-0.059237 -0.153409 -0.802 13997704
-0.0575742 -0.153026 -0.8 14129292
-0.0560591 -0.153026 -0.8 14325903
-0.054544 -0.153026 -0.8 13343635
-0.0530289 -0.153026 -0.8 12360341
-0.051385 -0.152644 -0.798 12163479
-0.0498111 -0.152452 -0.797 12032668
-0.0483017 -0.152452 -0.797 10919073
-0.0467923 -0.152452 -0.797 9868193
-0.044317 -0.1492 -0.78 9735072
-0.0427848 -0.149009 -0.779 9668003
-0.0413095 -0.149009 -0.779 9666470
-0.0398341 -0.149009 -0.779 9666213
-0.038408 -0.1492 -0.78 9272484
-0.0369308 -0.1492 -0.78 8946596
-0.0354536 -0.1492 -0.78 8686244
-0.0339763 -0.1492 -0.78 8486812
-0.0325824 -0.149583 -0.782 8418708
-0.0311014 -0.149583 -0.782 8418193
-0.0296962 -0.149966 -0.784 8090253
-0.0282113 -0.149966 -0.784 7762835
-0.0267265 -0.149966 -0.784 8353176
-0.0252417 -0.149966 -0.784 9013664
-0.0237569 -0.149966 -0.784 10063528
-0.0219312 -0.14767 -0.772 11180719
-0.0204691 -0.14767 -0.772 11446198
-0.0190071 -0.14767 -0.772 11707831
-0.0174995 -0.147288 -0.77 11379641
-0.0160412 -0.147288 -0.77 11117245
-0.0145829 -0.147288 -0.77 11051970
-0.0130906 -0.146905 -0.768 11050943
-0.011636 -0.146905 -0.768 10919613
-0.0101815 -0.146905 -0.768 10788283
-0.00872703 -0.146905 -0.768 10788281
-0.00727253 -0.146905 -0.768 10853047
-0.00581802 -0.146905 -0.768 10852278
-0.00436352 -0.146905 -0.768 10852791
-0.00290522 -0.146714 -0.767 10984888
-0.00145261 -0.146714 -0.767 11115705
-5.55112e-017 -0.146714 -0.767 11049914
0.00144882 -0.146331 -0.765 11049915
0.00289765 -0.146331 -0.765 10984380
0.00434647 -0.146331 -0.765 10919613
0.0057953 -0.146331 -0.765 10985663
0.00724412 -0.146331 -0.765 11051198
0.00867022 -0.145949 -0.763 11313598
0.0101153 -0.145949 -0.763 11576001
0.0115603 -0.145949 -0.763 11707331
0.0130053 -0.145949 -0.763 11903424
0.0144504 -0.145949 -0.763 11444413
0.0158954 -0.145949 -0.763 11051454
0.017295 -0.145566 -0.761 11051966
0.0187362 -0.145566 -0.761 11051195
0.0201775 -0.145566 -0.761 10788024
0.0216187 -0.145566 -0.761 10526137
0.02306 -0.145566 -0.761 10330554
0.0245012 -0.145566 -0.761 10134197
0.0259425 -0.145566 -0.761 9282480
0.0274557 -0.145949 -0.763 8480923
0.0289007 -0.145949 -0.763 7035783
0.0304253 -0.146331 -0.765 5587577
0.0319575 -0.146714 -0.767 6900075
0.0334101 -0.146714 -0.767 8289408
0.0348627 -0.146714 -0.767 9599381
0.0357945 -0.14461 -0.756 10924453
0.037177 -0.144418 -0.755 10658229
0.0386069 -0.144418 -0.755 10458804
0.0400368 -0.144418 -0.755 10458804
0.0414667 -0.144418 -0.755 10459572
0.0428966 -0.144418 -0.755 9481140
0.0443264 -0.144418 -0.755 8554392
0.0457563 -0.144418 -0.755 8086397
0.0471862 -0.144418 -0.755 7696775
0.0484873 -0.144036 -0.753 8941713
0.0499134 -0.144036 -0.753 10192287
0.0512713 -0.143845 -0.752 10392749
0.0526955 -0.143845 -0.752 10656176
0.0539758 -0.143462 -0.75 10329012
0.0553962 -0.143462 -0.75 9998254
0.0566651 -0.143079 -0.748 9995432
0.0580041 -0.142888 -0.747 10060459
0.0592597 -0.142506 -0.745 10059951
0.0606707 -0.142506 -0.745 10129323
0.061915 -0.142123 -0.743 10132136
0.0633221 -0.142123 -0.743 10197677
0.0647293 -0.142123 -0.743 10394546
0.0660474 -0.141932 -0.742 10591158
0.0674527 -0.141932 -0.742 10591417
0.068858 -0.141932 -0.742 10590646
0.0700738 -0.141549 -0.74 10655667
0.0714753 -0.141549 -0.74 10721204
0.0728768 -0.141549 -0.74 10655670
0.0741779 -0.141358 -0.739 10591414
0.0753729 -0.140975 -0.737 10657207
0.0767687 -0.140975 -0.737 10722744
0.0778464 -0.140401 -0.734 10657466
0.0790206 -0.140019 -0.732 10657464
0.080297 -0.139828 -0.731 10591926
0.0816815 -0.139828 -0.731 10526135
0.0831795 -0.140019 -0.732 10329527
0.0845659 -0.140019 -0.732 10131121
0.086187 -0.140401 -0.734 9670570
0.0875772 -0.140401 -0.734 9276076
0.0889673 -0.140401 -0.734 9602477
0.0903574 -0.140401 -0.734 9932461
0.0919975 -0.140784 -0.736 10391725
0.0933914 -0.140784 -0.736 10918834
0.0947853 -0.140784 -0.736 11051192
0.0961792 -0.140784 -0.736 11182010
0.0977057 -0.140975 -0.737 11248060
0.0991015 -0.140975 -0.737 11378619
0.10077 -0.141358 -0.739 10919866
0.10217 -0.141358 -0.739 10460346
0.103709 -0.141549 -0.74 10853819
0.105395 -0.141932 -0.742 11312570
0.1068 -0.141932 -0.742 11312825
0.108205 -0.141932 -0.742 11378363
0.109611 -0.141932 -0.742 11247549
0.111166 -0.142123 -0.743 11182273
0.112573 -0.142123 -0.743 11248581
0.11398 -0.142123 -0.743 11314369
0.115387 -0.142123 -0.743 11182526
0.116794 -0.142123 -0.743 11051196
0.118201 -0.142123 -0.743 10985402
0.11993 -0.142506 -0.745 10920888
0.121667 -0.142888 -0.747 10659254
0.123082 -0.142888 -0.747 10392234
0.124663 -0.143079 -0.748 10258590
0.126923 -0.144036 -0.753 10128028
0.12869 -0.144418 -0.755 10063002
0.130292 -0.14461 -0.756 10063261
0.131724 -0.14461 -0.756 9998240
0.133508 -0.144992 -0.758 9931420
0.135299 -0.145375 -0.76 9996696
0.137278 -0.145949 -0.763 10128800
0.139451 -0.146714 -0.767 10129832
0.140903 -0.146714 -0.767 10129829
0.141985 -0.146331 -0.765 9474465
0.143434 -0.146331 -0.765 8881563
0.144882 -0.146331 -0.765 10389909
0.629434 -0.219975 -1.15 9731202
0.625021 -0.21768 -1.138 9665408
0.624972 -0.216915 -1.134 9665920
0.62546 -0.216341 -1.131 9666433
0.625383 -0.215576 -1.127 9731969
0.62529 -0.21481 -1.123 9601665
0.62574 -0.214237 -1.12 9470594
0.625619 -0.213471 -1.116 9470595
0.621546 -0.211367 -1.105 9535874
0.621945 -0.210793 -1.102 9602178
0.624032 -0.210793 -1.102 9733251
0.626119 -0.210793 -1.102 9667717
0.628206 -0.210793 -1.102 9667718
-0.299003 -0.170382 -0.882 12363699
-0.297333 -0.170382 -0.882 12364215
-0.295662 -0.170382 -0.882 12432835
-0.293992 -0.170382 -0.882 12234448
-0.292322 -0.170382 -0.882 12102601
-0.289992 -0.169995 -0.88 12036803
-0.28767 -0.169609 -0.878 11971010
-0.28503 -0.169029 -0.875 11773634
-0.282725 -0.168643 -0.873 11577281
-0.280428 -0.168257 -0.871 11380417
-0.278138 -0.16787 -0.869 11249087
-0.276492 -0.16787 -0.869 11051966
-0.274214 -0.167484 -0.867 10853562
-0.272572 -0.167484 -0.867 11181751
-0.27093 -0.167484 -0.867 11575740
-0.269288 -0.167484 -0.867 11445185
-0.267646 -0.167484 -0.867 11314633
-0.26539 -0.167098 -0.865 11380434
-0.263752 -0.167098 -0.865 11512013
-0.261205 -0.166518 -0.862 11184329
-0.259572 -0.166518 -0.862 10915770
-0.25794 -0.166518 -0.862 10850987
-0.255713 -0.166132 -0.86 10786484
-0.254084 -0.166132 -0.86 10983869
-0.251868 -0.165745 -0.858 11181506
-0.250243 -0.165745 -0.858 11247304
-0.248618 -0.165745 -0.858 11381191
-0.246993 -0.165745 -0.858 11315399
-0.244796 -0.165359 -0.856 11313348
-0.243175 -0.165359 -0.856 11248321
-0.24099 -0.164973 -0.854 11249088
-0.239372 -0.164973 -0.854 11314624
-0.237198 -0.164586 -0.852 11380162
-0.235584 -0.164586 -0.852 11183301
-0.233971 -0.164586 -0.852 11051976
-0.232903 -0.164973 -0.854 11379916
-0.231285 -0.164973 -0.854 11776205
-0.229668 -0.164973 -0.854 11776462
-0.227517 -0.164586 -0.852 11776973
-0.225903 -0.164586 -0.852 11775436
-0.223763 -0.1642 -0.85 11775176
-0.222153 -0.1642 -0.85 11709381
-0.220024 -0.163814 -0.848 11707848
-0.218418 -0.163814 -0.848 11905995
-0.216812 -0.163814 -0.848 12104394
-0.215206 -0.163814 -0.848 12170186
-0.212845 -0.163234 -0.845 12299466
-0.210744 -0.162848 -0.843 12364746
-0.209148 -0.162848 -0.843 12430281
-0.207551 -0.162848 -0.843 12562376
-0.205466 -0.162461 -0.841 12693961
-0.203873 -0.162461 -0.841 12497355
-0.20228 -0.162461 -0.841 12299214
-0.200688 -0.162461 -0.841 12102353
-0.198621 -0.162075 -0.839 11905744
-0.197032 -0.162075 -0.839 11972304
-0.194978 -0.161689 -0.837 12039630
-0.19293 -0.161302 -0.835 11972813
-0.191349 -0.161302 -0.835 11972813
-0.189768 -0.161302 -0.835 11906766
-0.187735 -0.160916 -0.833 11774925
-0.186158 -0.160916 -0.833 11906253
-0.183694 -0.160143 -0.829 11972045
-0.182124 -0.160143 -0.829 11775437
-0.180554 -0.160143 -0.829 11578311
-0.178984 -0.160143 -0.829 11643842
-0.176986 -0.159757 -0.827 11709638
-0.175419 -0.159757 -0.827 11840715
-0.173433 -0.159371 -0.825 11972045
-0.17187 -0.159371 -0.825 12234447
-0.170308 -0.159371 -0.825 12431310
-0.168745 -0.159371 -0.825 12234446
-0.166778 -0.158984 -0.823 12037581
-0.165219 -0.158984 -0.823 11840716
-0.16366 -0.158984 -0.823 11709385
-0.161708 -0.158598 -0.821 11709126
-0.160153 -0.158598 -0.821 11709123
-0.158598 -0.158598 -0.821 11642816
-0.15666 -0.158212 -0.819 11642564
-0.155109 -0.158212 -0.819 11641544
-0.153183 -0.157825 -0.817 11645897
-0.151636 -0.157825 -0.817 11642827
-0.149721 -0.157439 -0.815 11707593
-0.148178 -0.157439 -0.815 11838919
-0.146634 -0.157439 -0.815 11970501
-0.145091 -0.157439 -0.815 11839428
-0.143547 -0.157439 -0.815 11708614
-0.142004 -0.157439 -0.815 11642825
-0.14046 -0.157439 -0.815 11577289
-0.138746 -0.157246 -0.814 11445961
-0.137205 -0.157246 -0.814 11380422
-0.135663 -0.157246 -0.814 11117764
-0.134121 -0.157246 -0.814 10855113
-0.13258 -0.157246 -0.814 11118030
-0.131038 -0.157246 -0.814 11380426
-0.129496 -0.157246 -0.814 11446983
-0.127955 -0.157246 -0.814 11579082
-0.126103 -0.156859 -0.812 11054797
-0.124565 -0.156859 -0.812 10586043
-0.121209 -0.154541 -0.8 10127273
-0.119394 -0.154155 -0.798 9734305
-0.11744 -0.153575 -0.795 9929369
-0.115934 -0.153575 -0.795 10130085
-0.114429 -0.153575 -0.795 10326962
-0.112923 -0.153575 -0.795 10458551
-0.111417 -0.153575 -0.795 10392253
-0.109912 -0.153575 -0.795 10326191
-0.108133 -0.153189 -0.793 9471650
-0.106632 -0.153189 -0.793 8617369
-0.104865 -0.152803 -0.791 8813968
-0.103366 -0.152803 -0.791 9076374
-0.101868 -0.152803 -0.791 9207196
-0.10037 -0.152803 -0.791 9403547
-0.0986223 -0.152416 -0.789 9403803
-0.0970049 -0.152223 -0.788 9410730
-0.0955125 -0.152223 -0.788 9603513
-0.0940202 -0.152223 -0.788 9733041
-0.0922929 -0.151837 -0.786 9929386
-0.0908043 -0.151837 -0.786 10060199
-0.0893157 -0.151837 -0.786 10128293
-0.0876037 -0.15145 -0.784 10129575
-0.0861189 -0.15145 -0.784 10262441
-0.08485 -0.151837 -0.786 10395311
-0.0833614 -0.151837 -0.786 10788022
-0.0818728 -0.151837 -0.786 11246513
-0.0805887 -0.152223 -0.788 11440812
-0.0807023 -0.155314 -0.804 11637162
-0.0791797 -0.155314 -0.804 11834024
-0.077657 -0.155314 -0.804 12030884
-0.0761343 -0.155314 -0.804 12030624
-0.0746116 -0.155314 -0.804 12030616
-0.0730889 -0.155314 -0.804 12161424
-0.0715662 -0.155314 -0.804 12292492
-0.0700435 -0.155314 -0.804 12554120
-0.0685209 -0.155314 -0.804 12815748
-0.0669982 -0.155314 -0.804 12225409
-0.0654755 -0.155314 -0.804 11635326
-0.0639528 -0.155314 -0.804 12226428
-0.0624301 -0.155314 -0.804 12817537
-0.0609074 -0.155314 -0.804 12686470
-0.0593847 -0.155314 -0.804 12556429
-0.0575742 -0.154541 -0.8 12490900
-0.0560591 -0.154541 -0.8 12425624
-0.054544 -0.154541 -0.8 11705245
-0.0530289 -0.154541 -0.8 11050398
-0.051385 -0.154155 -0.798 10788255
-0.0498111 -0.153962 -0.797 10591652
-0.0483017 -0.153962 -0.797 10130858
-0.0457355 -0.150485 -0.779 9670054
-0.0442602 -0.150485 -0.779 9668515
-0.0427848 -0.150485 -0.779 9666977
-0.0413095 -0.150485 -0.779 9666463
-0.0398341 -0.150485 -0.779 9666209
-0.038408 -0.150678 -0.78 9143203
-0.0369308 -0.150678 -0.78 8620709
-0.0354536 -0.150678 -0.78 8093352
-0.0339763 -0.150678 -0.78 7631514
-0.0325824 -0.151064 -0.782 7892877
-0.0311014 -0.151064 -0.782 8154247
-0.0296204 -0.151064 -0.782 8547714
-0.0281394 -0.151064 -0.782 8875659
-0.0266584 -0.151064 -0.782 9535892
-0.0251773 -0.151064 -0.782 10195359
-0.0233933 -0.149132 -0.772 10589867
-0.0219312 -0.149132 -0.772 10991540
-0.0204691 -0.149132 -0.772 11117245
-0.0189578 -0.148746 -0.77 11247293
-0.0174541 -0.14836 -0.768 11051197
-0.0159996 -0.14836 -0.768 10920642
-0.0145451 -0.14836 -0.768 10854856
-0.0130906 -0.14836 -0.768 10854848
-0.011636 -0.14836 -0.768 10788537
-0.0101815 -0.14836 -0.768 10722486
-0.00872703 -0.14836 -0.768 10721716
-0.00727253 -0.14836 -0.768 10655667
-0.00581045 -0.148166 -0.767 10655667
-0.00435784 -0.148166 -0.767 10655668
-0.00290522 -0.148166 -0.767 10786742
-0.00145261 -0.148166 -0.767 10852535
-5.55112e-017 -0.148166 -0.767 10918585
0.00144882 -0.14778 -0.765 10917562
0.00289765 -0.14778 -0.765 10852795
0.00434647 -0.14778 -0.765 10854330
0.0057953 -0.14778 -0.765 10919866
0.00724412 -0.14778 -0.765 11051195
0.00864749 -0.147007 -0.761 11182269
0.0100887 -0.147007 -0.761 11378110
0.01153 -0.147007 -0.761 11443392
0.0129712 -0.147007 -0.761 11574462
0.0144125 -0.147007 -0.761 11180989
0.0158537 -0.147007 -0.761 10787771
0.017295 -0.147007 -0.761 10788026
0.0187362 -0.147007 -0.761 10722744
0.0201775 -0.147007 -0.761 10460855
0.0216187 -0.147007 -0.761 10198969
0.02306 -0.147007 -0.761 9936572
0.0245012 -0.147007 -0.761 9608627
0.0260107 -0.147394 -0.763 8625067
0.0274557 -0.147394 -0.763 7622033
0.0289765 -0.14778 -0.765 6772087
0.0304253 -0.14778 -0.765 5913460
0.0319575 -0.148166 -0.767 7744882
0.0334101 -0.148166 -0.767 9537416
0.0348627 -0.148166 -0.767 10131615
0.0357945 -0.146041 -0.756 10726059
0.037177 -0.145848 -0.755 10591415
0.0386069 -0.145848 -0.755 10524854
0.0400368 -0.145848 -0.755 10459573
0.0413568 -0.145462 -0.753 10394548
0.0427829 -0.145462 -0.753 8753076
0.044209 -0.145462 -0.753 7091850
0.0456351 -0.145462 -0.753 8014433
0.0470612 -0.145462 -0.753 8941176
0.0484873 -0.145462 -0.753 9469840
0.0498471 -0.145269 -0.752 10064287
0.051135 -0.144882 -0.75 10196398
0.0525554 -0.144882 -0.75 10328493
0.0539758 -0.144882 -0.75 9932717
0.0552485 -0.144496 -0.748 9535912
0.0566651 -0.144496 -0.748 9929635
0.0580041 -0.144303 -0.747 10388393
0.0592597 -0.143917 -0.745 10456496
0.0605078 -0.14353 -0.743 10524592
0.061915 -0.14353 -0.743 10394288
0.0633221 -0.14353 -0.743 10198194
0.0646422 -0.143337 -0.742 10394036
0.0660474 -0.143337 -0.742 10590389
0.0674527 -0.143337 -0.742 10655671
0.0686724 -0.142951 -0.74 10720947
0.0699792 -0.142757 -0.739 10721456
0.0713787 -0.142757 -0.739 10787251
0.0727783 -0.142757 -0.739 10722486
0.0739771 -0.142371 -0.737 10657719
0.0750661 -0.141792 -0.734 10591928
0.0762479 -0.141405 -0.732 10460599
0.0776342 -0.141405 -0.732 10460855
0.0790206 -0.141405 -0.732 10395573
0.080297 -0.141212 -0.731 10198452
0.0816815 -0.141212 -0.731 10001331
0.0831795 -0.141405 -0.732 9998770
0.0845659 -0.141405 -0.732 9996203
0.0859522 -0.141405 -0.732 9733797
0.0873385 -0.141405 -0.732 9405865
0.0889673 -0.141792 -0.734 9997997
0.0903574 -0.141792 -0.734 10590380
0.0919975 -0.142178 -0.736 10853292
0.0933914 -0.142178 -0.736 11116213
0.0947853 -0.142178 -0.736 11116478
0.0961792 -0.142178 -0.736 11182016
0.0977057 -0.142371 -0.737 11444674
0.0991015 -0.142371 -0.737 11772095
0.10077 -0.142757 -0.739 11312828
0.10217 -0.142757 -0.739 10919356
0.103569 -0.142757 -0.739 11115965
0.105111 -0.142951 -0.74 11312828
0.106512 -0.142951 -0.74 11313084
0.108205 -0.143337 -0.742 11313341
0.109611 -0.143337 -0.742 11313343
0.111016 -0.143337 -0.742 11313602
0.112573 -0.14353 -0.743 11445190
0.11398 -0.14353 -0.743 11642305
0.115387 -0.14353 -0.743 11379645
0.116794 -0.14353 -0.743 11117242
0.118201 -0.14353 -0.743 10855095
0.119608 -0.14353 -0.743 10658739
0.121341 -0.143917 -0.745 10459568
0.123082 -0.144303 -0.747 10258340
0.124663 -0.144496 -0.748 9930905
0.126923 -0.145462 -0.753 9669020
0.12869 -0.145848 -0.755 9931936
0.130292 -0.146041 -0.756 10194847
0.131724 -0.146041 -0.756 9866911
0.133508 -0.146428 -0.758 9538200
0.135477 -0.147007 -0.761 9866130
0.137278 -0.147394 -0.763 10259872
0.139087 -0.14778 -0.765 10195630
0.140903 -0.148166 -0.767 10130343
0.141985 -0.14778 -0.765 9736609
0.143434 -0.14778 -0.765 9274265
0.144882 -0.14778 -0.765 10520978
0.629434 -0.222153 -1.15 9338496
0.625021 -0.219835 -1.138 9469310
0.624972 -0.219062 -1.134 9665918
0.62546 -0.218483 -1.131 9600639
0.623163 -0.216937 -1.123 9600896
0.62529 -0.216937 -1.123 9535361
0.62574 -0.216358 -1.12 9470082
0.625619 -0.215585 -1.116 9470339
0.621546 -0.21346 -1.105 9470595
0.621945 -0.212881 -1.102 9601411
0.624032 -0.212881 -1.102 9666948
0.626119 -0.212881 -1.102 9601669
0.628206 -0.212881 -1.102 9536647
-0.300674 -0.172052 -0.882 12430002
-0.299003 -0.172052 -0.882 12298933
-0.297333 -0.172052 -0.882 12298936
-0.295662 -0.172052 -0.882 12298949
-0.293992 -0.172052 -0.882 12102610
-0.292322 -0.172052 -0.882 11971272
-0.289992 -0.171662 -0.88 11971262
-0.28767 -0.171272 -0.878 11970752
-0.28503 -0.170687 -0.875 11708097
-0.282725 -0.170296 -0.873 11445953
-0.280428 -0.169906 -0.871 11380673
-0.278138 -0.169516 -0.869 11314628
-0.276492 -0.169516 -0.869 10986951
-0.274214 -0.169126 -0.867 10721724
-0.272572 -0.169126 -0.867 11310514
-0.27093 -0.169126 -0.867 11903674
-0.269288 -0.169126 -0.867 11642818
-0.267646 -0.169126 -0.867 11446471
-0.26539 -0.168736 -0.865 11578060
-0.263752 -0.168736 -0.865 11709130
-0.261205 -0.168151 -0.862 11250376
-0.259572 -0.168151 -0.862 10785467
-0.257341 -0.167761 -0.86 10719662
-0.255713 -0.167761 -0.86 10654899
-0.253493 -0.16737 -0.858 10850999
-0.251868 -0.16737 -0.858 11051455
-0.250243 -0.16737 -0.858 11182279
-0.248618 -0.16737 -0.858 11381448
-0.246418 -0.16698 -0.856 11315146
-0.244796 -0.16698 -0.856 11313861
-0.243175 -0.16698 -0.856 11247808
-0.24099 -0.16659 -0.854 11183039
-0.238812 -0.1662 -0.852 11248831
-0.236641 -0.16581 -0.85 11380163
-0.235031 -0.16581 -0.85 10986951
-0.233971 -0.1662 -0.852 10593226
-0.232357 -0.1662 -0.852 11183053
-0.231285 -0.16659 -0.854 11773645
-0.22913 -0.1662 -0.852 11774414
-0.227517 -0.1662 -0.852 11774925
-0.225903 -0.1662 -0.852 11775436
-0.223763 -0.16581 -0.85 11840970
-0.222153 -0.16581 -0.85 11906760
-0.220024 -0.16542 -0.848 11972809
-0.218418 -0.16542 -0.848 12104395
-0.216812 -0.16542 -0.848 12301262
-0.215206 -0.16542 -0.848 12367313
-0.212845 -0.164835 -0.845 12497358
-0.210744 -0.164444 -0.843 12562124
-0.208651 -0.164054 -0.841 12627147
-0.207059 -0.164054 -0.841 12562121
-0.205466 -0.164054 -0.841 12562635
-0.203873 -0.164054 -0.841 12497869
-0.201799 -0.163664 -0.839 12431824
-0.20021 -0.163664 -0.839 12169426
-0.198621 -0.163664 -0.839 11907025
-0.196563 -0.163274 -0.837 11972304
-0.194978 -0.163274 -0.837 12038094
-0.19293 -0.162884 -0.835 11973069
-0.191349 -0.162884 -0.835 11972814
-0.189313 -0.162494 -0.833 12234703
-0.187735 -0.162494 -0.833 12562382
-0.186158 -0.162494 -0.833 12300237
-0.183694 -0.161713 -0.829 12037837
-0.182124 -0.161713 -0.829 11841229
-0.180554 -0.161713 -0.829 11644362
-0.178552 -0.161323 -0.827 11644103
-0.176986 -0.161323 -0.827 11709641
-0.175419 -0.161323 -0.827 11906251
-0.173433 -0.160933 -0.825 12103372
-0.17187 -0.160933 -0.825 12628941
-0.170308 -0.160933 -0.825 13217742
-0.168745 -0.160933 -0.825 12693967
-0.166778 -0.160543 -0.823 12234702
-0.165219 -0.160543 -0.823 11906764
-0.16366 -0.160543 -0.823 11644362
-0.161708 -0.160153 -0.821 11578568
-0.160153 -0.160153 -0.821 11577285
-0.158212 -0.159763 -0.819 11576770
-0.156278 -0.159373 -0.817 11641797
-0.154731 -0.159373 -0.817 11574985
-0.152808 -0.158982 -0.815 11510728
-0.151265 -0.158982 -0.815 11577544
-0.149721 -0.158982 -0.815 11642568
-0.148178 -0.158982 -0.815 11642313
-0.146634 -0.158982 -0.815 11708616
-0.145091 -0.158982 -0.815 11709383
-0.143371 -0.158787 -0.814 11709386
-0.141829 -0.158787 -0.814 11643853
-0.140288 -0.158787 -0.814 11578316
-0.138746 -0.158787 -0.814 11447242
-0.137205 -0.158787 -0.814 11380936
-0.135663 -0.158787 -0.814 10986438
-0.134121 -0.158787 -0.814 10593224
-0.13258 -0.158787 -0.814 10921163
-0.131038 -0.158787 -0.814 11315400
-0.129496 -0.158787 -0.814 11250118
-0.127955 -0.158787 -0.814 11249865
-0.126103 -0.158397 -0.812 11053004
-0.124565 -0.158397 -0.812 10919869
-0.122724 -0.158007 -0.81 10197167
-0.119993 -0.156446 -0.802 9536421
-0.117883 -0.155666 -0.798 9798044
-0.116372 -0.155666 -0.798 10127011
-0.114717 -0.155471 -0.797 10325162
-0.113207 -0.155471 -0.797 10525619
-0.111698 -0.155471 -0.797 10526908
-0.109912 -0.155081 -0.795 10526904
-0.108406 -0.155081 -0.795 9740724
-0.1069 -0.155081 -0.795 8951977
-0.10513 -0.154691 -0.793 8949919
-0.103628 -0.154691 -0.793 8944027
-0.101868 -0.154301 -0.791 9009560
-0.10037 -0.154301 -0.791 9140633
-0.0986223 -0.153911 -0.789 9271706
-0.097128 -0.153911 -0.789 9403809
-0.0955125 -0.153715 -0.788 9535911
-0.0940202 -0.153715 -0.788 9668009
-0.0922929 -0.153325 -0.786 9931690
-0.0908043 -0.153325 -0.786 10193835
-0.0893157 -0.153325 -0.786 9997484
-0.0876037 -0.152935 -0.784 9865642
-0.0861189 -0.152935 -0.784 9993896
-0.08485 -0.153325 -0.786 10126252
-0.0833614 -0.153325 -0.786 10586288
-0.0818728 -0.153325 -0.786 11111341
-0.0803842 -0.153325 -0.786 10981034
-0.0788956 -0.153325 -0.786 10850988
-0.0776039 -0.153715 -0.788 10786477
-0.0762081 -0.153911 -0.789 10786728
-0.0755661 -0.155666 -0.798 10918308
-0.0742404 -0.156056 -0.8 11114659
-0.0730889 -0.156837 -0.804 11245730
-0.0715662 -0.156837 -0.804 11442079
-0.0696951 -0.156056 -0.8 11573149
-0.06818 -0.156056 -0.8 11768731
-0.0668315 -0.156446 -0.802 11767705
-0.0654755 -0.156837 -0.804 11832986
-0.0639528 -0.156837 -0.804 11704731
-0.0624301 -0.156837 -0.804 11572891
-0.0609074 -0.156837 -0.804 11376028
-0.0593847 -0.156837 -0.804 11180188
-0.0575742 -0.156056 -0.8 10850716
-0.0560591 -0.156056 -0.8 10588320
-0.054544 -0.156056 -0.8 10129573
-0.0530289 -0.156056 -0.8 9735843
-0.0501615 -0.15196 -0.779 9407650
-0.0486862 -0.15196 -0.779 9143973
-0.0472108 -0.15196 -0.779 9339304
-0.0457355 -0.15196 -0.779 9535143
-0.0442602 -0.15196 -0.779 9599911
-0.0427848 -0.15196 -0.779 9667749
-0.0413095 -0.15196 -0.779 9669795
-0.0398341 -0.15196 -0.779 9734817
-0.038408 -0.152155 -0.78 9013406
-0.0369308 -0.152155 -0.78 8354712
-0.0354536 -0.152155 -0.78 7565203
-0.0339763 -0.152155 -0.78 6777487
-0.0324991 -0.152155 -0.78 7366028
-0.0311014 -0.152545 -0.782 7953290
-0.0296204 -0.152545 -0.782 8999561
-0.0280314 -0.15196 -0.779 10055832
-0.0264197 -0.15118 -0.775 10718887
-0.0248554 -0.150594 -0.772 11376813
-0.0233933 -0.150594 -0.772 11116211
-0.0218744 -0.150204 -0.77 10853815
-0.0204161 -0.150204 -0.77 10788283
-0.0189578 -0.150204 -0.77 10788284
-0.0174541 -0.149814 -0.768 10722749
-0.0159996 -0.149814 -0.768 10722493
-0.0145451 -0.149814 -0.768 10722493
-0.0130906 -0.149814 -0.768 10720442
-0.011636 -0.149814 -0.768 10718391
-0.0101815 -0.149814 -0.768 10718900
-0.00872703 -0.149814 -0.768 10588594
-0.00727253 -0.149814 -0.768 10524082
-0.00581045 -0.149619 -0.767 10524337
-0.00435784 -0.149619 -0.767 10524337
-0.00290522 -0.149619 -0.767 10590641
-0.00145261 -0.149619 -0.767 10656179
0 -0.149229 -0.765 10721972
0.00144882 -0.149229 -0.765 10852789
0.00289765 -0.149229 -0.765 10786999
0.00434647 -0.149229 -0.765 10786743
0.0057953 -0.149229 -0.765 10917816
0.00722518 -0.148839 -0.763 11050169
0.00864749 -0.148449 -0.761 11116730
0.0100887 -0.148449 -0.761 11181499
0.01153 -0.148449 -0.761 11247037
0.0129712 -0.148449 -0.761 11312315
0.0144125 -0.148449 -0.761 10918841
0.0158537 -0.148449 -0.761 10591160
0.017295 -0.148449 -0.761 10525880
0.0187362 -0.148449 -0.761 10459830
0.0201775 -0.148449 -0.761 10195892
0.0216187 -0.148449 -0.761 9934261
0.02306 -0.148449 -0.761 9541559
0.0245012 -0.148449 -0.761 9147819
0.0260107 -0.148839 -0.763 7967648
0.0274557 -0.148839 -0.763 6765193
0.0289765 -0.149229 -0.765 6508402
0.0305048 -0.149619 -0.767 6309494
0.0319575 -0.149619 -0.767 8524153
0.0334101 -0.149619 -0.767 10855827
0.0343627 -0.147473 -0.756 10657452
0.0357471 -0.147278 -0.755 10525363
0.037177 -0.147278 -0.755 10524602
0.0386069 -0.147278 -0.755 10590393
0.0400368 -0.147278 -0.755 10461624
0.0413568 -0.146888 -0.753 10326706
0.0427829 -0.146888 -0.753 8025260
0.044209 -0.146888 -0.753 5719438
0.0456351 -0.146888 -0.753 7942769
0.0470612 -0.146888 -0.753 10195083
0.0484229 -0.146693 -0.752 10065317
0.0498471 -0.146693 -0.752 9932200
0.051135 -0.146303 -0.75 9931436
0.0524152 -0.145913 -0.748 9996204
0.0538319 -0.145913 -0.748 9536685
0.0552485 -0.145913 -0.748 9077675
0.0565894 -0.145718 -0.747 9929641
0.0578488 -0.145327 -0.745 10784174
0.0592597 -0.145327 -0.745 10852530
0.0605078 -0.144937 -0.743 10983601
0.061915 -0.144937 -0.743 10590897
0.0632369 -0.144742 -0.742 10262962
0.0646422 -0.144742 -0.742 10393780
0.0658694 -0.144352 -0.74 10590133
0.0672709 -0.144352 -0.74 10720438
0.0685796 -0.144157 -0.739 10852276
0.0697898 -0.143767 -0.737 10853042
0.0711856 -0.143767 -0.737 10853300
0.0724829 -0.143572 -0.736 10789046
0.073676 -0.143182 -0.734 10788792
0.0748616 -0.142792 -0.732 10527162
0.0761438 -0.142596 -0.731 10263992
0.0775282 -0.142596 -0.731 10197942
0.0789126 -0.142596 -0.731 10195891
0.080297 -0.142596 -0.731 9866160
0.0816815 -0.142596 -0.731 9537967
0.0831795 -0.142792 -0.732 9734319
0.0845659 -0.142792 -0.732 9930924
0.0859522 -0.142792 -0.732 9733033
0.0873385 -0.142792 -0.732 9604524
0.0889673 -0.143182 -0.734 10393519
0.0903574 -0.143182 -0.734 11246510
0.0919975 -0.143572 -0.736 11247534
0.0933914 -0.143572 -0.736 11313332
0.0947853 -0.143572 -0.736 11248059
0.0961792 -0.143572 -0.736 11182524
0.0977057 -0.143767 -0.737 11641278
0.0991015 -0.143767 -0.737 12165053
0.10077 -0.144157 -0.739 11771324
0.10217 -0.144157 -0.739 11378364
0.103569 -0.144157 -0.739 11378877
0.105111 -0.144352 -0.74 11378877
0.106512 -0.144352 -0.74 11313341
0.107914 -0.144352 -0.74 11248062
0.109315 -0.144352 -0.74 11313855
0.111016 -0.144742 -0.742 11445185
0.112421 -0.144742 -0.742 11707587
0.113826 -0.144742 -0.742 11969728
0.115232 -0.144742 -0.742 11576765
0.116794 -0.144937 -0.743 11249340
0.118201 -0.144937 -0.743 10790843
0.119608 -0.144937 -0.743 10394289
0.121016 -0.144937 -0.743 10259879
0.122752 -0.145327 -0.745 10127267
0.124497 -0.145718 -0.747 9667231
0.126923 -0.146888 -0.753 9276835
0.12869 -0.147278 -0.755 9800871
0.130292 -0.147473 -0.756 10325156
0.132072 -0.147863 -0.758 9735585
0.13386 -0.148254 -0.76 9145758
0.135477 -0.148449 -0.761 9801116
0.137278 -0.148839 -0.763 10457255
0.139087 -0.149229 -0.765 10327219
0.140903 -0.149619 -0.767 10195623
0.142356 -0.149619 -0.767 9933211
0.143809 -0.149619 -0.767 9734809
0.145261 -0.149619 -0.767 10652054
0.629434 -0.224331 -1.15 8945025
0.622824 -0.22121 -1.134 9272703
0.624972 -0.22121 -1.134 9665920
0.62546 -0.220625 -1.131 9535104
0.623163 -0.219064 -1.123 9469825
0.623619 -0.218479 -1.12 9469313
0.62574 -0.218479 -1.12 9469825
0.623937 -0.217113 -1.113 9469825
0.621546 -0.215553 -1.105 9470592
0.623638 -0.215553 -1.105 9535872
0.624032 -0.214968 -1.102 9666945
0.626119 -0.214968 -1.102 9535873
0.628206 -0.214968 -1.102 9470339
-0.300674 -0.173723 -0.882 12364212
-0.299003 -0.173723 -0.882 12102326
-0.297333 -0.173723 -0.882 12298937
-0.295662 -0.173723 -0.882 12495815
-0.293992 -0.173723 -0.882 12102613
-0.292322 -0.173723 -0.882 11774407
-0.289992 -0.173329 -0.88 11905210
-0.28767 -0.172935 -0.878 12100285
-0.28503 -0.172344 -0.875 11839169
-0.282725 -0.17195 -0.873 11576769
-0.280428 -0.171556 -0.871 11642306
-0.278778 -0.171556 -0.871 11707849
-0.276492 -0.171162 -0.869 11249360
-0.274214 -0.170768 -0.867 10852286
-0.272572 -0.170768 -0.867 11180461
-0.27093 -0.170768 -0.867 11510968
