0	0	0	0	0	0	0	0	0	0	0	0	0	0	0	0	0	0	0	0	0	0	0	0	0	1698	1698	1706	1706	1706	1706	1715	1706	1706	1698	1698	1698	1698	1698	1706	1706	1706	1706	1706	1706	1706	1706	1706	1706	1706	1706	1706	1706	1715	1715	1715	1706	1706	1706	1715	1715	1715	1715	1715	1715	1715	1715	1715	1715	1715	1715	1715	1715	1715	1715	1715	1715	1723	1723	1715	1715	1715	1715	1706	1706	1706	1706	1706	1706	1706	1706	1706	1706	1706	1706	1706	1706	1706	1706	1706	1706	1706	1706	1706	1706	1706	1698	1698	1698	1698	1698	1698	1698	1698	1698	1698	1706	1698	1706	1706	1706	1706	1706	1706	1706	1706	1706	1706	1706	1706	1698	1698	1698	1698	1698	1698	1698	1698	1706	1706	1706	1706	1706	1706	1706	1706	1706	1706	1706	1706	1715	1706	1706	1715	1715	1706	1706	1706	1706	1706	1706	1706	1706	1706	1706	1715	1715	1715	1715	1715	1715	1715	1715	1715	1706	1706	1706	1706	1715	1715	1715	1723	1723	1723	1723	1723	1723	1723	1715	1715	1715	1723	1723	1723	1723	1723	1732	1732	1732	1732	1732	1732	1732	1732	1732	1732	1732	1732	1732	1732	1732	1732	1723	1723	1723	1723	1723	1723	1732	1732	1732	1732	1723	1723	1723	1723	1723	1723	1723	1723	1723	1723	1723	1732	1732	1732	1732	1732	1732	1732	1732	1732	1732	1732	1732	1732	1732	1732	1732	1732	1732	1732	1732	1732	1732	1732	1732	1732	1732	1732	1741	1741	1741	1741	1741	1741	1741	1741	1741	1741	1750	1750	1750	1750	1750	1750	1750	1750	1750	1750	1741	1741	1741	1741	1741	1741	1741	1741	1750	1750	1750	1750	1750	1741	1741	1750	1750	1750	1750	1750	1750	1750	1750	1750	1759	1759	1759	1759	1750	1750	1759	1759	1759	1759	1759	1759	1759	1750	1750	1750	1750	1750	1750	1750	1750	1750	1750	1750	1750	1750	1750	1759	1759	1759	1759	1759	1759	1759	1759	1759	1759	1759	1759	1759	1759	1759	1759	1759	1759	1759	1759	1759	1759	1759	1759	1759	1759	1759	1759	1759	1759	1759	1759	1759	1759	1759	1759	1759	1759	1759	1759	1759	1759	1759	1768	1768	1768	1768	1759	1759	1768	1768	1768	1768	1768	1768	1768	1768	1768	1759	1759	1759	1768	1768	1759	1759	1768	1768	1768	1768	1768	1768	1759	1759	1759	1768	1768	1777	1777	1777	1777	1777	1768	1768	1768	1768	1768	1768	1768	1768	1768	1759	1759	1750	1750	1750	1750	1750	1750	1750	1750	1750	1750	1750	1750	1759	1759	1759	1759	1759	1759	1759	1759	1759	1759	1759	1759	1759	1759	1759	1759	1759	1750	1750	1750	1750	1759	1750	1750	1750	1750	1750	1750	1750	1750	1750	1750	1741	1741	1741	1741	1741	1741	1741	1741	1741	1741	1741	1732	1732	1732	1732	1723	1723	1723	1723	1723	1723	1723	1715	1715	1715	1715	1715	1715	1715	1715	1715	1715	1715	1715	1706	1706	1706	1706	1706	1706	1706	1706	1706	1706	1706	1706	1706	1698	1698	1698	1698	1690	1681	1681	1681	1681	1681	1681	1681	1681	1673	1673	1673	1673	1665	1665	1665	1665	1665	1657	1657	1657	1657	1657	1657	1657	1657	1649	1649	1649	1649	1649	1641	1641	1641	1641	1641	1641	1641	1641	1641	1634	1634	1634	1634	1634	1634	1634	1634	1634	1634	1634	1634	1634	1626	1626	1626	1626	1618	1618	1618	1618	1618	1618	1611	1611	1611	1618	1611	1611	1611	1611	1611	1611	1603	1603	1603	1603	1603	1603	1603	1603	1603	1603	1603	1596	1596	1596	1589	1589	1589	1589	1596	1589	1589	1589	1589	1589	1589	1589	0	0	0	0	0	0	0	0	0	0	0	0	0	0	0	0	0	0	0	0	0	0	0
0	0	0	0	0	0	0	0	0	0	0	0	0	0	0	0	0	0	0	0	0	0	0	0	0	1698	1698	1698	1706	1706	1706	1706	1706	1706	1698	1698	1690	1690	1698	1698	1698	1698	1706	1706	1698	1698	1698	1706	1706	1706	1706	1706	1706	1706	1706	1706	1706	1706	1706	1706	1706	1706	1706	1706	1706	1715	1706	1706	1706	1706	1706	1715	1715	1715	1715	1715	1715	1715	1715	1715	1715	1706	1706	1706	1706	1706	1706	1706	1706	1706	1706	1706	1698	1698	1698	1698	1698	1698	1698	1698	1698	1706	1706	1706	1706	1706	1698	1698	1698	1698	1698	1698	1698	1698	1698	1698	1698	1698	1698	1698	1698	1698	1698	1698	1698	1698	1698	1698	1698	1698	1698	1698	1690	1690	1698	1698	1698	1698	1698	1698	1698	1698	1698	1698	1698	1706	1706	1706	1706	1706	1706	1706	1706	1706	1706	1706	1706	1706	1706	1706	1706	1706	1706	1706	1706	1706	1706	1706	1706	1706	1706	1715	1715	1715	1706	1706	1706	1706	1715	1715	1715	1715	1723	1723	1723	1715	1715	1715	1715	1715	1715	1715	1715	1715	1715	1715	1723	1732	1732	1732	1723	1723	1732	1723	1723	1723	1723	1732	1732	1723	1723	1723	1715	1715	1715	1723	1723	1723	1723	1723	1723	1723	1723	1723	1723	1715	1715	1723	1723	1723	1723	1723	1723	1723	1723	1732	1732	1732	1732	1732	1732	1732	1732	1732	1732	1732	1732	1732	1732	1732	1732	1732	1732	1732	1732	1732	1732	1732	1732	1732	1732	1732	1732	1732	1732	1732	1732	1732	1732	1732	1732	1732	1741	1741	1741	1741	1741	1732	1732	1732	1732	1732	1732	1732	1732	1732	1732	1732	1732	1732	1732	1732	1732	1732	1732	1732	1732	1732	1732	1732	1732	1741	1741	1741	1741	1741	1741	1750	1750	1750	1759	1759	1759	1759	1759	1759	1750	1741	1741	1741	1741	1750	1750	1750	1750	1750	1750	1750	1750	1750	1750	1750	1750	1750	1750	1759	1759	1759	1759	1759	1759	1759	1750	1750	1750	1750	1750	1750	1750	1759	1759	1759	1759	1759	1759	1759	1759	1759	1759	1759	1759	1759	1759	1759	1759	1759	1750	1750	1750	1759	1759	1759	1759	1759	1759	1759	1759	1759	1759	1759	1759	1759	1759	1759	1759	1759	1759	1768	1759	1759	1759	1759	1759	1759	1759	1759	1759	1759	1759	1759	1759	1759	1759	1759	1759	1759	1768	1768	1768	1768	1768	1768	1759	1759	1759	1759	1759	1759	1759	1759	1759	1750	1750	1750	1750	1750	1750	1750	1750	1750	1750	1750	1750	1750	1750	1750	1750	1750	1759	1759	1759	1759	1759	1759	1759	1759	1759	1759	1759	1759	1759	1759	1750	1750	1750	1750	1750	1750	1750	1750	1750	1750	1750	1750	1750	1750	1750	1750	1741	1741	1741	1741	1741	1741	1741	1741	1741	1741	1732	1732	1732	1732	1732	1732	1723	1723	1723	1723	1723	1723	1723	1715	1715	1715	1715	1715	1715	1715	1715	1715	1715	1706	1706	1706	1706	1706	1706	1706	1706	1706	1706	1706	1706	1706	1706	1698	1698	1698	1690	1681	1681	1681	1681	1681	1681	1681	1681	1673	1673	1673	1673	1673	1673	1673	1673	1665	1665	1665	1665	1657	1657	1657	1657	1657	1657	1657	1649	1649	1657	1649	1649	1641	1641	1641	1641	1641	1641	1641	1641	1641	1634	1634	1634	1634	1634	1634	1634	1634	1634	1634	1634	1626	1626	1626	1626	1626	1618	1618	1618	1618	1618	1618	1618	1618	1618	1618	1618	1618	1618	1611	1611	1603	1603	1603	1603	1603	1603	1603	1603	1611	1603	1603	1603	1603	1603	1596	1596	1596	1596	1596	1596	1596	1596	1596	1589	1589	1589	0	0	0	0	0	0	0	0	0	0	0	0	0	0	0	0	0	0	0	0	0	0	0
0	0	0	0	0	0	0	0	0	0	0	0	0	0	0	0	0	0	0	0	0	0	0	0	0	1690	1690	1690	1698	1698	1706	1706	1706	1706	1698	1698	1690	1690	1698	1698	1698	1698	1698	1698	1698	1698	1698	1698	1698	1706	1706	1706	1706	1706	1706	1706	1706	1706	1706	1706	1706	1706	1706	1706	1706	1706	1706	1706	1706	1706	1706	1706	1706	1706	1706	1706	1706	1715	1706	1706	1706	1706	1706	1706	1698	1698	1706	1706	1706	1706	1698	1698	1698	1698	1698	1698	1698	1698	1698	1698	1698	1698	1706	1706	1706	1706	1698	1698	1698	1698	1698	1690	1690	1690	1698	1698	1698	1698	1698	1698	1698	1698	1690	1690	1698	1698	1698	1698	1698	1698	1698	1690	1690	1690	1698	1690	1690	1698	1698	1698	1698	1698	1698	1698	1698	1698	1698	1698	1698	1698	1706	1706	1706	1706	1698	1698	1698	1698	1698	1706	1698	1698	1698	1698	1698	1698	1706	1706	1706	1706	1706	1706	1706	1706	1706	1706	1706	1706	1706	1706	1715	1715	1715	1715	1715	1715	1715	1715	1715	1715	1715	1715	1715	1715	1715	1715	1723	1723	1723	1723	1723	1723	1723	1715	1715	1723	1723	1723	1723	1723	1723	1723	1715	1715	1715	1715	1723	1723	1723	1723	1723	1723	1715	1715	1715	1715	1715	1715	1715	1715	1723	1723	1723	1723	1723	1723	1723	1723	1723	1723	1723	1723	1723	1723	1723	1723	1723	1723	1723	1723	1723	1723	1723	1723	1723	1723	1723	1723	1723	1723	1723	1723	1723	1723	1723	1723	1723	1732	1732	1732	1732	1732	1732	1732	1732	1732	1732	1732	1732	1732	1732	1732	1732	1732	1732	1732	1732	1732	1732	1732	1732	1732	1732	1732	1732	1732	1732	1732	1732	1732	1732	1732	1732	1732	1741	1741	1741	1741	1741	1741	1741	1741	1741	1741	1741	1750	1750	1732	1732	1732	1732	1732	1732	1732	1732	1732	1741	1741	1741	1741	1741	1741	1741	1741	1741	1741	1750	1750	1750	1750	1750	1750	1750	1750	1750	1750	1750	1750	1750	1750	1750	1750	1750	1750	1750	1750	1750	1750	1750	1750	1750	1750	1750	1750	1750	1750	1750	1750	1750	1750	1750	1750	1750	1750	1750	1750	1759	1759	1759	1759	1759	1759	1759	1750	1750	1759	1759	1759	1759	1759	1759	1759	1759	1759	1759	1759	1759	1759	1759	1759	1759	1759	1759	1759	1759	1759	1759	1759	1759	1759	1759	1759	1759	1759	1759	1759	1759	1759	1759	1759	1759	1750	1750	1750	1750	1750	1750	1750	1750	1750	1750	1750	1750	1750	1750	1750	1750	1750	1750	1750	1750	1750	1759	1759	1759	1759	1759	1759	1759	1750	1750	1750	1750	1750	1750	1750	1750	1750	1750	1750	1750	1750	1750	1750	1750	1750	1750	1750	1741	1741	1741	1741	1741	1741	1741	1741	1741	1741	1741	1732	1732	1732	1732	1732	1732	1732	1732	1732	1732	1723	1723	1723	1715	1715	1715	1715	1715	1715	1715	1715	1715	1715	1706	1706	1706	1706	1706	1706	1706	1706	1706	1706	1706	1706	1706	1698	1698	1698	1690	1681	1681	1681	1681	1681	1681	1681	1681	1673	1673	1673	1673	1673	1673	1673	1673	1665	1665	1665	1665	1657	1657	1657	1657	1657	1657	1657	1657	1657	1657	1649	1649	1641	1641	1641	1641	1641	1641	1641	1641	1641	1641	1634	1634	1634	1641	1634	1634	1634	1634	1634	1634	1626	1626	1626	1626	1626	1618	1618	1618	1618	1618	1618	1618	1618	1618	1618	1626	1618	1618	1618	1611	1611	1611	1603	1603	1603	1603	1603	1611	1611	1603	1603	1603	1603	1603	1603	1603	1603	1603	1603	1596	1596	1596	1596	1589	1589	1589	0	0	0	0	0	0	0	0	0	0	0	0	0	0	0	0	0	0	0	0	0	0	0
0	0	0	0	0	0	0	0	0	0	0	0	0	0	0	0	0	0	0	0	0	0	0	0	0	1681	1681	1681	1681	1690	1690	1690	1690	1690	1690	1690	1690	1690	1690	1690	1690	1690	1698	1690	1690	1690	1690	1690	1690	1690	1690	1690	1698	1698	1698	1698	1698	1698	1698	1690	1690	1698	1698	1698	1698	1698	1698	1698	1698	1698	1698	1706	1706	1698	1698	1706	1706	1706	1698	1698	1698	1698	1698	1698	1698	1698	1698	1698	1698	1698	1698	1690	1690	1690	1690	1690	1690	1690	1690	1690	1698	1698	1698	1698	1698	1698	1690	1690	1690	1690	1690	1690	1690	1690	1690	1690	1698	1690	1690	1698	1690	1690	1681	1681	1690	1690	1690	1690	1690	1690	1690	1681	1681	1681	1690	1690	1690	1690	1690	1698	1698	1698	1698	1698	1698	1698	1698	1698	1698	1698	1698	1698	1698	1698	1698	1698	1698	1698	1698	1698	1698	1698	1698	1698	1698	1698	1698	1698	1698	1698	1706	1706	1706	1706	1706	1706	1706	1706	1706	1706	1706	1706	1706	1706	1715	1706	1706	1715	1706	1706	1706	1706	1706	1706	1706	1706	1715	1715	1715	1715	1715	1715	1715	1715	1715	1715	1715	1715	1715	1715	1715	1715	1706	1706	1706	1715	1715	1715	1715	1715	1715	1715	1715	1715	1715	1715	1715	1715	1715	1715	1723	1723	1723	1723	1723	1723	1723	1723	1723	1723	1723	1723	1723	1723	1723	1723	1723	1723	1723	1723	1723	1723	1723	1723	1723	1723	1723	1723	1723	1723	1723	1723	1723	1723	1723	1723	1723	1723	1723	1723	1723	1723	1723	1723	1723	1723	1723	1723	1723	1723	1723	1723	1723	1723	1723	1723	1723	1732	1732	1732	1732	1723	1723	1723	1723	1723	1723	1723	1723	1723	1723	1732	1732	1732	1732	1732	1732	1732	1732	1732	1741	1741	1741	1741	1741	1741	1741	1732	1732	1732	1732	1732	1732	1732	1732	1732	1732	1732	1741	1741	1741	1732	1732	1732	1732	1732	1732	1741	1750	1750	1750	1750	1750	1750	1741	1741	1741	1750	1750	1750	1750	1750	1750	1750	1750	1750	1750	1750	1750	1750	1741	1741	1741	1741	1741	1741	1741	1741	1741	1750	1750	1750	1750	1750	1750	1750	1750	1750	1750	1750	1750	1750	1750	1750	1750	1750	1750	1750	1750	1750	1750	1750	1750	1750	1750	1750	1750	1750	1750	1750	1750	1750	1750	1750	1750	1750	1750	1750	1741	1741	1741	1741	1741	1741	1741	1741	1741	1750	1750	1750	1750	1741	1741	1741	1741	1741	1741	1741	1741	1741	1741	1741	1741	1741	1741	1741	1741	1741	1741	1750	1750	1750	1750	1750	1750	1750	1750	1750	1750	1750	1750	1750	1741	1741	1741	1750	1741	1741	1741	1741	1750	1750	1750	1750	1741	1741	1741	1741	1741	1741	1741	1741	1741	1741	1741	1741	1741	1741	1741	1741	1732	1732	1732	1732	1732	1732	1732	1732	1732	1732	1723	1723	1715	1715	1715	1715	1715	1715	1715	1715	1715	1715	1715	1706	1706	1706	1706	1706	1706	1706	1706	1706	1706	1706	1706	1706	1706	1698	1698	1698	1698	1690	1690	1690	1681	1681	1681	1673	1673	1673	1673	1673	1673	1673	1673	1665	1665	1665	1665	1657	1657	1665	1665	1665	1657	1657	1657	1657	1657	1657	1649	1649	1649	1641	1641	1641	1641	1641	1641	1641	1641	1641	1641	1641	1641	1641	1641	1641	1641	1641	1634	1634	1634	1634	1634	1626	1618	1618	1618	1618	1626	1626	1626	1626	1626	1626	1626	1626	1618	1618	1611	1611	1611	1611	1611	1611	1611	1611	1611	1611	1611	1603	1603	1603	1603	1603	1603	1603	1603	1603	1603	1596	1596	1596	1596	1596	1596	0	0	0	0	0	0	0	0	0	0	0	0	0	0	0	0	0	0	0	0	0	0	0
0	0	0	0	0	0	0	0	0	0	0	0	0	0	0	0	0	0	0	0	0	0	0	0	0	1681	1681	1681	1681	1681	1681	1681	1690	1690	1681	1681	1681	1681	1681	1681	1681	1681	1673	1673	1673	1673	1673	1673	1681	1681	1681	1681	1690	1690	1690	1690	1690	1690	1690	1681	1681	1690	1690	1690	1690	1690	1698	1698	1690	1690	1698	1698	1698	1690	1690	1690	1690	1690	1690	1690	1690	1690	1698	1698	1698	1698	1698	1698	1690	1690	1690	1690	1690	1681	1681	1681	1690	1690	1690	1690	1690	1690	1698	1690	1690	1698	1681	1681	1681	1681	1681	1681	1681	1681	1681	1690	1690	1690	1690	1690	1681	1681	1673	1673	1681	1681	1681	1681	1681	1681	1681	1681	1681	1681	1681	1681	1681	1690	1690	1690	1690	1690	1681	1681	1690	1690	1690	1698	1698	1698	1698	1698	1698	1698	1698	1698	1698	1698	1698	1698	1698	1698	1698	1698	1690	1690	1698	1698	1698	1698	1698	1698	1698	1698	1698	1698	1698	1698	1706	1706	1706	1706	1706	1706	1706	1706	1706	1706	1706	1706	1706	1706	1706	1706	1706	1706	1706	1706	1706	1706	1706	1715	1715	1706	1706	1706	1706	1706	1706	1715	1706	1706	1706	1706	1706	1706	1706	1706	1706	1706	1706	1706	1706	1706	1706	1706	1706	1706	1715	1715	1715	1715	1715	1723	1723	1723	1723	1715	1715	1715	1715	1715	1706	1706	1715	1715	1715	1715	1715	1715	1715	1715	1715	1715	1715	1715	1715	1715	1723	1715	1715	1715	1715	1715	1723	1723	1723	1723	1723	1723	1723	1723	1723	1723	1723	1723	1723	1723	1723	1723	1723	1723	1723	1723	1723	1723	1723	1723	1723	1723	1723	1723	1723	1723	1723	1723	1723	1723	1723	1723	1723	1723	1723	1732	1732	1732	1732	1732	1732	1732	1732	1732	1732	1732	1741	1732	1732	1723	1723	1723	1723	1723	1723	1723	1732	1732	1732	1732	1732	1732	1732	1723	1723	1723	1723	1723	1732	1732	1741	1741	1741	1741	1741	1741	1741	1741	1741	1741	1741	1741	1741	1741	1741	1741	1741	1741	1741	1750	1741	1741	1741	1732	1732	1732	1732	1732	1732	1732	1741	1741	1741	1741	1741	1750	1750	1741	1741	1750	1741	1750	1750	1750	1750	1750	1741	1741	1741	1741	1741	1741	1741	1750	1750	1750	1750	1750	1750	1750	1750	1750	1741	1741	1741	1741	1741	1750	1741	1741	1732	1732	1741	1732	1732	1732	1741	1741	1741	1741	1741	1741	1741	1732	1732	1732	1732	1732	1732	1741	1741	1741	1741	1741	1741	1741	1741	1741	1741	1741	1741	1741	1741	1741	1741	1741	1750	1750	1750	1750	1741	1741	1750	1741	1741	1741	1741	1741	1741	1741	1741	1741	1741	1741	1741	1741	1741	1741	1741	1741	1741	1741	1741	1741	1741	1741	1741	1741	1741	1741	1741	1741	1741	1741	1741	1741	1741	1741	1741	1741	1741	1741	1732	1732	1723	1723	1723	1723	1723	1723	1723	1723	1715	1715	1715	1715	1715	1706	1706	1706	1706	1706	1706	1706	1706	1706	1706	1706	1706	1706	1698	1698	1698	1698	1698	1690	1690	1681	1681	1681	1673	1673	1673	1673	1673	1673	1673	1673	1665	1665	1665	1665	1665	1665	1665	1665	1665	1665	1665	1665	1665	1657	1657	1657	1649	1641	1641	1641	1641	1641	1641	1641	1641	1641	1641	1641	1641	1641	1641	1641	1641	1641	1634	1634	1634	1634	1634	1626	1626	1618	1618	1618	1626	1626	1626	1626	1626	1626	1626	1626	1626	1618	1611	1618	1611	1611	1611	1611	1611	1611	1611	1611	1611	1611	1611	1603	1603	1603	1603	1603	1603	1603	1603	1596	1596	1596	1596	1596	1596	0	0	0	0	0	0	0	0	0	0	0	0	0	0	0	0	0	0	0	0	0	0	0
0	0	0	0	0	0	0	0	0	0	0	0	0	0	0	0	0	0	0	0	0	0	0	0	0	1673	1673	1673	1673	1673	1681	1681	1681	1681	1681	1681	1681	1681	1673	1673	1673	1673	1673	1673	1673	1673	1673	1673	1673	1673	1673	1673	1673	1681	1681	1681	1681	1681	1681	1681	1681	1681	1681	1681	1681	1681	1681	1681	1681	1681	1690	1698	1690	1681	1681	1681	1690	1690	1690	1690	1690	1690	1690	1698	1690	1690	1690	1690	1681	1681	1681	1681	1681	1681	1681	1681	1681	1690	1690	1690	1690	1690	1690	1690	1690	1690	1681	1681	1673	1673	1673	1673	1673	1673	1681	1681	1681	1681	1681	1681	1681	1673	1673	1673	1673	1673	1673	1673	1681	1681	1681	1681	1673	1673	1681	1681	1681	1681	1681	1681	1681	1681	1681	1681	1681	1681	1681	1690	1690	1690	1690	1690	1690	1690	1690	1690	1690	1698	1698	1698	1690	1690	1690	1690	1690	1690	1690	1698	1698	1698	1698	1698	1698	1698	1698	1698	1698	1698	1698	1698	1698	1706	1706	1706	1706	1706	1706	1706	1706	1706	1706	1698	1698	1698	1698	1698	1698	1706	1706	1706	1706	1706	1706	1706	1706	1706	1706	1706	1706	1706	1706	1706	1698	1698	1698	1698	1698	1698	1698	1698	1698	1698	1698	1698	1698	1698	1698	1706	1706	1706	1706	1706	1706	1706	1706	1715	1715	1706	1706	1706	1706	1706	1706	1706	1706	1706	1706	1706	1715	1715	1715	1715	1715	1715	1715	1706	1706	1715	1715	1715	1715	1715	1715	1715	1715	1715	1715	1715	1715	1715	1715	1715	1715	1715	1715	1715	1715	1715	1715	1715	1715	1715	1723	1723	1723	1723	1723	1723	1723	1723	1723	1723	1723	1723	1723	1723	1723	1715	1715	1723	1723	1723	1723	1723	1723	1723	1723	1723	1723	1723	1732	1732	1732	1732	1732	1732	1732	1723	1723	1723	1723	1723	1723	1723	1723	1723	1723	1723	1723	1723	1723	1723	1723	1723	1723	1723	1723	1723	1732	1732	1732	1732	1732	1732	1732	1732	1732	1732	1732	1732	1732	1732	1732	1732	1732	1732	1732	1741	1741	1732	1732	1732	1732	1732	1723	1723	1732	1732	1732	1741	1741	1741	1741	1741	1741	1741	1741	1741	1741	1741	1741	1741	1741	1741	1741	1741	1732	1732	1732	1741	1741	1741	1741	1741	1741	1741	1741	1741	1741	1741	1741	1741	1741	1741	1741	1741	1741	1732	1732	1732	1732	1732	1732	1732	1732	1732	1732	1732	1732	1741	1741	1732	1732	1732	1732	1723	1723	1732	1732	1732	1732	1732	1741	1741	1741	1741	1741	1741	1741	1741	1741	1741	1741	1741	1741	1741	1741	1741	1741	1741	1741	1741	1741	1741	1741	1741	1741	1741	1741	1741	1741	1741	1741	1741	1741	1741	1741	1741	1741	1741	1741	1741	1741	1741	1741	1741	1741	1741	1741	1741	1741	1741	1741	1732	1732	1741	1741	1741	1741	1741	1741	1732	1732	1732	1723	1723	1723	1723	1723	1723	1723	1723	1715	1715	1715	1715	1706	1706	1706	1706	1706	1706	1706	1706	1706	1706	1706	1706	1706	1706	1706	1706	1698	1690	1690	1690	1690	1681	1673	1673	1673	1673	1673	1673	1673	1673	1665	1665	1665	1665	1665	1665	1665	1665	1665	1665	1665	1665	1665	1665	1665	1657	1649	1649	1649	1641	1641	1641	1641	1641	1641	1641	1641	1641	1641	1641	1641	1641	1641	1641	1641	1634	1634	1634	1634	1634	1626	1618	1618	1626	1626	1626	1626	1626	1626	1634	1626	1626	1626	1626	1618	1618	1618	1611	1611	1611	1611	1611	1611	1611	1611	1611	1611	1611	1611	1603	1603	1603	1603	1603	1603	1603	1603	1603	1596	1596	1596	0	0	0	0	0	0	0	0	0	0	0	0	0	0	0	0	0	0	0	0	0	0	0
0	0	0	0	0	0	0	0	0	0	0	0	0	0	0	0	0	0	0	0	0	0	0	0	0	1673	1673	1673	1673	1673	1673	1673	1673	1673	1673	1673	1673	1673	1673	1673	1673	1673	1673	1673	1673	1673	1673	1673	1673	1673	1673	1673	1673	1673	1673	1673	1673	1673	1673	1673	1673	1673	1673	1673	1673	1673	1681	1681	1681	1681	1681	1681	1681	1673	1673	1673	1681	1681	1681	1681	1681	1681	1681	1681	1681	1681	1681	1681	1681	1681	1681	1681	1681	1681	1681	1681	1681	1681	1681	1681	1681	1681	1681	1673	1673	1681	1673	1673	1673	1673	1673	1673	1673	1673	1673	1681	1681	1673	1673	1673	1673	1673	1673	1673	1673	1673	1673	1673	1673	1673	1673	1673	1673	1673	1673	1673	1673	1673	1673	1673	1673	1673	1673	1673	1673	1673	1681	1681	1690	1690	1690	1690	1681	1681	1681	1681	1681	1690	1690	1690	1690	1690	1690	1690	1681	1681	1690	1690	1690	1690	1690	1698	1698	1698	1690	1690	1690	1698	1698	1698	1698	1698	1698	1698	1698	1698	1698	1698	1698	1698	1698	1698	1698	1698	1698	1698	1698	1698	1698	1698	1698	1706	1706	1706	1706	1706	1706	1706	1706	1706	1706	1706	1698	1698	1698	1698	1698	1698	1698	1698	1698	1698	1698	1698	1698	1698	1698	1698	1698	1698	1698	1698	1698	1706	1706	1706	1706	1706	1706	1706	1698	1698	1698	1698	1698	1698	1706	1706	1706	1706	1706	1706	1706	1706	1706	1698	1698	1706	1706	1706	1706	1706	1706	1706	1715	1706	1706	1715	1715	1706	1706	1715	1715	1715	1715	1715	1706	1706	1706	1706	1706	1706	1715	1715	1715	1715	1715	1715	1715	1715	1715	1715	1715	1715	1715	1715	1715	1715	1715	1715	1715	1723	1723	1723	1723	1723	1723	1723	1723	1723	1723	1723	1732	1732	1732	1732	1732	1723	1723	1723	1723	1723	1723	1723	1723	1723	1723	1723	1723	1723	1723	1715	1715	1715	1723	1723	1723	1723	1723	1723	1723	1723	1723	1723	1723	1723	1723	1723	1723	1723	1723	1732	1732	1732	1732	1732	1732	1732	1732	1732	1723	1723	1723	1723	1723	1723	1723	1723	1732	1732	1732	1732	1732	1732	1732	1732	1732	1732	1732	1732	1732	1732	1732	1732	1732	1732	1732	1732	1732	1732	1732	1732	1732	1732	1741	1732	1732	1732	1732	1732	1732	1732	1732	1732	1732	1741	1732	1732	1732	1732	1732	1732	1723	1723	1723	1732	1732	1732	1732	1732	1732	1732	1723	1723	1732	1723	1723	1723	1723	1723	1732	1732	1732	1741	1741	1741	1741	1732	1732	1732	1732	1732	1732	1732	1732	1732	1732	1732	1732	1732	1741	1741	1741	1741	1741	1741	1741	1741	1741	1741	1741	1732	1732	1741	1741	1741	1741	1741	1741	1741	1741	1741	1741	1741	1741	1741	1741	1741	1741	1741	1741	1741	1741	1732	1732	1741	1741	1741	1741	1741	1741	1732	1732	1723	1723	1723	1723	1723	1723	1723	1723	1723	1715	1715	1715	1715	1706	1706	1706	1706	1706	1706	1706	1706	1706	1706	1706	1706	1706	1706	1706	1706	1706	1698	1698	1690	1690	1681	1681	1673	1673	1673	1673	1673	1673	1673	1673	1673	1673	1665	1665	1665	1665	1673	1665	1665	1665	1665	1665	1665	1665	1657	1649	1649	1649	1641	1641	1641	1641	1641	1641	1641	1641	1641	1641	1641	1641	1641	1641	1641	1641	1641	1634	1634	1634	1634	1626	1626	1626	1626	1626	1626	1626	1626	1634	1634	1634	1634	1626	1626	1618	1618	1618	1618	1611	1611	1611	1611	1611	1611	1611	1611	1611	1611	1611	1611	1611	1611	1611	1611	1603	1603	1603	1603	1603	1603	1603	0	0	0	0	0	0	0	0	0	0	0	0	0	0	0	0	0	0	0	0	0	0	0
0	0	0	0	0	0	0	0	0	0	0	0	0	0	0	0	0	0	0	0	0	0	0	0	0	1665	1665	1665	1665	1665	1665	1673	1673	1665	1665	1665	1673	1665	1665	1665	1665	1665	1665	1665	1673	1673	1673	1673	1673	1673	1673	1673	1673	1673	1673	1673	1673	1673	1673	1673	1673	1673	1673	1673	1673	1673	1681	1673	1673	1681	1681	1681	1673	1673	1673	1673	1673	1673	1673	1673	1673	1673	1673	1673	1673	1673	1673	1673	1673	1673	1673	1673	1673	1673	1673	1673	1681	1673	1673	1673	1673	1665	1665	1665	1665	1665	1657	1657	1657	1657	1665	1665	1665	1665	1673	1673	1673	1673	1673	1673	1673	1665	1665	1665	1665	1673	1673	1673	1673	1673	1673	1673	1673	1673	1673	1673	1673	1673	1673	1673	1673	1673	1673	1673	1673	1673	1673	1681	1681	1681	1681	1681	1681	1673	1673	1673	1681	1681	1681	1681	1681	1681	1681	1681	1681	1681	1681	1690	1690	1690	1690	1690	1690	1690	1690	1690	1690	1690	1690	1690	1690	1690	1690	1690	1690	1690	1690	1698	1698	1698	1698	1698	1698	1698	1698	1698	1698	1698	1698	1698	1698	1698	1698	1698	1698	1698	1698	1698	1698	1698	1698	1698	1698	1698	1690	1690	1690	1690	1690	1690	1690	1690	1690	1698	1698	1698	1698	1698	1698	1698	1698	1698	1698	1698	1698	1698	1698	1698	1698	1698	1698	1698	1698	1698	1698	1698	1698	1698	1706	1706	1698	1698	1698	1698	1698	1698	1698	1698	1698	1698	1698	1698	1698	1706	1706	1706	1706	1706	1706	1706	1706	1706	1706	1706	1706	1706	1706	1706	1706	1706	1706	1706	1706	1706	1706	1706	1706	1706	1706	1715	1706	1706	1706	1715	1715	1706	1706	1706	1706	1715	1715	1715	1715	1723	1723	1723	1723	1723	1723	1723	1723	1723	1723	1732	1732	1732	1723	1715	1715	1715	1715	1715	1715	1715	1723	1715	1715	1715	1715	1715	1715	1715	1715	1715	1715	1715	1715	1715	1715	1715	1723	1723	1723	1723	1723	1723	1723	1723	1723	1723	1723	1723	1723	1723	1723	1723	1723	1723	1723	1723	1723	1723	1723	1723	1723	1723	1723	1723	1723	1723	1732	1732	1732	1732	1732	1723	1723	1723	1723	1723	1723	1723	1723	1723	1723	1723	1723	1723	1723	1723	1723	1723	1723	1732	1732	1723	1723	1723	1723	1723	1723	1723	1723	1723	1732	1732	1732	1732	1723	1723	1723	1723	1723	1723	1723	1723	1723	1723	1723	1732	1732	1723	1723	1723	1723	1715	1715	1715	1715	1723	1723	1723	1723	1732	1732	1732	1732	1732	1732	1723	1723	1732	1732	1723	1723	1732	1732	1732	1732	1732	1732	1732	1732	1741	1732	1732	1732	1732	1732	1732	1732	1732	1732	1732	1732	1732	1741	1741	1741	1741	1741	1741	1741	1741	1741	1741	1741	1741	1741	1741	1741	1741	1741	1732	1732	1732	1741	1732	1732	1732	1732	1732	1732	1723	1723	1723	1732	1723	1723	1723	1723	1723	1715	1715	1715	1715	1706	1706	1706	1706	1706	1706	1706	1706	1706	1706	1706	1706	1706	1706	1706	1706	1706	1698	1698	1690	1690	1681	1681	1681	1681	1681	1673	1673	1673	1673	1673	1673	1673	1665	1665	1673	1673	1673	1665	1665	1665	1665	1665	1665	1665	1665	1657	1657	1657	1657	1649	1649	1649	1649	1649	1641	1641	1641	1641	1641	1641	1641	1641	1641	1641	1641	1641	1634	1634	1634	1634	1626	1626	1626	1626	1626	1626	1634	1634	1634	1634	1626	1626	1626	1618	1618	1618	1618	1611	1611	1611	1611	1611	1611	1611	1611	1611	1611	1611	1611	1611	1611	1611	1611	1603	1603	1603	1603	1603	1603	1603	0	0	0	0	0	0	0	0	0	0	0	0	0	0	0	0	0	0	0	0	0	0	0
0	0	0	0	0	0	0	0	0	0	0	0	0	0	0	0	0	0	0	0	0	0	0	0	0	1665	1665	1657	1657	1657	1665	1665	1665	1657	1657	1657	1665	1657	1657	1657	1657	1657	1665	1665	1665	1673	1673	1673	1673	1673	1673	1665	1665	1673	1673	1673	1673	1665	1665	1665	1665	1665	1665	1665	1673	1673	1673	1673	1673	1673	1673	1673	1673	1673	1673	1673	1673	1673	1673	1673	1673	1673	1673	1673	1673	1673	1673	1673	1673	1673	1673	1673	1665	1665	1673	1673	1673	1673	1673	1665	1665	1665	1665	1657	1657	1657	1649	1649	1649	1657	1657	1657	1657	1665	1665	1665	1665	1665	1665	1665	1665	1665	1665	1665	1665	1665	1665	1665	1665	1665	1665	1665	1665	1665	1665	1665	1665	1665	1665	1665	1673	1673	1673	1673	1673	1673	1673	1673	1673	1673	1673	1673	1673	1665	1665	1673	1673	1673	1673	1673	1673	1681	1681	1673	1673	1673	1681	1681	1690	1690	1690	1690	1690	1690	1681	1681	1681	1681	1690	1681	1681	1690	1690	1690	1690	1690	1690	1690	1690	1690	1690	1690	1690	1690	1690	1690	1690	1690	1690	1698	1698	1698	1698	1698	1698	1698	1698	1698	1698	1698	1698	1698	1690	1690	1690	1690	1690	1690	1690	1690	1690	1690	1690	1690	1690	1690	1698	1698	1698	1698	1690	1690	1690	1690	1690	1690	1690	1698	1698	1690	1690	1690	1698	1690	1690	1690	1698	1698	1698	1698	1698	1698	1698	1698	1698	1698	1698	1698	1698	1698	1698	1698	1698	1698	1698	1698	1698	1706	1698	1698	1698	1698	1698	1698	1698	1698	1698	1698	1698	1698	1698	1698	1698	1698	1706	1706	1706	1706	1706	1706	1706	1706	1706	1706	1706	1706	1698	1698	1698	1706	1706	1706	1706	1715	1715	1715	1715	1715	1715	1715	1723	1723	1723	1723	1723	1723	1723	1715	1715	1715	1715	1715	1715	1715	1715	1715	1715	1715	1715	1715	1715	1706	1706	1715	1715	1715	1715	1715	1715	1715	1715	1715	1715	1715	1723	1723	1723	1723	1723	1723	1723	1723	1723	1723	1723	1723	1723	1723	1723	1723	1723	1723	1715	1715	1715	1715	1723	1723	1723	1723	1723	1723	1723	1723	1723	1723	1723	1723	1723	1723	1723	1723	1723	1723	1723	1723	1723	1723	1723	1723	1723	1723	1723	1723	1723	1723	1723	1723	1723	1723	1723	1723	1723	1723	1723	1723	1723	1723	1723	1723	1723	1723	1723	1723	1723	1723	1723	1723	1723	1723	1723	1723	1715	1715	1715	1715	1715	1715	1715	1715	1715	1715	1723	1723	1723	1723	1723	1723	1723	1723	1723	1723	1723	1723	1723	1723	1723	1723	1723	1723	1723	1732	1732	1732	1732	1723	1723	1723	1723	1723	1723	1723	1723	1732	1732	1732	1732	1732	1732	1732	1732	1732	1732	1732	1732	1732	1741	1741	1741	1741	1741	1741	1732	1732	1732	1732	1732	1732	1732	1732	1732	1732	1732	1732	1732	1732	1732	1732	1723	1723	1732	1723	1723	1715	1715	1715	1715	1715	1715	1715	1715	1715	1715	1706	1706	1706	1706	1706	1706	1706	1706	1706	1706	1698	1698	1698	1690	1681	1681	1681	1681	1681	1681	1681	1673	1673	1673	1673	1673	1673	1673	1673	1673	1673	1673	1673	1673	1673	1665	1665	1665	1665	1665	1657	1657	1657	1657	1649	1649	1649	1649	1641	1641	1641	1641	1641	1641	1641	1641	1641	1641	1641	1641	1641	1634	1634	1634	1634	1634	1634	1634	1626	1626	1634	1634	1634	1634	1626	1626	1618	1618	1618	1618	1618	1618	1618	1611	1611	1611	1611	1611	1611	1611	1611	1611	1611	1611	1611	1611	1611	1611	1603	1603	1603	1603	1603	1603	0	0	0	0	0	0	0	0	0	0	0	0	0	0	0	0	0	0	0	0	0	0	0
0	0	0	0	0	0	0	0	0	0	0	0	0	0	0	0	0	0	0	0	0	0	0	0	0	1657	1657	1649	1649	1649	1657	1657	1657	1657	1657	1657	1657	1649	1649	1657	1657	1657	1657	1665	1665	1665	1665	1665	1665	1665	1665	1665	1665	1665	1665	1665	1665	1665	1665	1665	1665	1665	1665	1665	1665	1673	1673	1673	1673	1673	1673	1665	1665	1665	1665	1665	1673	1673	1673	1673	1665	1665	1665	1665	1665	1665	1665	1665	1665	1665	1665	1665	1665	1665	1665	1665	1665	1665	1665	1665	1657	1657	1657	1657	1657	1657	1649	1649	1649	1649	1649	1657	1657	1657	1657	1657	1657	1665	1665	1657	1657	1657	1657	1657	1657	1657	1657	1665	1665	1657	1657	1657	1657	1657	1657	1657	1657	1657	1657	1665	1665	1665	1665	1665	1665	1665	1665	1665	1665	1665	1665	1665	1665	1665	1665	1665	1665	1665	1665	1665	1673	1673	1673	1673	1673	1673	1673	1681	1681	1681	1681	1681	1681	1681	1681	1681	1681	1681	1681	1681	1681	1681	1681	1681	1681	1681	1681	1690	1690	1690	1690	1681	1681	1681	1690	1690	1690	1690	1690	1690	1690	1690	1690	1698	1698	1698	1698	1698	1698	1690	1690	1690	1681	1681	1681	1681	1681	1681	1690	1690	1690	1690	1690	1690	1690	1690	1690	1690	1690	1690	1690	1690	1690	1690	1690	1690	1690	1690	1690	1690	1690	1690	1690	1690	1690	1690	1690	1690	1690	1690	1690	1690	1690	1690	1690	1690	1690	1690	1690	1690	1690	1698	1698	1698	1698	1698	1698	1698	1698	1698	1698	1698	1698	1698	1698	1698	1698	1698	1698	1698	1698	1698	1698	1698	1698	1698	1698	1698	1698	1706	1698	1698	1698	1698	1698	1698	1698	1698	1698	1698	1698	1698	1706	1706	1706	1706	1715	1715	1715	1715	1715	1715	1723	1723	1723	1723	1715	1715	1715	1706	1706	1706	1706	1706	1715	1706	1706	1715	1715	1715	1715	1706	1706	1706	1706	1715	1715	1715	1715	1715	1715	1715	1715	1715	1715	1715	1715	1715	1715	1715	1715	1715	1715	1715	1715	1715	1723	1723	1715	1715	1715	1715	1715	1715	1715	1715	1715	1723	1723	1723	1723	1723	1715	1715	1715	1715	1715	1715	1715	1715	1715	1715	1715	1715	1715	1715	1715	1715	1715	1715	1715	1715	1715	1715	1715	1715	1715	1715	1715	1715	1715	1715	1715	1715	1723	1723	1723	1723	1723	1715	1715	1715	1715	1715	1715	1715	1723	1723	1723	1723	1723	1715	1715	1715	1715	1706	1706	1706	1706	1715	1715	1715	1715	1715	1715	1715	1715	1723	1723	1715	1715	1715	1715	1715	1715	1715	1723	1723	1723	1723	1723	1723	1723	1723	1723	1723	1715	1715	1715	1715	1715	1715	1723	1723	1723	1723	1723	1723	1723	1723	1723	1723	1723	1732	1732	1732	1732	1732	1732	1732	1732	1732	1732	1732	1732	1732	1732	1732	1732	1732	1732	1732	1732	1732	1732	1732	1732	1732	1723	1723	1723	1723	1723	1715	1715	1715	1715	1715	1715	1715	1715	1715	1715	1706	1706	1706	1706	1706	1706	1706	1706	1706	1706	1706	1706	1698	1698	1690	1681	1681	1681	1681	1681	1681	1673	1673	1673	1673	1673	1673	1673	1673	1673	1673	1673	1673	1673	1673	1665	1665	1665	1665	1665	1665	1657	1657	1657	1657	1649	1649	1649	1649	1641	1641	1641	1641	1641	1641	1641	1641	1641	1641	1641	1641	1641	1634	1634	1634	1634	1634	1634	1626	1626	1634	1634	1634	1634	1634	1634	1626	1626	1626	1626	1626	1618	1618	1618	1618	1618	1611	1611	1611	1611	1611	1611	1611	1611	1611	1618	1611	1611	1611	1611	1603	1603	1603	1603	0	0	0	0	0	0	0	0	0	0	0	0	0	0	0	0	0	0	0	0	0	0	0
0	0	0	0	0	0	0	0	0	0	0	0	0	0	0	0	0	0	0	0	0	0	0	0	0	1649	1649	1649	1649	1649	1649	1649	1649	1649	1649	1649	1649	1649	1649	1649	1649	1649	1657	1657	1657	1665	1665	1665	1665	1665	1665	1665	1665	1665	1665	1665	1665	1657	1657	1657	1657	1657	1657	1657	1665	1665	1665	1665	1665	1665	1665	1665	1665	1657	1657	1657	1665	1665	1665	1665	1657	1657	1657	1657	1657	1657	1657	1657	1665	1665	1665	1665	1657	1657	1657	1657	1657	1657	1657	1657	1657	1657	1657	1649	1649	1649	1641	1641	1641	1649	1649	1649	1657	1657	1657	1657	1657	1657	1657	1649	1649	1657	1657	1657	1657	1657	1657	1657	1657	1657	1649	1649	1649	1657	1657	1657	1657	1657	1657	1657	1657	1665	1665	1665	1665	1665	1665	1657	1657	1657	1657	1657	1657	1657	1657	1665	1665	1665	1665	1665	1665	1665	1665	1665	1665	1665	1665	1665	1673	1673	1673	1673	1673	1673	1665	1665	1665	1673	1673	1673	1673	1673	1673	1673	1673	1673	1673	1673	1673	1673	1673	1673	1673	1673	1673	1673	1673	1673	1681	1681	1681	1690	1690	1690	1690	1690	1690	1690	1690	1690	1681	1681	1681	1681	1681	1681	1681	1681	1681	1681	1681	1681	1690	1690	1690	1690	1690	1690	1690	1690	1681	1681	1681	1681	1681	1681	1681	1690	1690	1690	1690	1690	1690	1681	1681	1690	1690	1690	1690	1690	1690	1690	1690	1690	1690	1690	1690	1690	1690	1690	1690	1690	1690	1690	1690	1690	1690	1690	1690	1690	1690	1690	1690	1690	1690	1690	1690	1690	1690	1698	1690	1690	1690	1690	1698	1698	1698	1698	1698	1698	1698	1698	1698	1698	1698	1698	1698	1698	1698	1698	1698	1698	1698	1698	1698	1706	1706	1706	1706	1706	1715	1715	1715	1715	1715	1715	1706	1706	1706	1698	1698	1698	1698	1706	1706	1706	1706	1706	1706	1706	1706	1706	1706	1706	1706	1706	1706	1706	1706	1715	1715	1715	1715	1715	1715	1715	1715	1715	1715	1715	1715	1715	1715	1715	1715	1715	1715	1715	1715	1715	1715	1715	1715	1706	1706	1715	1715	1715	1715	1715	1715	1715	1715	1715	1715	1715	1715	1706	1706	1715	1715	1715	1715	1715	1715	1715	1715	1715	1715	1715	1715	1715	1715	1715	1715	1715	1715	1715	1715	1715	1715	1715	1715	1715	1715	1715	1715	1715	1715	1715	1715	1715	1715	1715	1715	1715	1715	1715	1723	1723	1723	1715	1706	1706	1706	1706	1706	1706	1706	1706	1706	1706	1715	1715	1715	1715	1715	1715	1715	1715	1715	1715	1715	1715	1715	1715	1715	1715	1715	1715	1715	1715	1715	1715	1715	1715	1715	1715	1715	1715	1715	1715	1715	1715	1715	1715	1715	1715	1715	1715	1715	1723	1723	1723	1723	1723	1723	1732	1723	1723	1723	1723	1723	1723	1723	1723	1723	1723	1723	1723	1732	1732	1723	1723	1723	1732	1723	1723	1723	1723	1723	1723	1715	1715	1715	1715	1715	1715	1715	1715	1715	1715	1715	1715	1706	1706	1706	1706	1706	1706	1706	1706	1706	1706	1706	1698	1698	1690	1681	1681	1681	1681	1681	1681	1673	1673	1673	1673	1673	1673	1673	1673	1673	1673	1673	1673	1673	1673	1673	1665	1665	1665	1665	1665	1665	1665	1665	1657	1657	1657	1657	1649	1649	1641	1641	1641	1641	1641	1641	1641	1641	1641	1641	1641	1641	1641	1641	1641	1641	1641	1634	1634	1634	1634	1634	1634	1634	1634	1634	1626	1626	1626	1626	1626	1626	1626	1626	1626	1626	1618	1618	1611	1611	1618	1618	1611	1611	1611	1618	1611	1611	1611	1611	1611	1611	1611	1611	0	0	0	0	0	0	0	0	0	0	0	0	0	0	0	0	0	0	0	0	0	0	0
0	0	0	0	0	0	0	0	0	0	0	0	0	0	0	0	0	0	0	0	0	0	0	0	0	1649	1649	1649	1649	1649	1649	1649	1641	1641	1641	1641	1649	1649	1649	1649	1649	1649	1649	1657	1657	1657	1657	1657	1657	1657	1657	1657	1657	1657	1657	1657	1657	1657	1657	1657	1649	1649	1657	1657	1657	1657	1657	1657	1657	1657	1657	1657	1657	1657	1649	1649	1657	1657	1657	1657	1649	1649	1657	1657	1657	1657	1657	1657	1657	1657	1657	1657	1649	1649	1649	1649	1649	1649	1649	1657	1649	1649	1649	1649	1649	1649	1641	1634	1641	1641	1641	1641	1649	1649	1649	1649	1649	1649	1649	1641	1641	1641	1641	1649	1641	1641	1641	1649	1649	1649	1649	1649	1649	1649	1649	1649	1649	1649	1649	1649	1657	1657	1657	1657	1657	1657	1657	1649	1649	1657	1657	1649	1649	1657	1657	1657	1657	1657	1665	1665	1665	1665	1665	1665	1665	1665	1665	1665	1665	1665	1673	1665	1665	1665	1665	1665	1665	1665	1673	1673	1673	1673	1665	1665	1673	1673	1673	1673	1673	1673	1673	1673	1673	1673	1673	1673	1673	1673	1673	1673	1673	1673	1673	1673	1681	1673	1673	1673	1673	1673	1673	1673	1665	1665	1665	1665	1665	1673	1673	1673	1673	1673	1673	1681	1681	1681	1681	1681	1681	1673	1673	1673	1673	1673	1673	1673	1673	1673	1673	1673	1673	1673	1673	1681	1681	1681	1681	1681	1681	1681	1681	1681	1681	1690	1690	1690	1681	1681	1681	1681	1681	1690	1690	1690	1690	1690	1690	1690	1690	1690	1690	1690	1690	1690	1690	1690	1690	1690	1690	1690	1690	1690	1690	1690	1690	1690	1690	1690	1690	1698	1698	1698	1698	1690	1690	1690	1690	1690	1690	1690	1690	1690	1690	1698	1698	1698	1698	1698	1698	1698	1706	1706	1706	1706	1706	1706	1698	1690	1690	1690	1690	1690	1690	1698	1698	1698	1698	1698	1698	1698	1698	1698	1698	1698	1698	1698	1698	1698	1698	1706	1706	1706	1706	1706	1715	1715	1715	1715	1715	1706	1706	1706	1706	1706	1715	1715	1715	1715	1715	1715	1715	1706	1706	1706	1706	1706	1706	1706	1706	1706	1706	1706	1706	1706	1706	1706	1706	1706	1706	1715	1715	1715	1706	1706	1715	1706	1706	1715	1706	1706	1706	1706	1706	1706	1706	1706	1715	1715	1715	1715	1706	1706	1715	1706	1706	1715	1715	1715	1706	1706	1706	1706	1706	1706	1706	1715	1715	1715	1715	1715	1715	1706	1706	1706	1706	1706	1706	1706	1706	1706	1706	1706	1706	1715	1715	1715	1706	1706	1715	1706	1706	1715	1715	1715	1715	1715	1715	1715	1715	1706	1706	1715	1715	1715	1715	1715	1715	1715	1715	1715	1715	1715	1715	1715	1715	1715	1715	1715	1715	1715	1715	1715	1715	1723	1723	1723	1723	1723	1723	1715	1715	1715	1715	1715	1715	1715	1715	1723	1723	1723	1723	1723	1723	1723	1723	1723	1723	1715	1715	1715	1723	1723	1715	1715	1715	1715	1715	1715	1715	1715	1715	1715	1715	1715	1715	1706	1706	1706	1706	1706	1706	1715	1706	1706	1706	1706	1706	1690	1690	1681	1681	1681	1681	1681	1673	1673	1673	1673	1673	1673	1673	1673	1673	1673	1673	1673	1673	1673	1665	1665	1665	1673	1673	1665	1665	1665	1665	1657	1657	1657	1657	1649	1649	1649	1649	1649	1641	1641	1641	1641	1641	1641	1641	1641	1641	1641	1641	1641	1641	1641	1641	1634	1634	1634	1634	1634	1634	1634	1634	1634	1626	1626	1634	1634	1626	1626	1626	1626	1626	1618	1618	1611	1611	1618	1618	1618	1618	1618	1618	1611	1611	1611	1611	1611	1611	1611	1611	0	0	0	0	0	0	0	0	0	0	0	0	0	0	0	0	0	0	0	0	0	0	0
0	0	0	0	0	0	0	0	0	0	0	0	0	0	0	0	0	0	0	0	0	0	0	0	0	1641	1641	1641	1641	1641	1641	1641	1641	1641	1641	1641	1641	1641	1641	1649	1649	1649	1649	1649	1649	1657	1657	1657	1649	1649	1649	1649	1649	1649	1649	1649	1649	1649	1649	1649	1649	1649	1649	1649	1649	1649	1649	1649	1649	1649	1649	1649	1649	1649	1649	1649	1649	1649	1649	1649	1649	1649	1649	1649	1649	1649	1649	1649	1649	1649	1649	1649	1649	1649	1649	1649	1649	1649	1649	1649	1649	1649	1649	1649	1649	1649	1641	1634	1641	1641	1641	1641	1649	1649	1649	1649	1649	1649	1641	1641	1641	1641	1641	1641	1641	1641	1641	1641	1649	1641	1641	1641	1641	1649	1649	1641	1641	1641	1641	1649	1649	1649	1649	1649	1657	1657	1657	1649	1649	1657	1657	1649	1649	1649	1657	1657	1657	1657	1657	1657	1657	1657	1657	1657	1657	1657	1657	1657	1657	1657	1665	1665	1665	1657	1657	1665	1665	1665	1665	1665	1665	1665	1665	1665	1665	1665	1665	1665	1665	1673	1673	1673	1673	1665	1665	1673	1673	1673	1673	1673	1673	1673	1673	1673	1673	1673	1673	1673	1673	1673	1673	1673	1665	1665	1665	1665	1665	1665	1673	1673	1673	1673	1673	1673	1673	1673	1673	1673	1673	1673	1673	1673	1665	1665	1665	1665	1665	1665	1665	1665	1665	1665	1665	1673	1673	1673	1665	1665	1665	1665	1673	1673	1673	1673	1673	1673	1673	1673	1673	1673	1673	1673	1673	1673	1673	1673	1673	1665	1665	1673	1673	1673	1681	1681	1673	1673	1673	1673	1681	1681	1681	1681	1681	1681	1681	1681	1681	1681	1690	1681	1681	1681	1690	1681	1681	1681	1690	1690	1690	1690	1690	1690	1690	1690	1690	1698	1698	1698	1698	1698	1698	1698	1698	1698	1698	1698	1698	1690	1690	1690	1690	1690	1690	1690	1698	1698	1698	1698	1698	1698	1698	1690	1690	1698	1698	1690	1690	1698	1698	1698	1698	1706	1706	1706	1706	1706	1706	1706	1706	1706	1698	1698	1706	1706	1706	1706	1706	1706	1706	1706	1706	1706	1698	1698	1698	1698	1698	1698	1698	1698	1698	1698	1698	1698	1698	1698	1698	1698	1698	1706	1706	1706	1706	1706	1706	1706	1706	1706	1698	1698	1698	1698	1698	1698	1698	1698	1706	1706	1706	1706	1706	1706	1706	1706	1706	1706	1706	1706	1706	1698	1698	1698	1706	1706	1706	1706	1706	1706	1706	1706	1706	1706	1698	1698	1698	1698	1698	1698	1698	1706	1706	1706	1706	1706	1706	1706	1706	1706	1706	1706	1706	1706	1706	1706	1706	1706	1706	1706	1706	1706	1706	1706	1706	1706	1706	1706	1706	1706	1715	1715	1715	1715	1715	1715	1715	1715	1715	1715	1706	1706	1706	1715	1715	1715	1715	1723	1723	1715	1715	1715	1715	1715	1715	1715	1715	1715	1715	1715	1715	1715	1715	1715	1715	1715	1715	1715	1715	1715	1715	1715	1723	1723	1715	1715	1715	1715	1715	1715	1715	1715	1715	1715	1715	1715	1715	1706	1706	1706	1706	1706	1715	1715	1706	1706	1706	1706	1706	1698	1690	1690	1690	1681	1681	1681	1673	1673	1673	1673	1673	1673	1673	1673	1673	1673	1673	1673	1673	1673	1665	1665	1665	1673	1673	1665	1665	1665	1665	1665	1657	1657	1657	1657	1657	1649	1649	1649	1649	1649	1649	1641	1641	1641	1641	1641	1641	1641	1641	1641	1641	1641	1641	1634	1634	1634	1634	1634	1634	1634	1634	1634	1634	1634	1634	1634	1626	1626	1626	1626	1626	1618	1618	1618	1618	1618	1618	1618	1618	1618	1618	1611	1611	1611	1611	1611	1611	1611	1611	0	0	0	0	0	0	0	0	0	0	0	0	0	0	0	0	0	0	0	0	0	0	0
0	0	0	0	0	0	0	0	0	0	0	0	0	0	0	0	0	0	0	0	0	0	0	0	0	1641	1641	1641	1641	1641	1641	1641	1641	1641	1641	1641	1641	1641	1641	1641	1641	1649	1649	1649	1649	1649	1649	1649	1649	1649	1649	1649	1649	1649	1649	1641	1641	1649	1649	1649	1649	1649	1649	1649	1649	1649	1649	1649	1649	1641	1641	1641	1641	1641	1641	1641	1649	1649	1649	1649	1649	1649	1649	1649	1649	1649	1649	1649	1649	1649	1649	1649	1649	1649	1649	1641	1641	1649	1649	1649	1649	1649	1649	1649	1649	1641	1641	1634	1641	1641	1641	1641	1649	1649	1641	1641	1641	1641	1641	1641	1641	1634	1634	1641	1641	1641	1641	1641	1641	1641	1641	1641	1641	1641	1641	1641	1641	1641	1641	1641	1641	1641	1641	1649	1649	1649	1649	1641	1641	1649	1649	1649	1649	1649	1649	1649	1649	1649	1657	1657	1657	1657	1649	1649	1649	1649	1649	1657	1657	1657	1657	1657	1657	1657	1657	1657	1657	1657	1657	1657	1657	1657	1657	1657	1657	1665	1665	1665	1665	1665	1665	1665	1665	1665	1665	1665	1665	1665	1665	1665	1665	1665	1665	1665	1665	1665	1665	1665	1665	1665	1665	1673	1665	1665	1665	1665	1665	1665	1665	1665	1665	1665	1665	1673	1665	1665	1665	1665	1665	1665	1665	1665	1665	1665	1665	1665	1665	1665	1665	1665	1665	1665	1665	1665	1665	1665	1665	1665	1665	1665	1665	1665	1665	1665	1665	1665	1665	1665	1665	1665	1665	1665	1665	1665	1665	1665	1665	1665	1665	1665	1665	1673	1673	1673	1673	1673	1665	1665	1673	1673	1673	1673	1673	1673	1681	1681	1681	1681	1681	1681	1681	1681	1690	1681	1681	1681	1681	1681	1690	1690	1690	1690	1690	1690	1690	1690	1690	1690	1690	1690	1690	1690	1690	1690	1690	1690	1690	1681	1681	1681	1681	1681	1681	1681	1681	1690	1690	1690	1690	1690	1690	1690	1690	1690	1690	1690	1690	1690	1690	1690	1690	1690	1690	1698	1698	1698	1698	1698	1698	1690	1690	1690	1690	1690	1690	1698	1698	1698	1698	1698	1698	1690	1690	1690	1690	1690	1690	1690	1690	1690	1690	1690	1690	1690	1698	1698	1698	1698	1698	1706	1706	1698	1698	1698	1698	1698	1698	1698	1690	1690	1698	1690	1690	1698	1698	1698	1706	1706	1706	1706	1698	1698	1698	1698	1698	1698	1698	1698	1698	1698	1698	1698	1698	1698	1698	1698	1698	1698	1698	1698	1698	1690	1690	1690	1690	1690	1690	1690	1690	1698	1706	1706	1706	1706	1706	1706	1698	1698	1706	1706	1706	1706	1706	1706	1706	1706	1706	1706	1706	1706	1706	1706	1706	1706	1706	1706	1706	1706	1706	1706	1706	1706	1706	1706	1706	1706	1706	1706	1706	1706	1706	1706	1706	1715	1715	1715	1715	1715	1715	1715	1715	1715	1715	1706	1706	1715	1715	1715	1715	1715	1715	1715	1715	1715	1715	1715	1715	1715	1715	1715	1715	1715	1715	1715	1715	1715	1715	1715	1715	1715	1715	1715	1715	1706	1706	1715	1715	1715	1715	1715	1715	1715	1715	1706	1706	1706	1706	1698	1698	1690	1690	1690	1690	1690	1681	1673	1673	1681	1673	1673	1673	1681	1681	1681	1673	1673	1673	1673	1673	1673	1673	1673	1673	1665	1665	1665	1665	1665	1657	1657	1657	1657	1657	1649	1649	1649	1657	1649	1649	1649	1649	1641	1641	1641	1649	1641	1641	1641	1641	1641	1641	1634	1634	1634	1634	1634	1634	1634	1634	1634	1634	1634	1634	1634	1626	1626	1626	1626	1626	1626	1618	1618	1618	1626	1626	1618	1618	1618	1618	1611	1611	1611	1611	1611	1611	1611	1611	0	0	0	0	0	0	0	0	0	0	0	0	0	0	0	0	0	0	0	0	0	0	0
0	0	0	0	0	0	0	0	0	0	0	0	0	0	0	0	0	0	0	0	0	0	0	0	0	1641	1641	1641	1641	1641	1634	1634	1634	1634	1634	1634	1634	1641	1641	1641	1641	1641	1641	1649	1641	1641	1649	1649	1641	1641	1641	1641	1641	1641	1641	1641	1641	1641	1641	1641	1641	1641	1641	1641	1641	1641	1641	1641	1641	1641	1641	1641	1641	1641	1641	1641	1641	1641	1649	1641	1641	1641	1649	1649	1641	1641	1649	1641	1641	1641	1641	1641	1641	1641	1641	1641	1641	1641	1641	1649	1641	1641	1641	1641	1641	1641	1641	1634	1634	1634	1641	1641	1641	1641	1641	1634	1634	1634	1634	1634	1634	1634	1634	1634	1634	1634	1634	1641	1641	1641	1641	1641	1641	1641	1641	1641	1641	1641	1641	1641	1641	1641	1641	1641	1641	1641	1641	1641	1641	1641	1641	1641	1641	1641	1641	1649	1641	1641	1649	1649	1649	1649	1649	1649	1649	1649	1649	1649	1649	1649	1649	1649	1649	1649	1649	1649	1649	1649	1649	1649	1649	1649	1649	1649	1657	1657	1657	1657	1665	1665	1665	1665	1665	1665	1665	1665	1665	1665	1665	1665	1665	1665	1665	1665	1665	1665	1665	1665	1665	1665	1665	1665	1657	1657	1657	1657	1657	1665	1665	1665	1665	1665	1665	1665	1665	1665	1665	1665	1665	1665	1665	1665	1657	1657	1657	1657	1657	1657	1657	1665	1665	1665	1665	1665	1665	1665	1665	1665	1665	1665	1665	1665	1665	1665	1665	1665	1665	1665	1665	1665	1665	1665	1665	1665	1665	1665	1665	1665	1665	1665	1665	1665	1665	1665	1665	1665	1665	1665	1665	1665	1665	1673	1673	1673	1673	1673	1673	1673	1673	1673	1673	1673	1681	1681	1681	1681	1681	1681	1681	1681	1681	1681	1681	1681	1681	1681	1681	1681	1681	1690	1681	1681	1690	1690	1690	1690	1690	1681	1681	1681	1681	1681	1681	1681	1681	1681	1681	1681	1690	1690	1690	1690	1690	1690	1690	1690	1690	1681	1681	1681	1681	1690	1690	1690	1690	1690	1690	1690	1690	1690	1690	1690	1690	1690	1690	1690	1690	1690	1698	1690	1690	1690	1690	1690	1690	1690	1690	1690	1690	1690	1690	1690	1690	1690	1690	1690	1690	1690	1690	1690	1690	1690	1690	1690	1690	1681	1681	1681	1681	1681	1681	1681	1681	1681	1681	1690	1690	1690	1690	1690	1690	1690	1690	1690	1690	1690	1690	1690	1690	1690	1690	1690	1690	1690	1690	1690	1690	1690	1690	1690	1690	1681	1681	1681	1681	1681	1681	1681	1681	1690	1690	1690	1698	1698	1698	1690	1690	1690	1690	1690	1690	1690	1690	1690	1690	1690	1690	1690	1690	1690	1690	1690	1690	1690	1698	1698	1698	1698	1698	1698	1706	1706	1698	1698	1698	1698	1706	1706	1706	1706	1706	1706	1706	1706	1706	1706	1706	1706	1706	1706	1706	1706	1706	1706	1706	1706	1706	1706	1706	1706	1706	1706	1706	1706	1706	1706	1706	1706	1706	1706	1706	1715	1715	1715	1715	1715	1715	1706	1706	1706	1706	1706	1706	1706	1706	1706	1706	1715	1715	1715	1715	1715	1715	1715	1706	1706	1706	1698	1698	1690	1690	1690	1690	1690	1681	1681	1681	1681	1681	1681	1681	1681	1681	1681	1681	1681	1681	1681	1673	1673	1673	1673	1673	1673	1665	1665	1665	1665	1657	1657	1657	1657	1657	1649	1649	1649	1657	1649	1649	1649	1649	1649	1649	1649	1649	1649	1649	1649	1649	1641	1641	1634	1634	1634	1634	1634	1634	1634	1634	1634	1634	1634	1634	1634	1634	1634	1634	1634	1634	1626	1626	1618	1618	1626	1626	1618	1618	1618	1618	1611	1611	1611	1611	1611	1611	1611	1611	0	0	0	0	0	0	0	0	0	0	0	0	0	0	0	0	0	0	0	0	0	0	0
0	0	0	0	0	0	0	0	0	0	0	0	0	0	0	0	0	0	0	0	0	0	0	0	0	1634	1634	1634	1634	1634	1626	1626	1626	1626	1626	1626	1634	1634	1634	1641	1641	1641	1641	1641	1641	1641	1641	1641	1641	1641	1641	1641	1641	1641	1641	1634	1634	1641	1641	1634	1634	1634	1641	1641	1641	1641	1641	1641	1641	1634	1634	1634	1634	1634	1634	1641	1641	1641	1641	1641	1641	1641	1641	1641	1641	1641	1641	1641	1641	1641	1641	1641	1641	1641	1641	1641	1641	1641	1641	1641	1641	1641	1641	1641	1641	1641	1641	1634	1634	1634	1634	1641	1641	1641	1634	1634	1634	1634	1626	1626	1634	1626	1626	1634	1634	1634	1634	1634	1634	1634	1634	1634	1634	1641	1641	1634	1634	1634	1634	1641	1641	1641	1641	1641	1641	1641	1641	1634	1634	1641	1641	1641	1641	1641	1641	1641	1641	1641	1641	1641	1641	1641	1641	1641	1641	1641	1641	1649	1649	1649	1649	1649	1649	1649	1649	1649	1649	1649	1641	1641	1641	1641	1641	1641	1649	1649	1649	1657	1657	1665	1665	1657	1657	1657	1657	1657	1657	1657	1657	1657	1657	1665	1665	1657	1657	1657	1657	1665	1665	1665	1665	1665	1657	1657	1657	1657	1657	1657	1657	1657	1657	1657	1657	1657	1665	1665	1657	1657	1657	1657	1657	1657	1657	1657	1657	1657	1657	1657	1657	1657	1657	1657	1665	1665	1665	1657	1657	1657	1657	1657	1657	1657	1657	1657	1657	1657	1657	1657	1657	1657	1657	1657	1657	1665	1665	1665	1665	1657	1657	1665	1665	1665	1665	1665	1665	1665	1665	1665	1665	1665	1665	1665	1665	1665	1665	1665	1665	1665	1665	1665	1665	1665	1673	1673	1673	1673	1673	1673	1673	1673	1673	1673	1673	1673	1673	1681	1681	1681	1681	1681	1673	1673	1681	1681	1681	1681	1681	1681	1681	1681	1681	1681	1681	1681	1681	1681	1681	1681	1681	1681	1681	1681	1681	1681	1681	1681	1681	1681	1681	1681	1681	1681	1681	1681	1681	1681	1681	1681	1681	1681	1681	1681	1681	1681	1690	1690	1690	1690	1690	1690	1690	1690	1690	1690	1690	1681	1681	1681	1681	1681	1681	1681	1681	1681	1681	1681	1681	1681	1681	1690	1690	1690	1681	1681	1681	1681	1681	1681	1681	1681	1681	1681	1681	1681	1681	1681	1681	1681	1681	1681	1681	1681	1681	1681	1681	1681	1681	1681	1681	1681	1681	1681	1690	1690	1690	1690	1690	1690	1690	1690	1690	1681	1681	1681	1681	1681	1681	1681	1681	1681	1690	1690	1690	1690	1690	1690	1681	1681	1681	1681	1681	1690	1690	1690	1681	1681	1681	1681	1681	1681	1690	1690	1690	1690	1690	1698	1698	1698	1698	1698	1698	1698	1698	1690	1690	1698	1698	1698	1698	1698	1698	1698	1698	1706	1706	1706	1706	1706	1706	1706	1706	1706	1706	1706	1706	1706	1706	1706	1706	1706	1706	1706	1706	1698	1698	1698	1706	1706	1706	1706	1706	1706	1715	1715	1715	1715	1715	1706	1706	1706	1706	1706	1706	1706	1706	1706	1706	1715	1715	1715	1715	1715	1715	1715	1706	1706	1715	1706	1698	1698	1698	1698	1698	1690	1690	1690	1690	1690	1681	1681	1681	1690	1690	1690	1681	1681	1681	1681	1673	1673	1673	1673	1673	1673	1673	1673	1673	1665	1665	1665	1665	1665	1657	1657	1657	1657	1665	1657	1649	1657	1657	1657	1657	1657	1657	1657	1657	1649	1649	1641	1641	1634	1634	1641	1641	1641	1634	1634	1634	1634	1634	1634	1634	1634	1634	1634	1634	1634	1634	1634	1626	1626	1626	1626	1626	1618	1611	1611	1618	1611	1611	1611	1611	1611	1611	1611	1611	0	0	0	0	0	0	0	0	0	0	0	0	0	0	0	0	0	0	0	0	0	0	0
0	0	0	0	0	0	0	0	0	0	0	0	0	0	0	0	0	0	0	0	0	0	0	0	0	1626	1626	1626	1626	1626	1618	1618	1626	1626	1626	1626	1626	1634	1634	1634	1634	1641	1641	1641	1641	1641	1641	1641	1641	1641	1641	1634	1634	1634	1634	1634	1634	1634	1634	1634	1634	1634	1634	1634	1634	1634	1634	1634	1634	1626	1626	1626	1626	1626	1634	1634	1634	1634	1641	1641	1641	1641	1641	1641	1641	1641	1641	1641	1641	1641	1641	1641	1641	1634	1634	1634	1634	1634	1634	1641	1641	1641	1641	1641	1641	1641	1641	1634	1634	1634	1634	1634	1634	1634	1634	1634	1634	1626	1626	1626	1634	1626	1626	1634	1634	1634	1634	1634	1634	1634	1634	1634	1634	1634	1634	1634	1634	1634	1634	1634	1634	1634	1634	1634	1634	1634	1634	1634	1634	1634	1634	1634	1634	1634	1641	1641	1641	1641	1641	1641	1641	1641	1641	1641	1641	1641	1641	1641	1641	1641	1641	1641	1641	1641	1641	1641	1641	1641	1641	1641	1641	1641	1641	1641	1641	1641	1649	1649	1657	1657	1657	1657	1657	1657	1657	1657	1649	1649	1657	1657	1657	1657	1657	1657	1657	1657	1657	1657	1657	1657	1657	1665	1657	1657	1657	1657	1657	1649	1649	1649	1649	1649	1657	1657	1657	1657	1657	1657	1657	1657	1657	1657	1657	1657	1657	1657	1649	1649	1649	1657	1657	1657	1657	1657	1657	1657	1657	1657	1657	1657	1657	1657	1657	1657	1657	1657	1657	1657	1657	1657	1657	1657	1657	1657	1657	1657	1657	1657	1657	1657	1657	1657	1657	1657	1657	1657	1665	1665	1665	1665	1665	1665	1665	1665	1665	1665	1665	1665	1665	1665	1665	1665	1665	1665	1665	1665	1665	1665	1665	1665	1673	1673	1673	1673	1673	1673	1673	1673	1673	1673	1673	1673	1673	1673	1673	1681	1681	1673	1673	1673	1673	1673	1673	1673	1673	1673	1673	1681	1681	1681	1681	1681	1681	1681	1673	1673	1681	1673	1673	1673	1673	1681	1681	1681	1681	1681	1681	1681	1673	1673	1673	1673	1673	1681	1681	1681	1681	1681	1681	1690	1690	1690	1681	1681	1681	1681	1681	1681	1681	1681	1681	1681	1681	1681	1681	1681	1681	1681	1681	1681	1681	1681	1681	1681	1681	1681	1673	1673	1681	1681	1681	1681	1681	1681	1681	1681	1681	1681	1681	1681	1681	1681	1681	1681	1681	1681	1681	1681	1681	1681	1681	1681	1681	1681	1681	1681	1681	1681	1690	1690	1690	1681	1673	1673	1673	1673	1673	1673	1673	1681	1681	1681	1681	1681	1681	1681	1681	1681	1681	1681	1681	1681	1681	1681	1681	1681	1681	1681	1681	1681	1681	1681	1681	1681	1690	1690	1690	1690	1690	1690	1690	1690	1690	1690	1690	1690	1698	1698	1698	1698	1698	1690	1690	1690	1690	1690	1698	1698	1698	1706	1706	1706	1706	1706	1706	1706	1706	1706	1698	1698	1698	1706	1706	1698	1698	1698	1706	1706	1706	1706	1706	1706	1706	1706	1706	1706	1706	1706	1706	1706	1706	1706	1698	1698	1706	1706	1706	1706	1706	1706	1706	1706	1706	1706	1706	1706	1706	1698	1698	1698	1698	1698	1698	1690	1690	1690	1690	1690	1690	1681	1681	1690	1690	1690	1681	1681	1690	1681	1681	1673	1673	1673	1673	1673	1673	1673	1673	1665	1665	1665	1665	1665	1665	1665	1665	1665	1665	1665	1657	1657	1657	1657	1657	1657	1657	1657	1657	1649	1649	1649	1641	1641	1641	1641	1641	1641	1641	1641	1634	1634	1634	1634	1634	1634	1634	1634	1634	1634	1634	1634	1626	1626	1626	1626	1626	1618	1611	1611	1618	1611	1611	1611	1611	1611	1611	1611	1611	0	0	0	0	0	0	0	0	0	0	0	0	0	0	0	0	0	0	0	0	0	0	0
0	0	0	0	0	0	0	0	0	0	0	0	0	0	0	0	0	0	0	0	0	0	0	0	0	1618	1618	1618	1618	1618	1618	1618	1618	1618	1618	1618	1626	1626	1626	1634	1634	1634	1634	1634	1634	1641	1641	1641	1634	1634	1634	1634	1634	1626	1626	1626	1626	1626	1626	1626	1626	1634	1634	1634	1634	1634	1626	1626	1626	1626	1626	1626	1626	1626	1626	1626	1626	1634	1634	1634	1641	1634	1634	1634	1634	1634	1641	1634	1634	1634	1634	1634	1634	1634	1634	1634	1634	1634	1634	1634	1634	1634	1634	1634	1634	1634	1634	1626	1626	1626	1634	1626	1626	1634	1634	1626	1626	1626	1626	1626	1626	1626	1626	1626	1626	1634	1634	1634	1634	1634	1634	1634	1634	1634	1634	1626	1626	1626	1626	1626	1626	1634	1634	1634	1634	1634	1634	1626	1626	1634	1634	1634	1634	1634	1634	1634	1634	1634	1634	1634	1634	1634	1634	1641	1641	1641	1641	1641	1641	1641	1641	1641	1641	1641	1641	1641	1641	1641	1641	1641	1641	1641	1641	1641	1641	1641	1641	1641	1649	1649	1649	1649	1649	1649	1649	1649	1649	1649	1649	1649	1649	1649	1649	1649	1649	1649	1649	1657	1657	1657	1657	1657	1657	1649	1649	1649	1649	1649	1649	1649	1649	1649	1649	1649	1649	1649	1649	1649	1649	1649	1649	1657	1649	1649	1649	1649	1649	1649	1649	1649	1657	1657	1657	1657	1657	1649	1649	1649	1649	1649	1649	1649	1649	1657	1657	1657	1657	1657	1657	1657	1657	1657	1657	1657	1657	1657	1657	1657	1657	1657	1657	1657	1657	1657	1657	1657	1657	1657	1657	1657	1657	1665	1665	1657	1657	1657	1665	1665	1665	1665	1665	1665	1665	1665	1665	1665	1665	1665	1665	1665	1665	1665	1665	1665	1665	1665	1665	1665	1665	1665	1665	1665	1665	1665	1665	1673	1673	1665	1665	1665	1665	1665	1665	1665	1665	1665	1665	1673	1673	1673	1673	1673	1673	1673	1673	1673	1673	1673	1673	1673	1673	1673	1673	1673	1673	1673	1673	1673	1673	1673	1673	1673	1673	1673	1673	1673	1673	1673	1673	1681	1681	1681	1681	1681	1681	1681	1681	1681	1673	1673	1673	1673	1673	1673	1673	1673	1673	1681	1681	1681	1681	1681	1681	1673	1673	1673	1673	1673	1673	1673	1673	1673	1673	1673	1673	1673	1673	1673	1673	1673	1673	1673	1673	1673	1673	1673	1673	1673	1673	1673	1673	1673	1673	1681	1681	1681	1681	1681	1681	1681	1681	1673	1673	1673	1673	1673	1673	1673	1673	1673	1673	1681	1681	1681	1681	1673	1673	1673	1673	1673	1681	1681	1681	1681	1681	1681	1681	1681	1673	1673	1681	1681	1681	1681	1681	1681	1681	1681	1681	1681	1681	1681	1681	1681	1681	1681	1690	1690	1690	1690	1690	1690	1690	1681	1681	1681	1690	1690	1690	1690	1698	1698	1698	1698	1698	1698	1706	1698	1698	1698	1698	1698	1698	1698	1698	1698	1698	1698	1698	1698	1706	1706	1706	1706	1706	1706	1706	1698	1698	1698	1698	1698	1690	1690	1698	1698	1706	1706	1706	1706	1706	1706	1706	1706	1706	1706	1706	1698	1698	1698	1698	1698	1698	1698	1690	1690	1698	1690	1690	1690	1690	1698	1690	1690	1690	1690	1690	1681	1681	1673	1673	1673	1673	1673	1673	1673	1673	1665	1665	1665	1665	1665	1665	1665	1665	1665	1665	1665	1657	1665	1657	1657	1657	1657	1657	1657	1657	1657	1649	1649	1641	1641	1641	1641	1641	1641	1641	1641	1641	1641	1634	1634	1634	1634	1634	1634	1634	1634	1634	1634	1626	1626	1626	1626	1626	1618	1618	1618	1618	1611	1611	1611	1611	1611	1611	1611	1611	0	0	0	0	0	0	0	0	0	0	0	0	0	0	0	0	0	0	0	0	0	0	0
0	0	0	0	0	0	0	0	0	0	0	0	0	0	0	0	0	0	0	0	0	0	0	0	0	1618	1618	1618	1611	1611	1611	1611	1611	1611	1611	1611	1611	1618	1618	1618	1618	1626	1618	1618	1618	1618	1618	1618	1626	1626	1626	1626	1626	1626	1626	1618	1618	1618	1618	1626	1626	1626	1626	1626	1626	1626	1626	1626	1626	1618	1618	1618	1618	1618	1618	1626	1626	1626	1634	1634	1634	1634	1634	1634	1634	1634	1634	1626	1626	1626	1626	1626	1626	1626	1626	1626	1626	1626	1626	1626	1626	1626	1626	1626	1626	1626	1626	1618	1618	1618	1618	1618	1618	1618	1618	1618	1618	1618	1626	1626	1626	1626	1626	1626	1626	1626	1626	1626	1626	1634	1634	1634	1626	1626	1626	1618	1618	1618	1618	1618	1618	1626	1626	1634	1634	1626	1626	1626	1626	1626	1626	1626	1626	1634	1634	1634	1634	1626	1626	1634	1634	1634	1634	1634	1634	1634	1634	1634	1641	1641	1641	1641	1641	1641	1641	1641	1641	1641	1641	1641	1634	1634	1634	1634	1641	1641	1641	1641	1641	1641	1641	1641	1641	1641	1641	1641	1641	1641	1641	1641	1641	1641	1641	1641	1641	1641	1641	1649	1649	1649	1657	1657	1649	1649	1641	1641	1649	1641	1641	1641	1649	1641	1641	1641	1641	1641	1641	1641	1641	1649	1649	1649	1649	1649	1649	1641	1641	1641	1641	1641	1649	1649	1649	1649	1649	1649	1641	1641	1641	1641	1641	1641	1649	1649	1649	1649	1649	1649	1649	1649	1649	1649	1657	1657	1657	1657	1657	1657	1657	1657	1657	1657	1657	1657	1657	1649	1649	1657	1657	1657	1657	1657	1657	1657	1657	1657	1657	1657	1657	1657	1657	1657	1657	1657	1657	1657	1657	1657	1657	1657	1657	1665	1665	1665	1665	1665	1665	1665	1665	1665	1665	1665	1665	1665	1665	1665	1665	1665	1665	1665	1657	1657	1657	1657	1665	1665	1665	1665	1665	1665	1665	1665	1665	1673	1665	1665	1665	1665	1673	1665	1665	1673	1673	1673	1673	1673	1673	1673	1673	1673	1665	1665	1665	1665	1665	1665	1665	1665	1665	1673	1673	1673	1673	1665	1665	1673	1673	1673	1673	1673	1673	1673	1673	1673	1665	1665	1673	1673	1673	1673	1673	1673	1673	1673	1673	1673	1673	1673	1673	1665	1665	1665	1665	1665	1665	1665	1665	1673	1673	1665	1665	1673	1673	1673	1673	1665	1665	1665	1665	1665	1673	1665	1665	1673	1673	1673	1673	1681	1681	1681	1681	1673	1665	1665	1665	1665	1665	1665	1673	1673	1673	1673	1673	1673	1673	1673	1673	1673	1673	1673	1673	1673	1673	1673	1673	1673	1673	1673	1673	1673	1673	1673	1673	1673	1681	1681	1681	1681	1681	1681	1681	1681	1681	1681	1681	1681	1681	1681	1681	1681	1681	1681	1681	1681	1681	1681	1681	1681	1681	1690	1690	1690	1690	1690	1690	1690	1698	1698	1690	1690	1690	1690	1690	1690	1690	1690	1698	1698	1698	1698	1698	1698	1698	1698	1698	1706	1698	1698	1698	1698	1698	1698	1690	1690	1690	1698	1698	1698	1706	1706	1706	1706	1698	1698	1698	1698	1698	1698	1698	1698	1698	1698	1698	1698	1698	1698	1698	1690	1690	1690	1690	1690	1690	1690	1681	1681	1690	1681	1681	1673	1673	1673	1673	1673	1673	1673	1673	1665	1665	1665	1665	1665	1665	1665	1665	1665	1665	1665	1665	1665	1665	1657	1657	1665	1665	1657	1657	1657	1657	1649	1649	1641	1641	1641	1641	1641	1641	1641	1641	1641	1641	1634	1634	1634	1634	1634	1634	1634	1641	1634	1634	1634	1634	1634	1634	1626	1618	1618	1618	1611	1611	1611	1611	1618	1618	1618	1618	0	0	0	0	0	0	0	0	0	0	0	0	0	0	0	0	0	0	0	0	0	0	0
0	0	0	0	0	0	0	0	0	0	0	0	0	0	0	0	0	0	0	0	0	0	0	0	0	1611	1611	1611	1611	1611	1611	1611	1611	1611	1611	1611	1611	1611	1618	1618	1618	1618	1618	1618	1618	1618	1618	1618	1618	1618	1618	1618	1618	1618	1618	1618	1618	1618	1618	1618	1618	1618	1618	1618	1618	1618	1618	1618	1618	1618	1618	1618	1618	1618	1618	1618	1618	1618	1618	1618	1618	1618	1618	1626	1626	1626	1626	1626	1618	1618	1618	1618	1618	1618	1618	1626	1618	1618	1618	1626	1626	1626	1618	1618	1626	1626	1618	1611	1611	1611	1611	1611	1611	1618	1618	1618	1618	1618	1618	1618	1626	1618	1618	1618	1618	1626	1626	1626	1626	1626	1626	1626	1618	1618	1618	1611	1611	1611	1611	1618	1618	1618	1618	1626	1626	1626	1626	1618	1618	1626	1626	1626	1626	1626	1626	1626	1626	1626	1626	1626	1626	1626	1626	1634	1634	1634	1634	1634	1634	1634	1634	1634	1634	1634	1634	1634	1634	1634	1634	1634	1634	1634	1634	1634	1634	1634	1634	1634	1634	1634	1634	1634	1634	1634	1634	1634	1634	1641	1641	1641	1641	1641	1641	1641	1641	1641	1641	1641	1641	1641	1649	1649	1641	1634	1634	1634	1634	1634	1634	1641	1641	1634	1634	1634	1634	1634	1634	1634	1634	1641	1641	1641	1641	1641	1641	1641	1641	1641	1641	1641	1641	1641	1641	1641	1641	1641	1641	1641	1641	1641	1641	1641	1641	1641	1641	1649	1649	1649	1649	1641	1641	1641	1649	1649	1649	1649	1649	1649	1657	1649	1649	1649	1649	1649	1649	1649	1649	1649	1649	1649	1657	1657	1657	1657	1657	1657	1657	1657	1657	1657	1657	1657	1657	1657	1657	1657	1657	1657	1657	1657	1657	1657	1657	1657	1657	1657	1657	1657	1657	1657	1665	1665	1665	1665	1665	1665	1665	1657	1657	1657	1657	1657	1657	1657	1657	1657	1657	1657	1657	1657	1657	1657	1665	1665	1665	1665	1665	1657	1657	1657	1657	1665	1665	1665	1665	1665	1665	1665	1665	1665	1665	1665	1665	1665	1665	1657	1657	1665	1665	1665	1665	1665	1665	1665	1665	1665	1665	1665	1665	1665	1665	1665	1665	1665	1665	1665	1665	1665	1665	1665	1665	1665	1665	1665	1665	1665	1665	1665	1665	1665	1665	1665	1665	1665	1665	1665	1665	1665	1665	1665	1665	1665	1673	1665	1665	1665	1665	1665	1657	1657	1665	1665	1665	1665	1665	1665	1673	1673	1673	1673	1673	1665	1665	1665	1665	1665	1665	1665	1665	1665	1665	1665	1665	1665	1673	1673	1665	1665	1673	1673	1673	1673	1673	1673	1673	1673	1673	1673	1673	1673	1673	1673	1673	1673	1673	1673	1673	1673	1673	1673	1673	1681	1673	1673	1681	1681	1681	1681	1681	1681	1681	1681	1681	1673	1673	1681	1681	1681	1681	1681	1681	1690	1690	1690	1690	1690	1690	1690	1681	1681	1681	1690	1690	1681	1681	1690	1690	1690	1690	1690	1690	1690	1690	1690	1690	1698	1690	1690	1690	1690	1690	1690	1690	1690	1690	1690	1698	1698	1698	1698	1698	1698	1698	1698	1698	1698	1698	1698	1698	1690	1690	1690	1698	1698	1690	1690	1690	1690	1690	1690	1690	1690	1690	1690	1681	1681	1681	1681	1681	1673	1673	1673	1673	1673	1673	1673	1673	1673	1673	1673	1673	1665	1665	1665	1665	1665	1665	1665	1665	1665	1665	1665	1665	1665	1665	1665	1657	1657	1657	1649	1649	1641	1641	1641	1641	1641	1641	1641	1641	1641	1641	1641	1641	1641	1641	1641	1641	1641	1641	1641	1634	1634	1634	1634	1634	1626	1626	1626	1626	1618	1618	1618	1618	1618	1618	1618	1618	0	0	0	0	0	0	0	0	0	0	0	0	0	0	0	0	0	0	0	0	0	0	0
0	0	0	0	0	0	0	0	0	0	0	0	0	0	0	0	0	0	0	0	0	0	0	0	0	1611	1611	1611	1611	1611	1611	1611	1611	1611	1611	1611	1611	1611	1611	1611	1611	1611	1611	1611	1611	1618	1618	1618	1618	1618	1618	1618	1618	1618	1618	1618	1618	1618	1618	1618	1618	1618	1618	1618	1618	1618	1618	1618	1618	1618	1618	1618	1618	1618	1618	1618	1618	1618	1618	1618	1618	1618	1618	1618	1618	1618	1618	1611	1611	1611	1611	1611	1611	1611	1611	1618	1618	1611	1611	1611	1611	1611	1611	1618	1618	1618	1618	1611	1611	1611	1611	1611	1611	1611	1611	1611	1611	1611	1611	1611	1618	1618	1618	1618	1618	1618	1611	1611	1611	1611	1618	1618	1611	1611	1611	1611	1611	1611	1611	1611	1611	1611	1618	1618	1618	1618	1618	1618	1618	1618	1618	1626	1626	1626	1626	1618	1618	1618	1618	1618	1626	1626	1626	1626	1626	1626	1626	1626	1626	1634	1634	1634	1634	1626	1626	1634	1634	1634	1634	1634	1634	1634	1634	1634	1634	1634	1634	1634	1634	1634	1634	1634	1634	1634	1634	1634	1634	1634	1641	1641	1641	1641	1641	1641	1641	1634	1634	1641	1641	1641	1641	1641	1634	1634	1634	1634	1634	1634	1634	1634	1634	1634	1634	1634	1634	1634	1634	1634	1634	1634	1634	1641	1634	1634	1634	1634	1634	1634	1634	1634	1634	1634	1634	1634	1634	1634	1634	1634	1634	1634	1634	1634	1634	1641	1641	1641	1641	1641	1641	1641	1641	1641	1641	1641	1641	1641	1641	1649	1649	1649	1649	1649	1649	1649	1649	1641	1641	1649	1649	1649	1649	1649	1657	1649	1649	1649	1649	1649	1649	1649	1649	1649	1649	1649	1649	1649	1649	1649	1657	1657	1657	1657	1657	1657	1657	1657	1657	1657	1657	1657	1657	1657	1657	1657	1657	1665	1665	1657	1657	1657	1657	1657	1657	1657	1657	1657	1657	1657	1657	1657	1657	1657	1657	1657	1657	1657	1657	1657	1657	1657	1657	1657	1657	1657	1657	1657	1657	1657	1657	1657	1657	1657	1657	1657	1657	1657	1657	1657	1657	1657	1657	1665	1657	1657	1657	1665	1665	1665	1665	1665	1665	1665	1657	1657	1657	1657	1657	1665	1665	1665	1665	1665	1665	1665	1665	1665	1665	1665	1657	1657	1657	1657	1657	1657	1657	1657	1657	1657	1657	1657	1657	1665	1665	1665	1665	1665	1665	1657	1657	1657	1657	1657	1657	1665	1665	1665	1665	1665	1665	1665	1665	1657	1657	1657	1657	1657	1665	1657	1657	1657	1657	1665	1665	1665	1665	1665	1665	1665	1665	1665	1665	1665	1665	1665	1665	1665	1665	1665	1665	1665	1665	1665	1665	1665	1665	1673	1673	1673	1673	1673	1673	1673	1673	1673	1673	1673	1673	1673	1673	1673	1673	1673	1673	1673	1673	1673	1673	1673	1673	1681	1681	1681	1681	1681	1681	1681	1681	1681	1681	1681	1681	1681	1681	1681	1681	1681	1681	1681	1681	1681	1681	1690	1690	1690	1690	1690	1681	1681	1681	1681	1681	1681	1681	1681	1690	1690	1690	1698	1690	1690	1698	1698	1698	1690	1690	1690	1690	1690	1681	1681	1681	1681	1690	1690	1690	1690	1690	1690	1681	1681	1681	1690	1681	1681	1681	1681	1681	1681	1681	1673	1673	1673	1673	1673	1673	1673	1673	1673	1673	1673	1673	1673	1673	1665	1665	1665	1665	1665	1665	1665	1665	1665	1665	1665	1665	1665	1665	1657	1657	1657	1649	1649	1641	1641	1641	1641	1641	1641	1641	1641	1641	1641	1641	1641	1641	1641	1641	1641	1641	1641	1634	1634	1634	1634	1634	1634	1626	1626	1626	1618	1618	1618	1618	1618	1618	1618	1618	0	0	0	0	0	0	0	0	0	0	0	0	0	0	0	0	0	0	0	0	0	0	0
0	0	0	0	0	0	0	0	0	0	0	0	0	0	0	0	0	0	0	0	0	0	0	0	0	1611	1611	1611	1603	1603	1603	1603	1603	1603	1603	1603	1603	1603	1611	1611	1611	1611	1611	1611	1611	1611	1611	1611	1611	1618	1618	1618	1618	1618	1618	1611	1611	1611	1611	1611	1611	1611	1611	1611	1611	1611	1611	1611	1611	1611	1611	1611	1611	1611	1611	1611	1611	1611	1611	1611	1611	1611	1611	1611	1611	1611	1611	1611	1611	1611	1611	1611	1611	1611	1611	1611	1611	1611	1611	1611	1611	1611	1611	1611	1611	1611	1611	1603	1603	1603	1603	1603	1603	1611	1603	1603	1603	1603	1603	1603	1603	1603	1603	1611	1611	1611	1603	1603	1603	1611	1611	1611	1603	1603	1603	1603	1603	1603	1603	1603	1603	1603	1611	1611	1611	1611	1611	1611	1611	1611	1611	1611	1611	1611	1611	1611	1611	1611	1611	1611	1611	1611	1611	1618	1618	1618	1618	1618	1618	1618	1626	1626	1626	1618	1618	1626	1626	1626	1626	1626	1626	1626	1626	1626	1626	1634	1626	1626	1634	1626	1626	1626	1626	1626	1626	1626	1634	1634	1634	1634	1634	1634	1634	1634	1634	1634	1634	1634	1634	1634	1634	1634	1626	1626	1626	1626	1626	1626	1634	1634	1634	1634	1634	1634	1634	1626	1626	1626	1626	1634	1634	1634	1634	1634	1634	1634	1634	1634	1626	1626	1634	1634	1634	1634	1626	1626	1634	1634	1634	1634	1634	1634	1634	1634	1634	1634	1634	1634	1634	1634	1634	1634	1634	1634	1634	1634	1634	1641	1641	1641	1641	1641	1641	1641	1641	1641	1641	1641	1641	1641	1641	1641	1641	1641	1641	1641	1641	1641	1641	1641	1641	1641	1641	1641	1641	1641	1641	1649	1649	1649	1649	1657	1657	1657	1657	1657	1649	1649	1649	1657	1657	1657	1657	1657	1657	1657	1657	1649	1649	1649	1649	1649	1649	1649	1649	1649	1649	1657	1657	1657	1657	1657	1657	1657	1657	1657	1657	1657	1657	1657	1657	1657	1657	1657	1657	1657	1657	1657	1657	1657	1657	1657	1657	1657	1657	1657	1657	1657	1657	1657	1657	1657	1657	1657	1657	1657	1657	1657	1657	1657	1657	1657	1657	1657	1657	1657	1657	1657	1657	1657	1657	1657	1657	1657	1657	1657	1657	1657	1657	1657	1657	1657	1657	1657	1657	1657	1657	1657	1657	1657	1657	1657	1657	1657	1657	1657	1657	1657	1657	1657	1657	1657	1657	1657	1657	1657	1657	1657	1657	1657	1657	1649	1649	1657	1657	1657	1657	1657	1657	1657	1657	1657	1657	1657	1657	1657	1657	1657	1657	1657	1657	1665	1665	1665	1665	1665	1665	1665	1657	1657	1665	1665	1665	1665	1665	1665	1665	1665	1665	1665	1665	1673	1665	1665	1665	1673	1665	1665	1665	1665	1673	1673	1673	1673	1673	1673	1673	1673	1673	1673	1673	1673	1673	1673	1673	1681	1681	1681	1673	1673	1673	1673	1681	1681	1681	1681	1681	1681	1681	1681	1681	1681	1681	1681	1681	1681	1681	1681	1681	1681	1681	1681	1681	1681	1681	1690	1690	1690	1690	1690	1690	1690	1690	1690	1690	1690	1690	1681	1681	1681	1673	1673	1681	1681	1681	1681	1681	1681	1681	1681	1681	1681	1681	1681	1681	1681	1681	1681	1681	1673	1673	1673	1673	1673	1673	1673	1673	1673	1673	1673	1673	1673	1673	1673	1673	1665	1665	1665	1665	1665	1665	1665	1665	1665	1665	1665	1665	1665	1657	1657	1657	1649	1649	1649	1641	1641	1641	1641	1641	1641	1641	1641	1641	1641	1641	1641	1641	1641	1641	1641	1634	1634	1634	1634	1634	1634	1626	1626	1626	1626	1626	1618	1618	1626	1626	1626	1626	0	0	0	0	0	0	0	0	0	0	0	0	0	0	0	0	0	0	0	0	0	0	0
0	0	0	0	0	0	0	0	0	0	0	0	0	0	0	0	0	0	0	0	0	0	0	0	0	1611	1603	1603	1603	1603	1603	1603	1603	1596	1596	1596	1596	1603	1603	1603	1603	1603	1603	1603	1603	1611	1611	1611	1611	1611	1611	1611	1611	1611	1611	1611	1603	1603	1611	1611	1611	1611	1611	1611	1611	1611	1611	1611	1611	1611	1611	1611	1611	1611	1611	1603	1603	1596	1596	1603	1596	1596	1603	1603	1603	1603	1596	1596	1603	1603	1603	1603	1611	1611	1611	1611	1611	1603	1603	1611	1611	1611	1611	1611	1611	1611	1611	1603	1603	1603	1603	1603	1603	1603	1603	1603	1603	1603	1603	1603	1596	1596	1603	1603	1603	1603	1603	1603	1603	1603	1603	1603	1603	1603	1603	1603	1603	1603	1603	1603	1603	1603	1603	1603	1611	1603	1603	1603	1603	1611	1611	1603	1603	1611	1611	1611	1611	1611	1611	1611	1611	1611	1611	1611	1611	1611	1611	1611	1611	1611	1611	1618	1611	1611	1611	1611	1611	1618	1618	1618	1618	1618	1618	1618	1618	1618	1626	1626	1626	1626	1626	1626	1626	1618	1618	1618	1618	1626	1626	1626	1626	1626	1626	1626	1626	1626	1626	1626	1626	1626	1626	1626	1626	1626	1626	1626	1626	1626	1626	1626	1626	1626	1626	1626	1626	1626	1626	1626	1626	1626	1626	1634	1626	1626	1626	1626	1626	1626	1626	1626	1626	1626	1626	1626	1626	1626	1626	1626	1626	1626	1634	1634	1634	1634	1634	1634	1634	1634	1634	1634	1634	1634	1634	1634	1634	1634	1634	1634	1634	1634	1634	1634	1634	1634	1634	1634	1634	1634	1634	1634	1634	1634	1634	1641	1634	1634	1641	1641	1641	1641	1634	1634	1634	1641	1641	1641	1641	1641	1649	1649	1649	1649	1649	1649	1649	1649	1649	1649	1649	1649	1649	1649	1649	1649	1657	1657	1657	1649	1649	1649	1649	1649	1649	1649	1649	1649	1649	1649	1649	1649	1649	1649	1649	1649	1649	1649	1649	1649	1649	1649	1649	1649	1649	1649	1649	1649	1649	1649	1649	1657	1657	1657	1657	1649	1649	1649	1649	1649	1649	1657	1657	1657	1657	1657	1657	1657	1657	1657	1657	1657	1657	1657	1657	1657	1657	1657	1657	1657	1657	1657	1657	1657	1657	1657	1657	1657	1657	1649	1649	1649	1649	1649	1657	1657	1657	1657	1657	1657	1657	1657	1657	1657	1657	1657	1657	1649	1649	1649	1649	1657	1657	1657	1657	1657	1657	1657	1657	1657	1657	1657	1657	1649	1649	1649	1649	1649	1649	1649	1649	1649	1649	1657	1657	1657	1657	1649	1649	1649	1649	1649	1649	1657	1657	1657	1657	1657	1657	1657	1649	1649	1657	1657	1657	1657	1657	1657	1657	1657	1665	1665	1665	1665	1657	1657	1665	1665	1665	1657	1657	1665	1665	1665	1665	1665	1665	1673	1673	1673	1673	1673	1673	1673	1673	1673	1673	1673	1673	1673	1673	1673	1673	1673	1673	1673	1673	1673	1681	1681	1681	1673	1673	1673	1681	1681	1681	1681	1681	1681	1681	1681	1681	1681	1681	1681	1681	1681	1681	1681	1681	1681	1681	1681	1681	1681	1681	1681	1681	1673	1673	1673	1673	1673	1673	1681	1673	1673	1673	1681	1673	1673	1673	1673	1681	1673	1673	1673	1673	1673	1673	1673	1673	1673	1673	1673	1673	1673	1673	1673	1673	1673	1673	1665	1665	1665	1665	1665	1665	1665	1665	1665	1665	1665	1665	1665	1665	1665	1665	1665	1665	1665	1665	1657	1657	1649	1649	1649	1649	1641	1641	1641	1641	1641	1641	1641	1641	1641	1641	1641	1641	1641	1641	1634	1634	1634	1634	1634	1634	1634	1634	1626	1626	1626	1626	1626	1626	1626	1626	0	0	0	0	0	0	0	0	0	0	0	0	0	0	0	0	0	0	0	0	0	0	0
0	0	0	0	0	0	0	0	0	0	0	0	0	0	0	0	0	0	0	0	0	0	0	0	0	1603	1603	1603	1603	1596	1596	1596	1596	1596	1596	1596	1596	1596	1603	1596	1596	1603	1603	1603	1603	1603	1603	1603	1603	1603	1603	1596	1596	1596	1603	1603	1603	1603	1603	1603	1603	1603	1603	1603	1603	1603	1603	1603	1603	1603	1603	1603	1603	1603	1603	1603	1596	1596	1596	1596	1596	1596	1596	1596	1596	1596	1596	1596	1596	1596	1596	1596	1596	1603	1603	1603	1603	1603	1603	1603	1603	1603	1603	1603	1603	1603	1603	1603	1603	1603	1596	1596	1603	1603	1596	1596	1596	1596	1596	1596	1589	1589	1596	1603	1603	1603	1603	1603	1603	1603	1603	1603	1596	1596	1603	1603	1603	1603	1603	1603	1603	1603	1603	1603	1603	1603	1603	1603	1603	1603	1603	1603	1603	1603	1603	1603	1603	1603	1603	1603	1603	1603	1603	1603	1603	1603	1603	1611	1611	1611	1611	1611	1611	1611	1611	1611	1611	1611	1611	1611	1611	1618	1618	1618	1618	1618	1618	1618	1618	1618	1618	1618	1618	1618	1618	1618	1618	1618	1618	1626	1626	1626	1626	1626	1626	1626	1626	1618	1618	1618	1626	1626	1618	1618	1618	1618	1618	1618	1618	1618	1626	1626	1626	1626	1626	1626	1618	1618	1618	1618	1618	1626	1626	1626	1626	1618	1618	1618	1618	1618	1618	1618	1618	1618	1618	1618	1618	1618	1618	1618	1618	1626	1626	1626	1626	1626	1626	1626	1626	1626	1626	1626	1626	1626	1626	1626	1626	1626	1626	1626	1626	1626	1626	1626	1626	1626	1626	1626	1626	1626	1626	1626	1626	1626	1626	1626	1634	1634	1634	1634	1634	1634	1634	1634	1634	1634	1641	1641	1641	1641	1641	1641	1641	1641	1641	1641	1641	1641	1641	1641	1641	1641	1649	1649	1649	1649	1649	1641	1641	1641	1641	1641	1641	1641	1641	1641	1641	1641	1649	1649	1649	1649	1649	1649	1649	1649	1649	1649	1649	1649	1649	1649	1649	1649	1649	1649	1649	1649	1649	1649	1649	1649	1649	1649	1649	1649	1649	1649	1649	1649	1649	1649	1649	1649	1649	1657	1657	1657	1657	1657	1657	1657	1649	1649	1649	1649	1649	1649	1649	1649	1649	1649	1657	1649	1649	1649	1649	1649	1649	1649	1649	1649	1649	1649	1649	1649	1649	1649	1649	1649	1649	1649	1649	1649	1649	1649	1649	1649	1649	1649	1649	1649	1649	1649	1649	1649	1649	1649	1649	1657	1657	1641	1641	1649	1649	1649	1649	1641	1641	1649	1649	1649	1649	1649	1649	1649	1649	1649	1649	1649	1649	1649	1649	1649	1649	1649	1649	1649	1649	1649	1649	1649	1649	1649	1649	1657	1657	1657	1657	1657	1657	1657	1649	1649	1657	1657	1657	1657	1657	1657	1665	1665	1665	1665	1665	1665	1665	1665	1665	1665	1673	1665	1665	1673	1673	1673	1673	1673	1673	1673	1673	1665	1665	1673	1673	1673	1673	1673	1673	1673	1673	1673	1673	1673	1673	1673	1673	1673	1673	1673	1673	1673	1673	1673	1673	1673	1673	1681	1681	1681	1681	1681	1681	1681	1681	1673	1673	1673	1673	1665	1665	1673	1673	1673	1673	1673	1673	1673	1673	1673	1673	1673	1673	1673	1673	1673	1673	1673	1673	1673	1673	1673	1673	1673	1673	1673	1673	1673	1673	1673	1673	1665	1665	1665	1665	1665	1665	1673	1673	1665	1665	1665	1665	1665	1665	1665	1665	1665	1665	1657	1657	1657	1657	1657	1649	1649	1649	1649	1641	1641	1641	1641	1641	1641	1641	1641	1641	1641	1641	1641	1641	1641	1641	1641	1634	1634	1634	1634	1634	1634	1634	1634	1634	1634	1626	1626	1626	0	0	0	0	0	0	0	0	0	0	0	0	0	0	0	0	0	0	0	0	0	0	0
0	0	0	0	0	0	0	0	0	0	0	0	0	0	0	0	0	0	0	0	0	0	0	0	0	1596	1596	1596	1596	1596	1589	1589	1589	1589	1589	1589	1589	1596	1596	1596	1596	1596	1596	1596	1596	1596	1596	1596	1596	1596	1596	1589	1589	1589	1596	1589	1589	1589	1589	1596	1596	1596	1596	1596	1603	1603	1596	1596	1596	1596	1596	1596	1596	1596	1596	1596	1589	1589	1589	1596	1589	1589	1596	1596	1589	1589	1589	1589	1589	1589	1589	1596	1596	1596	1596	1596	1596	1596	1596	1596	1596	1596	1596	1603	1596	1596	1596	1596	1596	1596	1596	1589	1596	1596	1589	1589	1589	1589	1589	1589	1589	1589	1589	1596	1596	1596	1596	1596	1596	1596	1596	1596	1596	1596	1596	1603	1596	1596	1596	1596	1596	1596	1596	1596	1596	1603	1603	1603	1603	1603	1603	1603	1603	1603	1603	1603	1603	1603	1603	1603	1603	1603	1603	1603	1603	1603	1603	1603	1603	1611	1603	1603	1611	1603	1603	1611	1611	1611	1611	1611	1611	1611	1611	1611	1611	1611	1618	1611	1611	1611	1611	1611	1611	1611	1611	1611	1611	1611	1618	1618	1618	1618	1618	1618	1618	1618	1618	1618	1618	1618	1618	1618	1611	1611	1618	1618	1618	1618	1618	1618	1618	1618	1618	1618	1618	1618	1611	1611	1611	1611	1618	1618	1618	1618	1618	1618	1611	1611	1611	1611	1611	1611	1618	1618	1618	1618	1618	1618	1618	1618	1618	1618	1626	1626	1626	1626	1626	1626	1626	1618	1618	1618	1618	1618	1618	1618	1618	1626	1626	1626	1626	1626	1626	1626	1626	1626	1626	1626	1626	1626	1626	1626	1626	1618	1618	1618	1618	1618	1618	1626	1626	1626	1626	1626	1626	1634	1634	1634	1634	1634	1634	1634	1634	1634	1634	1634	1634	1634	1634	1634	1634	1634	1634	1634	1634	1634	1634	1634	1634	1634	1634	1634	1634	1634	1634	1634	1634	1634	1634	1634	1634	1634	1641	1641	1641	1641	1641	1641	1641	1641	1641	1641	1641	1641	1641	1641	1641	1641	1641	1641	1641	1641	1641	1641	1641	1641	1641	1641	1641	1641	1641	1641	1641	1641	1641	1641	1641	1641	1649	1649	1649	1649	1649	1649	1649	1649	1649	1649	1649	1649	1649	1649	1649	1649	1641	1641	1641	1641	1641	1641	1641	1649	1649	1649	1649	1649	1649	1649	1649	1649	1649	1641	1641	1641	1641	1641	1641	1641	1649	1649	1649	1649	1649	1649	1649	1649	1649	1649	1649	1649	1649	1641	1641	1641	1641	1641	1641	1641	1641	1641	1649	1649	1649	1649	1649	1649	1649	1649	1641	1641	1649	1649	1649	1649	1649	1649	1649	1649	1649	1649	1649	1649	1649	1649	1649	1649	1649	1649	1649	1649	1649	1649	1649	1649	1657	1657	1657	1657	1657	1657	1657	1665	1657	1657	1665	1665	1665	1665	1665	1665	1665	1657	1657	1665	1665	1665	1665	1665	1665	1665	1665	1657	1657	1657	1665	1665	1665	1673	1673	1673	1673	1673	1673	1665	1665	1673	1673	1673	1665	1665	1673	1673	1673	1673	1673	1673	1673	1673	1673	1673	1673	1673	1673	1673	1673	1673	1673	1665	1665	1665	1665	1665	1665	1665	1673	1665	1673	1665	1665	1665	1665	1665	1665	1665	1665	1673	1673	1673	1673	1673	1673	1673	1673	1673	1673	1673	1673	1673	1673	1673	1665	1665	1665	1665	1665	1665	1665	1665	1665	1665	1665	1665	1665	1665	1665	1665	1665	1665	1665	1657	1657	1657	1657	1657	1649	1649	1649	1649	1649	1649	1641	1641	1641	1641	1641	1641	1641	1641	1641	1641	1641	1641	1641	1641	1634	1634	1634	1634	1634	1634	1634	1634	1634	1634	1626	1626	1626	0	0	0	0	0	0	0	0	0	0	0	0	0	0	0	0	0	0	0	0	0	0	0
0	0	0	0	0	0	0	0	0	0	0	0	0	0	0	0	0	0	0	0	0	0	0	0	0	1596	1596	1596	1589	1589	1589	1589	1589	1589	1589	1589	1589	1589	1589	1589	1589	1589	1589	1589	1589	1589	1589	1589	1589	1589	1589	1589	1589	1589	1589	1589	1589	1589	1589	1589	1589	1596	1589	1589	1589	1596	1589	1589	1589	1589	1589	1596	1589	1589	1589	1589	1589	1589	1589	1589	1589	1589	1589	1589	1589	1589	1589	1589	1589	1589	1589	1589	1589	1596	1589	1589	1589	1589	1589	1589	1589	1596	1596	1596	1596	1596	1596	1589	1589	1589	1589	1581	1581	1581	1581	1581	1581	1581	1581	1581	1581	1581	1581	1589	1589	1589	1596	1596	1596	1596	1596	1596	1596	1596	1596	1596	1596	1596	1596	1596	1596	1596	1596	1596	1596	1596	1596	1596	1596	1603	1596	1596	1596	1596	1596	1603	1603	1603	1603	1603	1603	1603	1603	1603	1603	1603	1603	1603	1603	1603	1603	1603	1603	1603	1603	1603	1603	1603	1603	1603	1603	1603	1603	1603	1611	1611	1611	1611	1611	1611	1611	1611	1611	1611	1611	1611	1611	1611	1611	1611	1611	1611	1611	1618	1611	1611	1611	1611	1611	1611	1611	1618	1611	1611	1611	1611	1611	1611	1611	1611	1611	1611	1611	1611	1611	1611	1611	1611	1611	1611	1611	1611	1611	1611	1611	1611	1611	1611	1611	1611	1611	1611	1611	1611	1611	1611	1611	1611	1611	1611	1611	1618	1618	1618	1618	1618	1618	1618	1618	1611	1611	1611	1611	1611	1618	1618	1618	1618	1626	1618	1618	1618	1618	1618	1618	1618	1626	1626	1626	1626	1618	1618	1618	1618	1618	1618	1618	1618	1618	1626	1626	1626	1626	1626	1626	1626	1626	1626	1626	1626	1634	1626	1626	1626	1626	1626	1626	1626	1626	1634	1634	1634	1634	1634	1634	1634	1634	1626	1626	1626	1626	1626	1626	1626	1626	1626	1626	1626	1626	1626	1634	1634	1634	1634	1634	1634	1634	1634	1641	1641	1641	1641	1634	1634	1634	1634	1634	1641	1641	1641	1641	1641	1641	1641	1641	1634	1634	1634	1634	1634	1634	1634	1634	1634	1634	1634	1634	1634	1641	1641	1641	1641	1641	1634	1634	1634	1634	1634	1634	1634	1634	1634	1634	1634	1634	1634	1634	1634	1626	1626	1634	1634	1634	1634	1641	1641	1641	1641	1634	1634	1634	1634	1634	1634	1634	1634	1634	1634	1641	1641	1641	1641	1641	1641	1641	1641	1641	1641	1641	1641	1641	1634	1634	1634	1634	1634	1634	1634	1634	1634	1641	1641	1641	1641	1641	1641	1634	1634	1634	1634	1634	1634	1634	1634	1634	1641	1641	1641	1641	1641	1641	1641	1649	1649	1641	1641	1641	1641	1641	1641	1641	1641	1641	1649	1649	1649	1649	1649	1649	1649	1649	1649	1649	1649	1657	1657	1657	1657	1657	1657	1657	1649	1649	1657	1657	1649	1649	1657	1657	1657	1657	1649	1649	1657	1657	1657	1665	1665	1665	1665	1665	1665	1665	1665	1665	1665	1665	1665	1665	1665	1665	1665	1665	1665	1665	1665	1665	1673	1673	1673	1673	1673	1673	1665	1665	1665	1665	1657	1657	1657	1665	1665	1665	1665	1665	1665	1665	1665	1665	1665	1665	1665	1665	1665	1665	1665	1665	1665	1665	1665	1665	1665	1665	1665	1665	1665	1665	1665	1673	1665	1665	1665	1665	1665	1665	1665	1665	1665	1665	1665	1665	1665	1665	1665	1665	1665	1665	1665	1665	1665	1665	1665	1657	1657	1649	1649	1649	1649	1649	1649	1649	1649	1649	1649	1649	1641	1641	1641	1641	1641	1641	1641	1641	1641	1634	1634	1634	1634	1634	1634	1634	1634	1634	1634	1626	1626	1626	0	0	0	0	0	0	0	0	0	0	0	0	0	0	0	0	0	0	0	0	0	0	0
0	0	0	0	0	0	0	0	0	0	0	0	0	0	0	0	0	0	0	0	0	0	0	0	0	1589	1589	1589	1589	1581	1581	1581	1589	1581	1581	1581	1581	1589	1581	1581	1581	1581	1589	1589	1589	1589	1589	1589	1589	1589	1581	1581	1581	1581	1581	1581	1581	1581	1581	1589	1589	1589	1589	1589	1589	1589	1589	1589	1589	1589	1589	1589	1589	1589	1589	1589	1581	1581	1581	1581	1589	1589	1589	1589	1589	1589	1589	1589	1589	1589	1589	1589	1589	1589	1589	1589	1589	1589	1589	1589	1589	1589	1589	1589	1589	1589	1589	1581	1581	1581	1581	1581	1581	1581	1581	1581	1581	1581	1574	1574	1574	1581	1581	1581	1581	1581	1589	1589	1589	1596	1589	1589	1589	1589	1589	1596	1589	1589	1589	1589	1589	1589	1589	1589	1589	1596	1596	1596	1596	1596	1596	1596	1596	1596	1596	1596	1596	1596	1596	1596	1596	1596	1596	1596	1596	1596	1596	1603	1603	1603	1603	1603	1603	1603	1603	1603	1603	1603	1603	1603	1603	1603	1603	1603	1603	1603	1603	1603	1603	1603	1603	1603	1611	1603	1603	1603	1603	1603	1603	1603	1603	1611	1611	1611	1611	1611	1611	1611	1611	1611	1611	1611	1603	1603	1603	1603	1603	1603	1603	1603	1603	1611	1603	1603	1603	1603	1603	1603	1603	1603	1603	1603	1603	1603	1603	1603	1603	1603	1603	1603	1603	1603	1611	1611	1611	1611	1611	1611	1603	1603	1603	1611	1611	1611	1611	1611	1611	1611	1611	1611	1603	1603	1611	1611	1611	1611	1611	1611	1611	1611	1611	1611	1611	1611	1611	1611	1618	1618	1618	1618	1611	1611	1618	1611	1611	1611	1611	1611	1618	1618	1618	1618	1618	1618	1626	1626	1626	1626	1626	1626	1626	1626	1626	1626	1626	1626	1626	1626	1626	1626	1626	1626	1634	1634	1634	1634	1634	1626	1626	1626	1626	1626	1626	1626	1626	1626	1626	1626	1626	1626	1626	1626	1626	1626	1626	1634	1634	1634	1634	1634	1634	1634	1634	1634	1626	1626	1634	1634	1634	1634	1634	1634	1634	1634	1634	1626	1626	1626	1626	1626	1626	1626	1626	1626	1626	1626	1626	1634	1634	1634	1634	1634	1634	1626	1626	1626	1626	1626	1626	1626	1626	1634	1626	1626	1626	1626	1626	1626	1626	1626	1626	1626	1634	1634	1634	1634	1634	1634	1634	1634	1634	1634	1634	1626	1626	1626	1626	1634	1634	1634	1634	1634	1641	1641	1634	1634	1634	1641	1641	1634	1634	1626	1626	1626	1626	1626	1626	1626	1626	1634	1634	1634	1634	1634	1634	1634	1634	1634	1634	1634	1634	1634	1634	1634	1634	1641	1641	1641	1641	1641	1641	1641	1641	1641	1641	1641	1641	1641	1634	1634	1634	1641	1641	1641	1649	1649	1649	1649	1641	1641	1641	1641	1641	1641	1641	1649	1649	1649	1649	1649	1649	1649	1649	1649	1649	1649	1649	1649	1649	1649	1649	1649	1649	1649	1649	1649	1649	1649	1657	1657	1657	1657	1657	1657	1657	1657	1657	1657	1657	1657	1657	1657	1657	1657	1657	1657	1657	1657	1657	1657	1657	1657	1657	1657	1657	1657	1657	1649	1649	1649	1649	1649	1649	1649	1649	1657	1649	1649	1649	1649	1649	1649	1649	1649	1649	1657	1657	1657	1657	1657	1657	1657	1657	1657	1657	1657	1657	1665	1665	1657	1649	1649	1657	1657	1657	1665	1665	1665	1665	1665	1665	1665	1665	1665	1665	1673	1673	1673	1665	1665	1665	1665	1665	1657	1649	1649	1657	1649	1649	1649	1649	1649	1649	1649	1649	1649	1649	1649	1649	1641	1641	1641	1634	1634	1641	1641	1641	1634	1634	1634	1634	1641	1634	1634	1626	1626	1626	0	0	0	0	0	0	0	0	0	0	0	0	0	0	0	0	0	0	0	0	0	0	0
0	0	0	0	0	0	0	0	0	0	0	0	0	0	0	0	0	0	0	0	0	0	0	0	0	1581	1581	1581	1581	1581	1574	1574	1581	1581	1581	1581	1581	1581	1581	1581	1581	1581	1581	1581	1581	1581	1581	1581	1581	1581	1581	1581	1581	1581	1581	1581	1581	1581	1581	1581	1581	1581	1581	1581	1581	1581	1581	1581	1581	1581	1581	1589	1581	1581	1581	1581	1581	1581	1581	1581	1581	1581	1581	1581	1581	1581	1581	1581	1581	1581	1581	1581	1581	1589	1581	1581	1581	1581	1581	1589	1589	1589	1589	1589	1589	1589	1589	1581	1581	1581	1581	1581	1581	1574	1574	1574	1581	1574	1574	1574	1574	1581	1581	1581	1581	1581	1581	1589	1589	1589	1589	1581	1581	1581	1589	1589	1589	1589	1581	1581	1581	1581	1581	1581	1581	1589	1589	1589	1589	1589	1589	1589	1589	1589	1589	1589	1589	1589	1589	1589	1589	1589	1589	1589	1589	1589	1596	1596	1596	1596	1596	1596	1596	1596	1596	1596	1596	1596	1596	1596	1596	1596	1596	1596	1603	1603	1603	1603	1603	1603	1603	1603	1603	1603	1603	1603	1603	1603	1603	1603	1603	1603	1603	1603	1603	1603	1603	1603	1603	1603	1603	1603	1596	1596	1596	1596	1603	1603	1603	1603	1603	1603	1603	1603	1603	1603	1603	1603	1603	1603	1603	1603	1603	1603	1603	1603	1603	1603	1603	1603	1603	1603	1603	1603	1603	1603	1603	1603	1603	1603	1603	1603	1603	1603	1603	1611	1611	1611	1611	1611	1603	1603	1603	1603	1603	1603	1611	1611	1611	1611	1611	1603	1603	1603	1603	1603	1611	1611	1611	1611	1611	1611	1611	1611	1603	1611	1611	1611	1611	1618	1618	1618	1618	1618	1618	1618	1618	1618	1618	1618	1626	1626	1626	1626	1626	1626	1626	1626	1626	1626	1626	1626	1626	1626	1626	1626	1626	1618	1618	1618	1618	1618	1618	1618	1618	1618	1618	1618	1618	1618	1626	1626	1626	1626	1626	1626	1626	1626	1626	1626	1626	1626	1626	1626	1626	1626	1626	1626	1626	1634	1634	1626	1626	1626	1626	1626	1626	1626	1626	1626	1626	1626	1626	1626	1626	1626	1626	1626	1626	1626	1626	1626	1634	1626	1626	1626	1626	1626	1626	1626	1626	1626	1626	1626	1626	1626	1626	1626	1626	1626	1626	1626	1626	1626	1626	1626	1626	1626	1626	1626	1626	1626	1626	1626	1626	1626	1626	1626	1626	1626	1626	1634	1634	1634	1634	1634	1634	1634	1634	1634	1626	1626	1618	1618	1618	1618	1626	1626	1626	1626	1626	1626	1634	1634	1634	1634	1626	1626	1626	1626	1626	1626	1626	1634	1634	1641	1641	1641	1641	1641	1641	1641	1641	1641	1634	1634	1634	1634	1634	1634	1634	1634	1641	1641	1641	1641	1641	1641	1641	1641	1641	1641	1641	1641	1641	1641	1641	1641	1641	1641	1641	1641	1641	1641	1641	1641	1641	1641	1649	1649	1649	1641	1641	1649	1649	1649	1649	1649	1649	1649	1649	1649	1649	1649	1649	1649	1649	1649	1657	1657	1657	1649	1649	1657	1657	1657	1657	1657	1657	1657	1657	1649	1649	1649	1649	1649	1649	1641	1641	1641	1649	1649	1641	1641	1649	1649	1649	1641	1641	1641	1649	1641	1641	1641	1641	1649	1649	1649	1649	1649	1657	1657	1657	1657	1657	1657	1657	1657	1657	1657	1649	1649	1657	1657	1657	1657	1657	1657	1657	1665	1665	1665	1665	1665	1665	1665	1673	1673	1665	1665	1665	1665	1657	1657	1657	1657	1657	1649	1649	1649	1649	1649	1649	1649	1649	1649	1649	1649	1649	1649	1649	1641	1634	1634	1649	1641	1641	1641	1641	1634	1634	1634	1634	1634	1634	1634	1634	0	0	0	0	0	0	0	0	0	0	0	0	0	0	0	0	0	0	0	0	0	0	0
0	0	0	0	0	0	0	0	0	0	0	0	0	0	0	0	0	0	0	0	0	0	0	0	0	1581	1581	1574	1574	1574	1574	1574	1574	1574	1574	1574	1574	1581	1574	1574	1574	1581	1581	1581	1581	1581	1581	1581	1581	1581	1581	1581	1581	1581	1581	1581	1581	1581	1581	1581	1581	1574	1574	1574	1574	1574	1574	1574	1581	1581	1581	1581	1581	1581	1581	1581	1581	1581	1581	1581	1581	1581	1581	1581	1581	1581	1581	1581	1581	1581	1581	1581	1581	1581	1581	1581	1581	1581	1581	1581	1581	1581	1581	1581	1581	1581	1589	1581	1574	1574	1581	1581	1581	1574	1574	1574	1574	1574	1574	1574	1574	1574	1574	1574	1574	1574	1581	1581	1581	1581	1581	1574	1574	1581	1581	1581	1581	1581	1581	1581	1581	1581	1581	1581	1581	1581	1581	1581	1581	1581	1581	1581	1581	1581	1581	1589	1589	1589	1589	1589	1589	1589	1589	1589	1589	1589	1589	1589	1589	1596	1589	1589	1596	1596	1596	1596	1589	1589	1589	1589	1589	1589	1589	1589	1596	1596	1596	1596	1596	1596	1596	1596	1603	1596	1596	1603	1603	1603	1603	1603	1603	1603	1603	1603	1603	1603	1603	1596	1596	1596	1596	1596	1589	1589	1596	1596	1596	1596	1596	1596	1596	1603	1603	1603	1603	1596	1603	1596	1596	1596	1596	1596	1596	1596	1596	1596	1596	1596	1596	1596	1596	1596	1596	1603	1603	1603	1603	1603	1603	1596	1596	1596	1596	1603	1603	1603	1603	1603	1603	1603	1603	1603	1603	1603	1603	1603	1603	1603	1603	1603	1603	1603	1603	1603	1603	1603	1603	1603	1603	1603	1603	1603	1603	1603	1603	1603	1603	1603	1603	1611	1611	1611	1611	1611	1611	1611	1611	1611	1611	1611	1618	1618	1618	1618	1618	1618	1618	1618	1618	1618	1626	1626	1626	1626	1626	1626	1626	1618	1618	1618	1618	1618	1618	1618	1618	1618	1618	1618	1618	1618	1618	1618	1618	1618	1618	1626	1626	1626	1626	1626	1626	1626	1626	1626	1626	1626	1626	1626	1626	1626	1626	1626	1626	1626	1626	1626	1626	1626	1626	1626	1626	1626	1626	1626	1626	1626	1626	1626	1626	1626	1626	1626	1626	1626	1626	1626	1626	1626	1626	1626	1626	1626	1626	1626	1626	1626	1626	1626	1626	1626	1626	1626	1626	1626	1626	1626	1626	1626	1626	1626	1626	1626	1626	1626	1626	1626	1626	1626	1626	1626	1626	1626	1626	1626	1626	1626	1626	1626	1626	1626	1626	1618	1618	1618	1618	1618	1618	1618	1618	1626	1626	1618	1618	1618	1626	1626	1626	1626	1626	1626	1626	1626	1626	1626	1626	1634	1634	1634	1634	1634	1634	1634	1634	1634	1634	1634	1634	1634	1634	1634	1634	1634	1641	1641	1641	1641	1641	1641	1634	1634	1634	1634	1634	1634	1641	1641	1641	1641	1641	1641	1641	1641	1641	1641	1641	1641	1641	1641	1641	1641	1641	1641	1641	1641	1641	1641	1641	1649	1649	1649	1649	1649	1649	1649	1649	1649	1649	1649	1649	1649	1649	1649	1649	1649	1649	1649	1649	1649	1649	1649	1649	1649	1649	1649	1649	1649	1649	1641	1641	1641	1641	1641	1641	1641	1641	1641	1641	1641	1641	1641	1641	1641	1641	1641	1641	1649	1649	1649	1649	1649	1649	1649	1649	1649	1649	1649	1657	1657	1657	1649	1649	1649	1649	1649	1657	1657	1641	1641	1657	1657	1657	1657	1657	1657	1665	1673	1665	1665	1657	1657	1665	1657	1657	1657	1657	1657	1657	1657	1657	1649	1649	1657	1657	1649	1649	1649	1649	1649	1649	1649	1657	1657	1657	1657	1657	1649	1641	1641	1641	1641	1641	1641	1634	1634	1634	1634	1634	0	0	0	0	0	0	0	0	0	0	0	0	0	0	0	0	0	0	0	0	0	0	0
0	0	0	0	0	0	0	0	0	0	0	0	0	0	0	0	0	0	0	0	0	0	0	0	0	1581	1567	1567	1567	1567	1567	1567	1567	1567	1567	1574	1574	1574	1574	1574	1574	1574	1574	1574	1574	1574	1581	1581	1574	1574	1574	1574	1574	1574	1574	1574	1574	1581	1581	1581	1574	1574	1574	1574	1574	1574	1567	1567	1574	1574	1574	1574	1574	1574	1574	1574	1574	1581	1581	1581	1581	1581	1581	1581	1581	1581	1581	1581	1581	1581	1581	1581	1581	1581	1581	1574	1574	1574	1574	1574	1574	1574	1581	1581	1581	1581	1581	1574	1574	1574	1574	1574	1574	1567	1567	1567	1574	1567	1567	1567	1567	1567	1567	1567	1567	1567	1574	1574	1574	1574	1574	1574	1574	1574	1574	1581	1581	1581	1581	1581	1581	1581	1581	1581	1581	1581	1581	1581	1581	1581	1574	1574	1581	1581	1581	1581	1581	1581	1581	1581	1581	1581	1581	1589	1589	1589	1589	1589	1589	1589	1589	1589	1589	1589	1589	1589	1589	1589	1589	1589	1581	1581	1581	1589	1589	1589	1589	1589	1589	1589	1589	1589	1589	1589	1589	1596	1596	1603	1603	1603	1603	1603	1603	1596	1596	1596	1596	1596	1596	1596	1596	1596	1589	1589	1589	1589	1589	1589	1596	1596	1596	1596	1596	1596	1596	1596	1596	1596	1596	1596	1596	1596	1596	1596	1596	1596	1596	1596	1596	1596	1596	1596	1596	1596	1596	1596	1596	1596	1596	1596	1596	1596	1596	1596	1596	1596	1596	1603	1603	1603	1603	1596	1596	1596	1596	1596	1603	1603	1603	1603	1603	1603	1603	1603	1603	1603	1603	1603	1603	1603	1603	1603	1603	1603	1603	1603	1603	1603	1603	1603	1603	1603	1603	1603	1603	1603	1603	1603	1603	1611	1611	1611	1611	1611	1611	1618	1611	1611	1611	1618	1618	1618	1618	1618	1618	1618	1618	1611	1611	1611	1611	1611	1611	1611	1611	1618	1618	1611	1611	1611	1618	1618	1618	1618	1618	1618	1618	1618	1618	1618	1618	1618	1618	1618	1618	1618	1626	1626	1626	1626	1626	1626	1626	1626	1618	1618	1618	1618	1618	1618	1618	1618	1618	1618	1618	1618	1618	1626	1626	1626	1626	1626	1626	1618	1618	1618	1618	1618	1618	1618	1618	1618	1626	1626	1626	1626	1618	1618	1618	1618	1618	1618	1626	1618	1618	1626	1626	1618	1618	1618	1618	1618	1618	1618	1618	1618	1618	1626	1626	1626	1626	1626	1626	1626	1618	1618	1618	1618	1618	1618	1618	1611	1611	1618	1618	1618	1618	1618	1618	1618	1618	1618	1618	1618	1618	1618	1618	1618	1618	1618	1618	1618	1618	1618	1626	1626	1626	1626	1626	1626	1626	1626	1634	1626	1626	1626	1626	1634	1626	1626	1626	1626	1634	1634	1634	1634	1626	1626	1626	1626	1626	1626	1626	1626	1634	1634	1641	1634	1634	1641	1641	1634	1634	1634	1634	1634	1634	1641	1641	1641	1641	1641	1641	1641	1641	1641	1641	1641	1641	1641	1641	1649	1641	1641	1649	1641	1641	1641	1641	1649	1649	1649	1649	1649	1649	1649	1649	1649	1649	1649	1649	1649	1641	1649	1649	1641	1641	1634	1634	1634	1641	1641	1634	1634	1641	1641	1641	1641	1641	1641	1641	1634	1634	1641	1641	1641	1641	1641	1641	1641	1641	1641	1641	1641	1641	1641	1649	1649	1649	1649	1649	1649	1649	1649	1649	1641	1641	1641	1641	1641	1657	1657	1657	1657	1665	1665	1665	1665	1657	1657	1657	1657	1657	1649	1649	1657	1657	1657	1657	1649	1649	1657	1657	1649	1649	1649	1649	1649	1649	1649	1657	1657	1657	1657	1657	1649	1641	1641	1641	1641	1641	1641	1641	1641	1634	1634	1634	0	0	0	0	0	0	0	0	0	0	0	0	0	0	0	0	0	0	0	0	0	0	0
0	0	0	0	0	0	0	0	0	0	0	0	0	0	0	0	0	0	0	0	0	0	0	0	0	0	1560	1560	1560	1560	1560	1560	1567	1567	1567	1567	1567	1567	1574	1567	1567	1567	1567	1567	1567	1567	1567	1574	1574	1574	1574	1574	1574	1574	1567	1567	1574	1574	1574	1574	1574	1567	1567	1567	1567	1567	1567	1567	1567	1560	1560	1567	1567	1567	1567	1567	1567	1574	1574	1574	1574	1574	1574	1574	1574	1574	1574	1581	1581	1581	1574	1574	1574	1574	1574	1574	1567	1567	1567	1567	1574	1574	1574	1574	1574	1574	1581	1574	1574	1574	1574	1567	1567	1567	1567	1567	1567	1560	1560	1560	1560	1560	1560	1560	1560	1560	1567	1574	1574	1567	1574	1574	1574	1574	1574	1574	1574	1574	1574	1574	1574	1574	1574	1574	1574	1574	1574	1574	1574	1574	1574	1574	1574	1574	1581	1581	1581	1581	1581	1581	1581	1581	1581	1581	1581	1581	1581	1581	1581	1581	1581	1581	1581	1581	1581	1581	1581	1581	1581	1581	1581	1581	1581	1589	1589	1589	1589	1589	1589	1589	1589	1589	1589	1589	1589	1589	1596	1596	1596	1596	1596	1596	1596	1596	1596	1596	1589	1589	1589	1589	1589	1589	1589	1589	1589	1589	1589	1589	1596	1589	1589	1596	1596	1596	1596	1596	1596	1596	1596	1596	1596	1596	1596	1596	1589	1589	1589	1589	1589	1589	1589	1589	1596	1596	1596	1596	1596	1596	1596	1589	1589	1589	1589	1589	1589	1596	1596	1596	1596	1596	1596	1596	1596	1596	1596	1596	1596	1596	1596	1596	1596	1596	1596	1596	1596	1596	1596	1596	1596	1596	1596	1596	1596	1596	1596	1596	1596	1603	1603	1603	1603	1603	1603	1603	1603	1603	1603	1603	1603	1603	1603	1603	1603	1603	1603	1603	1603	1603	1603	1611	1611	1611	1611	1611	1611	1611	1611	1611	1603	1603	1603	1603	1603	1611	1611	1611	1611	1611	1611	1611	1611	1611	1611	1611	1611	1618	1618	1618	1618	1618	1618	1618	1618	1618	1618	1618	1618	1618	1618	1618	1618	1618	1618	1618	1618	1618	1618	1618	1618	1618	1618	1618	1618	1618	1618	1618	1618	1618	1618	1618	1618	1618	1618	1618	1618	1618	1618	1618	1618	1618	1618	1618	1618	1618	1618	1618	1618	1618	1618	1618	1618	1618	1618	1618	1618	1618	1618	1618	1618	1618	1618	1618	1618	1618	1618	1618	1618	1618	1618	1618	1618	1618	1618	1618	1618	1618	1611	1611	1611	1611	1618	1611	1611	1611	1611	1611	1618	1611	1611	1611	1611	1611	1611	1611	1618	1618	1618	1618	1618	1618	1618	1618	1618	1618	1618	1618	1626	1626	1618	1618	1626	1626	1626	1618	1618	1618	1618	1626	1618	1618	1618	1618	1626	1626	1626	1626	1618	1618	1618	1618	1618	1618	1618	1626	1634	1634	1634	1634	1634	1634	1634	1634	1634	1634	1634	1634	1634	1634	1634	1634	1634	1634	1634	1641	1641	1641	1641	1641	1641	1641	1641	1641	1641	1641	1641	1641	1641	1641	1641	1641	1641	1641	1641	1641	1641	1641	1641	1641	1641	1641	1641	1641	1641	1641	1641	1641	1641	1634	1634	1634	1634	1634	1634	1634	1634	1634	1634	1634	1634	1634	1634	1634	1634	1634	1634	1634	1634	1634	1634	1634	1634	1634	1641	1634	1634	1641	1641	1641	1649	1649	1649	1649	1641	1641	1641	1641	1641	1641	1641	1641	1649	1649	1649	1649	1657	1665	1665	1657	1649	1649	1657	1649	1649	1649	1649	1649	1657	1649	1649	1649	1649	1657	1657	1657	1657	1657	1657	1657	1657	1657	1657	1657	1657	1657	1657	1649	1641	1641	1641	1641	1641	1641	1641	1641	1634	1634	1634	0	0	0	0	0	0	0	0	0	0	0	0	0	0	0	0	0	0	0	0	0	0	0
