0	0	0	0	0	0	0	0	0	0	0	0	0	0	0	0	0	0	0	0	0	0	0	0	0	0	0	1374	1374	1374	1374	1374	1379	1379	1379	1379	1379	1379	1379	1379	1379	1379	1379	1379	1379	1379	1379	1379	1379	1379	1385	1379	1379	1379	1385	1385	1385	1385	1385	1385	1385	1385	1385	1385	1390	1390	1390	1390	1390	1390	1390	1396	1396	1396	1396	1396	1396	1390	1390	1390	1390	1390	1390	1390	1390	1390	1390	1390	1390	1390	1390	1390	1390	1390	1390	1390	1390	1390	1390	1396	1396	1396	1396	1396	1396	1396	1390	1390	1396	1396	1396	1396	1396	1402	1402	1402	1402	1402	1402	1402	1396	1396	1396	1402	1402	1402	1402	1402	1407	1407	1407	1407	1407	1407	1413	1413	1413	1413	1413	1413	1413	1413	1413	1413	1413	1413	1413	1413	1419	1419	1419	1419	1419	1413	1413	1413	1413	1413	1413	1413	1413	1413	1413	1419	1419	1419	1419	1419	1419	1419	1419	1419	1419	1419	1419	1419	1425	1425	1425	1425	1425	1431	1431	1431	1431	1437	1437	1431	1431	1431	1431	1431	1431	1431	1431	1437	1437	1437	1431	1431	1425	1419	1419	1419	1419	1419	1419	1419	1419	1419	1419	1419	1419	1419	1419	1425	1425	1425	1425	1425	1425	1425	1425	1425	1425	1425	1425	1425	1425	1425	1425	1425	1431	1431	1431	1431	1437	1437	1443	1443	1455	1455	1449	1449	1449	1449	1455	1455	1455	1455	1455	1455	1455	1461	1461	1461	1461	1461	1461	1461	1461	1461	1461	1461	1461	1461	1461	1461	1461	1461	1461	1461	1467	1467	1467	1467	1467	1473	1473	1473	1480	1480	1480	1473	1473	1473	1473	1473	1473	1473	1473	1473	1480	1480	1486	1486	1486	1486	1486	1486	1486	1486	1486	1486	1486	1486	1486	1486	1492	1492	1492	1492	1492	1492	1492	1492	1492	1492	1492	1492	1492	1492	1492	1492	1499	1499	1499	1499	1499	1499	1499	1499	1499	1499	1499	1499	1499	1499	1499	1506	1506	1506	1506	1506	1506	1506	1506	1506	1512	1512	1512	1512	1512	1512	1512	1512	1512	1512	1512	1512	1512	1512	1512	1512	1512	1512	1512	1519	1512	1512	1519	1525	1525	1519	1519	1525	1525	1525	1519	1519	1519	1519	1519	1519	1519	1519	1519	1519	1525	1525	1525	1525	1525	1525	1525	1525	1525	1525	1525	1525	1525	1525	1525	1525	1532	1532	1532	1532	1532	1532	1532	1532	1525	1525	1525	1525	1532	1532	1532	1532	1539	1539	1539	1539	1539	1539	1539	1539	1539	1539	1539	1539	1539	1539	1539	1539	1539	1539	1539	1546	1546	1546	1546	1546	1546	1546	1546	1546	1546	1546	1546	1553	1553	1553	1560	1560	1560	1560	1560	1560	1560	1560	1560	1560	1560	1560	1560	1560	1560	1553	1553	1553	1560	1553	1553	1546	1546	1546	1546	1546	1539	1539	1539	1539	1539	1532	1532	1532	1525	1525	1519	1512	1512	1512	1512	1512	1506	1506	1506	1506	1499	1499	1499	1492	1492	1486	1486	1486	1480	1480	1480	1480	1480	1473	1467	1467	1467	1461	1461	1461	1461	1461	1461	0	0	0	0	867	865	862	860	858	856	856	854	854	852	850	850	850	848	845	843	843	841	839	839	837	837	831	829	827	827	829	829	829	763	763	761	761	761	760	760	756	756	755	752	752	748	748	745	742	742	740	740	739	739	739	737	736	734	732	732	729	729	728	726	725	725	723	722	722	722	719	716	713	713	713	711	710	708	707	705	705	704	704	704	703	701	701	700	700	698	695	695	693	691	690	690	690	690	689	689	689	690	690	690	690	690	0	0	0	0	0	0	0	0	0	0	0
0	0	0	0	0	0	0	0	0	0	0	0	0	0	0	0	0	0	0	0	0	0	0	0	0	0	0	1368	1368	1368	1374	1374	1374	1374	1374	1374	1374	1374	1374	1374	1374	1374	1374	1374	1374	1374	1374	1379	1379	1379	1379	1379	1379	1379	1379	1379	1379	1379	1379	1379	1379	1385	1385	1385	1385	1385	1390	1385	1385	1390	1390	1390	1390	1390	1390	1390	1390	1390	1390	1390	1385	1385	1385	1385	1390	1385	1385	1385	1390	1390	1390	1390	1390	1390	1390	1390	1390	1390	1390	1390	1390	1396	1396	1390	1390	1390	1390	1390	1390	1390	1390	1396	1396	1396	1396	1396	1396	1396	1396	1396	1396	1396	1396	1396	1396	1396	1402	1402	1402	1402	1402	1402	1407	1407	1407	1407	1407	1413	1413	1413	1413	1407	1407	1413	1407	1407	1407	1413	1413	1413	1413	1413	1413	1413	1413	1413	1413	1413	1413	1413	1413	1413	1413	1413	1413	1419	1419	1419	1419	1419	1419	1419	1419	1419	1419	1419	1419	1419	1419	1425	1425	1425	1431	1431	1431	1431	1431	1425	1425	1425	1425	1425	1425	1425	1425	1425	1419	1419	1419	1419	1419	1419	1419	1419	1419	1419	1419	1419	1419	1419	1419	1419	1419	1413	1413	1419	1419	1419	1419	1419	1419	1425	1419	1419	1419	1425	1419	1419	1419	1419	1425	1425	1425	1425	1425	1425	1425	1431	1431	1431	1443	1443	1443	1443	1443	1443	1449	1449	1455	1455	1455	1455	1455	1455	1461	1461	1461	1461	1461	1455	1455	1455	1455	1461	1455	1455	1461	1461	1461	1461	1461	1461	1461	1461	1467	1467	1467	1467	1467	1467	1467	1467	1473	1467	1467	1467	1467	1467	1467	1467	1467	1467	1467	1473	1473	1473	1473	1473	1473	1473	1480	1480	1480	1480	1486	1486	1486	1486	1486	1480	1480	1480	1486	1486	1486	1486	1486	1486	1486	1486	1486	1486	1486	1486	1486	1486	1486	1486	1486	1486	1486	1486	1486	1492	1492	1492	1486	1486	1492	1492	1492	1492	1492	1492	1499	1499	1499	1499	1499	1506	1506	1506	1506	1506	1506	1506	1506	1506	1506	1506	1506	1506	1506	1506	1506	1506	1506	1506	1506	1506	1506	1506	1506	1506	1512	1512	1512	1519	1512	1512	1512	1512	1512	1512	1512	1512	1519	1519	1519	1519	1519	1519	1519	1519	1512	1512	1519	1519	1519	1519	1519	1519	1519	1519	1519	1525	1525	1525	1525	1525	1525	1525	1525	1525	1525	1525	1525	1532	1532	1532	1532	1532	1532	1532	1532	1532	1532	1532	1532	1539	1539	1539	1539	1539	1539	1539	1539	1539	1539	1539	1539	1539	1539	1546	1546	1546	1546	1546	1546	1546	1546	1546	1553	1553	1553	1560	1553	1553	1553	1553	1553	1553	1553	1553	1553	1553	1553	1553	1546	1546	1546	1546	1553	1553	1546	1546	1546	1546	1546	1546	1539	1539	1539	1539	1539	1532	1532	1532	1532	1525	1519	1512	1512	1512	1512	1512	1512	1512	1506	1506	1506	1506	1499	1499	1492	1492	1492	1486	1486	1486	1486	1480	1480	1480	1473	1473	1473	1467	1467	1467	1467	1461	0	0	0	0	867	867	865	865	862	860	856	856	854	854	852	852	850	850	848	845	843	843	841	841	839	839	837	831	829	829	829	829	829	829	763	763	761	761	761	760	760	756	756	755	752	752	748	748	745	742	742	740	740	739	739	739	737	736	734	732	732	729	729	728	726	725	725	723	722	722	720	720	716	713	713	713	711	711	710	710	707	707	705	704	704	703	701	701	700	700	697	694	694	693	691	691	690	690	690	690	689	689	690	690	690	691	691	0	0	0	0	0	0	0	0	0	0	0
0	0	0	0	0	0	0	0	0	0	0	0	0	0	0	0	0	0	0	0	0	0	0	0	0	0	0	1363	1363	1363	1368	1368	1368	1368	1368	1374	1374	1374	1374	1374	1374	1374	1374	1374	1374	1374	1374	1374	1374	1374	1374	1374	1374	1374	1374	1374	1374	1379	1379	1379	1379	1379	1379	1379	1379	1385	1385	1385	1385	1385	1385	1385	1390	1390	1385	1385	1385	1385	1385	1385	1385	1385	1385	1385	1385	1385	1385	1385	1385	1385	1385	1385	1385	1385	1385	1390	1390	1390	1390	1390	1390	1390	1390	1390	1390	1390	1390	1390	1390	1390	1390	1390	1390	1390	1396	1396	1396	1396	1396	1396	1396	1396	1396	1396	1396	1396	1396	1396	1402	1402	1402	1402	1402	1402	1402	1402	1407	1407	1407	1407	1407	1407	1407	1407	1407	1407	1407	1407	1413	1407	1407	1407	1407	1407	1407	1407	1407	1407	1407	1407	1413	1413	1413	1413	1413	1413	1413	1413	1419	1419	1419	1419	1413	1413	1413	1413	1419	1419	1419	1419	1419	1425	1425	1425	1425	1425	1425	1425	1419	1419	1419	1419	1419	1419	1419	1413	1413	1413	1413	1413	1413	1413	1413	1413	1413	1413	1413	1413	1413	1419	1413	1413	1413	1413	1413	1413	1413	1413	1419	1419	1419	1419	1419	1419	1419	1419	1419	1419	1419	1419	1419	1419	1419	1419	1419	1419	1425	1425	1425	1431	1431	1437	1437	1443	1443	1443	1449	1449	1449	1455	1455	1455	1455	1455	1455	1455	1455	1455	1455	1455	1455	1455	1455	1455	1455	1455	1455	1455	1455	1461	1461	1461	1461	1461	1461	1461	1461	1461	1461	1467	1467	1467	1467	1461	1461	1467	1467	1467	1467	1467	1467	1467	1467	1467	1467	1467	1473	1473	1473	1473	1480	1473	1473	1480	1480	1480	1480	1480	1480	1480	1473	1473	1473	1480	1480	1480	1480	1486	1480	1480	1480	1480	1486	1486	1486	1486	1486	1486	1486	1486	1486	1486	1486	1486	1486	1486	1486	1486	1486	1486	1486	1486	1492	1492	1492	1492	1492	1492	1499	1499	1499	1499	1506	1506	1506	1506	1506	1506	1506	1499	1499	1499	1499	1499	1499	1499	1506	1499	1499	1499	1499	1499	1499	1499	1499	1506	1506	1506	1506	1512	1512	1512	1512	1512	1512	1512	1512	1512	1512	1512	1512	1512	1512	1512	1512	1512	1512	1512	1512	1512	1512	1512	1512	1512	1512	1512	1512	1512	1519	1519	1519	1519	1512	1512	1512	1519	1519	1525	1525	1525	1525	1525	1525	1525	1525	1525	1525	1525	1525	1532	1532	1532	1532	1532	1532	1532	1532	1532	1532	1532	1532	1539	1539	1539	1539	1539	1539	1539	1539	1539	1539	1539	1539	1539	1546	1553	1553	1553	1546	1546	1546	1553	1553	1553	1546	1546	1553	1553	1546	1539	1539	1539	1546	1546	1539	1539	1539	1546	1546	1546	1539	1539	1539	1539	1539	1532	1532	1532	1532	1525	1519	1519	1519	1519	1512	1512	1512	1512	1512	1506	1506	1506	1499	1499	1492	1492	1492	1486	1486	1486	1486	1486	1480	1480	1473	1473	1473	1467	1467	1467	1467	0	0	0	0	867	867	867	865	865	862	860	856	856	854	854	852	852	850	850	848	845	845	843	843	841	841	839	837	837	837	837	837	772	772	772	770	767	763	763	761	761	761	758	756	756	753	752	750	748	747	742	742	742	740	739	737	737	737	736	734	732	732	731	729	726	726	725	723	722	722	722	720	719	717	714	714	714	713	711	711	710	707	707	705	704	704	701	701	701	700	698	697	694	694	693	691	691	690	690	691	690	690	690	690	690	690	691	691	0	0	0	0	0	0	0	0	0	0	0
0	0	0	0	0	0	0	0	0	0	0	0	0	0	0	0	0	0	0	0	0	0	0	0	0	0	0	1358	1358	1358	1363	1363	1363	1363	1368	1368	1368	1374	1368	1368	1368	1368	1368	1368	1368	1368	1368	1374	1368	1368	1374	1374	1374	1374	1374	1374	1374	1374	1374	1374	1374	1379	1379	1379	1379	1379	1379	1385	1385	1385	1385	1385	1385	1385	1385	1385	1385	1379	1379	1379	1379	1379	1379	1379	1385	1379	1379	1379	1379	1379	1379	1385	1379	1379	1385	1385	1385	1385	1385	1385	1385	1385	1385	1385	1390	1385	1385	1385	1390	1390	1390	1390	1390	1390	1390	1390	1390	1390	1390	1390	1396	1396	1396	1396	1396	1396	1396	1396	1396	1396	1396	1396	1396	1396	1396	1396	1402	1402	1402	1402	1402	1402	1402	1402	1402	1402	1402	1402	1407	1402	1402	1402	1402	1407	1402	1402	1402	1407	1407	1407	1407	1407	1413	1413	1413	1413	1413	1413	1413	1413	1413	1413	1413	1413	1413	1413	1413	1413	1413	1419	1419	1419	1419	1419	1419	1419	1419	1419	1419	1413	1413	1413	1413	1413	1413	1407	1407	1407	1407	1413	1413	1407	1407	1413	1413	1413	1413	1413	1413	1413	1413	1413	1407	1407	1407	1407	1413	1413	1413	1413	1419	1419	1419	1419	1419	1419	1419	1413	1413	1419	1419	1419	1419	1419	1419	1419	1419	1419	1419	1419	1425	1425	1437	1437	1443	1443	1443	1443	1443	1449	1449	1449	1449	1449	1449	1449	1449	1449	1449	1449	1449	1449	1449	1449	1449	1449	1449	1455	1455	1455	1455	1455	1461	1461	1461	1461	1461	1461	1461	1461	1461	1461	1461	1461	1461	1461	1461	1461	1461	1461	1467	1467	1467	1467	1467	1467	1467	1467	1467	1467	1473	1473	1473	1473	1480	1480	1473	1473	1473	1473	1467	1467	1467	1473	1473	1473	1473	1480	1473	1473	1480	1480	1480	1480	1480	1480	1486	1480	1480	1480	1480	1480	1480	1486	1486	1486	1486	1486	1486	1486	1486	1486	1486	1486	1486	1486	1492	1492	1492	1492	1499	1499	1499	1499	1499	1499	1499	1499	1499	1499	1499	1499	1499	1499	1499	1499	1499	1499	1492	1492	1492	1492	1499	1499	1499	1499	1499	1506	1506	1506	1506	1506	1506	1506	1506	1506	1506	1506	1506	1506	1506	1506	1506	1506	1506	1506	1512	1512	1512	1512	1512	1512	1512	1512	1512	1512	1512	1512	1512	1512	1512	1512	1512	1512	1512	1512	1512	1519	1519	1519	1519	1519	1519	1519	1519	1519	1519	1519	1525	1525	1532	1532	1532	1532	1532	1532	1532	1532	1532	1532	1532	1532	1532	1539	1532	1532	1532	1532	1532	1532	1532	1532	1532	1539	1539	1539	1539	1539	1539	1539	1539	1539	1539	1539	1539	1539	1539	1539	1539	1539	1539	1539	1539	1539	1539	1539	1539	1539	1539	1539	1539	1539	1539	1539	1539	1539	1532	1532	1532	1525	1525	1519	1519	1519	1519	1512	1512	1512	1512	1506	1506	1506	1506	1499	1492	1492	1492	1486	1486	1486	1486	1486	1480	1480	1473	1473	1473	1473	1473	1473	0	0	0	0	0	867	867	867	865	862	862	860	856	856	854	854	852	852	850	850	848	845	845	843	843	841	841	839	837	837	837	837	837	772	770	770	768	768	767	765	763	761	761	760	758	756	752	752	748	748	747	743	742	742	736	736	737	737	737	736	734	732	732	731	729	726	725	723	723	722	722	720	720	719	719	717	716	714	713	711	711	710	708	707	707	705	704	701	701	701	700	698	698	695	695	694	693	693	691	690	690	690	690	690	691	691	691	693	693	0	0	0	0	0	0	0	0	0	0	0
0	0	0	0	0	0	0	0	0	0	0	0	0	0	0	0	0	0	0	0	0	0	0	0	0	0	0	1358	1358	1358	1358	1363	1363	1363	1363	1368	1368	1368	1368	1368	1368	1363	1363	1368	1363	1363	1368	1368	1368	1368	1368	1374	1374	1374	1374	1368	1368	1374	1374	1374	1374	1374	1379	1379	1379	1379	1379	1379	1379	1379	1379	1379	1379	1379	1379	1379	1379	1374	1374	1374	1374	1374	1374	1374	1379	1379	1379	1379	1379	1379	1379	1379	1379	1379	1379	1385	1379	1379	1379	1385	1385	1385	1385	1385	1385	1385	1385	1385	1385	1385	1385	1385	1385	1385	1385	1385	1385	1390	1390	1390	1390	1390	1390	1396	1390	1390	1396	1396	1396	1396	1396	1396	1396	1396	1390	1390	1396	1396	1396	1396	1396	1396	1396	1396	1396	1396	1396	1396	1402	1396	1396	1402	1402	1402	1396	1396	1396	1402	1402	1402	1407	1407	1407	1407	1407	1407	1407	1407	1413	1413	1413	1413	1407	1407	1413	1413	1413	1413	1413	1413	1413	1413	1413	1413	1413	1413	1413	1413	1413	1413	1407	1407	1407	1407	1407	1402	1402	1407	1407	1407	1407	1407	1407	1407	1407	1407	1407	1407	1407	1407	1407	1407	1407	1402	1402	1402	1402	1407	1407	1413	1413	1413	1413	1413	1413	1413	1413	1413	1413	1413	1413	1413	1413	1413	1413	1413	1413	1413	1413	1419	1419	1419	1425	1431	1437	1437	1443	1443	1443	1443	1443	1443	1443	1443	1443	1443	1443	1443	1443	1443	1443	1443	1443	1443	1443	1443	1443	1449	1449	1449	1449	1449	1455	1455	1455	1455	1455	1461	1461	1461	1455	1455	1455	1455	1455	1455	1455	1461	1461	1461	1461	1461	1467	1467	1467	1467	1467	1467	1467	1467	1467	1467	1467	1473	1473	1473	1473	1473	1467	1467	1467	1467	1467	1467	1473	1473	1473	1480	1473	1473	1473	1473	1480	1480	1480	1480	1480	1480	1480	1480	1480	1480	1480	1480	1480	1480	1480	1480	1486	1486	1486	1486	1486	1486	1486	1486	1486	1486	1486	1486	1492	1492	1492	1492	1492	1492	1492	1492	1492	1492	1492	1492	1492	1492	1492	1492	1492	1492	1492	1492	1492	1492	1492	1492	1492	1492	1499	1499	1499	1499	1499	1499	1506	1506	1506	1506	1506	1506	1506	1506	1506	1506	1506	1506	1506	1506	1506	1506	1512	1512	1512	1512	1512	1512	1512	1512	1512	1512	1512	1512	1512	1512	1512	1512	1512	1512	1512	1512	1512	1512	1519	1519	1512	1512	1512	1512	1519	1519	1519	1525	1525	1525	1525	1525	1525	1525	1525	1525	1525	1525	1532	1532	1532	1532	1532	1532	1532	1532	1532	1532	1532	1532	1532	1532	1532	1532	1532	1532	1532	1532	1539	1539	1539	1539	1539	1539	1539	1532	1532	1532	1532	1532	1532	1532	1532	1532	1539	1539	1539	1539	1539	1539	1539	1539	1539	1539	1532	1532	1532	1532	1525	1525	1519	1519	1519	1512	1512	1512	1512	1506	1506	1506	1506	1506	1499	1499	1492	1486	1486	1486	1486	1486	1486	1480	1480	1480	1473	1473	1473	1473	0	0	0	0	869	867	867	867	865	862	860	858	856	856	854	854	852	852	852	850	848	845	845	845	843	843	843	839	837	837	837	837	0	773	770	770	768	768	767	765	763	763	763	761	761	758	752	752	748	748	748	748	748	736	736	736	737	737	737	736	734	732	732	732	732	725	725	723	722	722	722	720	720	719	719	717	716	714	713	711	711	710	708	708	707	705	705	704	703	701	701	700	698	697	697	694	693	693	691	690	690	690	690	690	691	691	691	691	693	0	0	0	0	0	0	0	0	0	0	0
0	0	0	0	0	0	0	0	0	0	0	0	0	0	0	0	0	0	0	0	0	0	0	0	0	0	0	1358	1358	1358	1358	1358	1358	1363	1363	1363	1363	1363	1363	1363	1363	1363	1363	1363	1363	1363	1363	1363	1363	1363	1368	1368	1368	1368	1368	1368	1368	1368	1368	1368	1368	1368	1374	1374	1374	1374	1374	1379	1379	1374	1374	1379	1379	1379	1379	1379	1379	1374	1374	1374	1374	1374	1374	1374	1374	1374	1374	1374	1374	1374	1374	1374	1374	1374	1379	1379	1379	1379	1379	1379	1379	1379	1379	1379	1379	1379	1379	1379	1385	1379	1379	1379	1385	1385	1385	1385	1385	1385	1390	1390	1390	1390	1390	1390	1390	1390	1390	1390	1390	1390	1390	1390	1390	1390	1390	1390	1390	1390	1390	1396	1396	1396	1396	1396	1396	1396	1396	1396	1396	1396	1396	1396	1396	1396	1396	1396	1396	1396	1402	1402	1407	1407	1407	1407	1407	1407	1407	1407	1407	1407	1407	1407	1407	1407	1407	1407	1413	1413	1413	1413	1413	1407	1402	1402	1402	1402	1402	1402	1402	1402	1402	1402	1402	1402	1402	1396	1396	1402	1402	1402	1402	1402	1402	1402	1402	1402	1402	1407	1407	1402	1402	1402	1402	1402	1396	1396	1402	1407	1407	1407	1407	1413	1413	1413	1413	1413	1413	1413	1413	1413	1413	1413	1413	1413	1413	1413	1413	1413	1413	1413	1419	1419	1419	1419	1431	1437	1437	1443	1443	1443	1443	1443	1443	1443	1443	1443	1443	1443	1443	1443	1443	1443	1443	1443	1443	1443	1443	1443	1443	1443	1443	1443	1449	1449	1449	1449	1449	1455	1455	1455	1455	1455	1455	1455	1449	1455	1455	1455	1455	1455	1461	1461	1461	1461	1461	1461	1461	1461	1461	1461	1461	1467	1467	1467	1467	1467	1467	1467	1467	1467	1467	1467	1467	1467	1467	1467	1467	1473	1467	1467	1473	1473	1473	1473	1480	1480	1480	1473	1473	1473	1473	1473	1473	1480	1480	1480	1480	1480	1480	1486	1480	1480	1486	1486	1486	1486	1486	1486	1486	1486	1486	1486	1486	1486	1486	1486	1486	1486	1492	1492	1492	1492	1492	1492	1492	1492	1492	1492	1492	1492	1492	1492	1492	1492	1492	1492	1492	1492	1492	1492	1492	1492	1492	1499	1499	1499	1499	1499	1499	1499	1499	1499	1499	1499	1499	1506	1506	1506	1506	1506	1506	1506	1506	1506	1506	1506	1506	1506	1506	1506	1506	1506	1506	1506	1506	1506	1506	1506	1512	1512	1512	1512	1512	1512	1512	1512	1512	1512	1512	1519	1519	1519	1525	1525	1525	1525	1519	1519	1519	1525	1525	1525	1532	1532	1532	1532	1525	1525	1532	1525	1525	1525	1525	1525	1525	1525	1532	1532	1532	1532	1532	1532	1532	1532	1532	1532	1532	1532	1532	1532	1532	1532	1532	1532	1532	1532	1532	1539	1539	1539	1539	1539	1539	1539	1539	1539	1532	1532	1532	1532	1525	1525	1519	1519	1519	1512	1512	1512	1512	1506	1506	1506	1506	1506	1506	1499	1492	1492	1486	1486	1486	1486	1486	1486	1486	1480	1480	1480	1473	0	0	0	0	871	869	869	869	869	867	865	860	858	856	856	856	854	854	854	854	850	848	845	845	845	845	845	841	841	839	839	839	837	0	773	773	772	770	768	768	768	768	763	763	777	777	779	779	775	773	770	768	768	767	767	767	767	767	765	765	765	761	761	761	725	725	723	723	723	722	722	722	720	720	719	719	717	716	716	714	713	711	711	710	708	708	707	705	704	703	701	701	700	698	697	697	694	694	693	693	691	691	690	690	690	690	693	693	691	0	0	0	0	0	0	0	0	0	0	0	0
0	0	0	0	0	0	0	0	0	0	0	0	0	0	0	0	0	0	0	0	0	0	0	0	0	0	0	1358	1358	1358	1358	1358	1358	1358	1358	1358	1358	1358	1358	1363	1363	1358	1358	1363	1363	1363	1363	1363	1363	1363	1368	1368	1368	1363	1363	1363	1363	1363	1363	1363	1363	1368	1368	1368	1368	1374	1374	1374	1374	1374	1374	1374	1374	1374	1374	1374	1374	1368	1368	1368	1368	1368	1368	1374	1374	1374	1374	1374	1374	1374	1374	1374	1374	1374	1374	1374	1374	1374	1374	1374	1374	1374	1374	1374	1379	1374	1374	1379	1379	1379	1379	1379	1379	1379	1379	1379	1379	1379	1385	1385	1385	1385	1390	1390	1390	1390	1390	1390	1390	1390	1390	1390	1390	1390	1390	1385	1385	1390	1390	1390	1390	1390	1390	1390	1390	1390	1390	1390	1390	1396	1396	1390	1390	1390	1390	1390	1390	1396	1396	1396	1402	1402	1402	1402	1402	1402	1402	1402	1402	1402	1402	1402	1402	1402	1402	1402	1402	1407	1402	1402	1402	1396	1396	1396	1396	1396	1396	1396	1396	1396	1396	1396	1396	1396	1396	1396	1396	1396	1396	1396	1396	1396	1396	1396	1396	1396	1396	1402	1402	1402	1402	1402	1402	1396	1396	1396	1396	1402	1407	1407	1407	1407	1407	1407	1407	1407	1407	1407	1407	1413	1413	1407	1407	1407	1407	1413	1413	1413	1413	1413	1413	1413	1413	1413	1419	1431	1437	1437	1437	1437	1437	1437	1437	1437	1437	1437	1437	1437	1437	1437	1437	1437	1437	1437	1437	1437	1437	1443	1443	1443	1443	1443	1443	1443	1443	1443	1449	1449	1449	1449	1449	1449	1449	1449	1449	1449	1449	1449	1449	1449	1455	1455	1461	1461	1461	1455	1461	1461	1461	1461	1461	1461	1467	1467	1467	1467	1467	1467	1467	1467	1467	1467	1467	1467	1467	1467	1467	1467	1461	1461	1467	1467	1467	1467	1473	1473	1473	1473	1473	1473	1473	1473	1473	1473	1473	1473	1480	1480	1480	1480	1480	1480	1480	1480	1480	1480	1480	1480	1480	1480	1480	1486	1486	1486	1486	1486	1486	1486	1486	1486	1486	1486	1486	1486	1486	1486	1486	1486	1486	1486	1486	1486	1492	1492	1486	1486	1486	1486	1486	1486	1486	1486	1486	1492	1492	1492	1492	1492	1492	1492	1492	1492	1492	1499	1499	1499	1506	1506	1506	1506	1506	1506	1506	1506	1506	1506	1506	1506	1506	1506	1499	1499	1499	1499	1506	1499	1499	1506	1506	1506	1506	1506	1506	1506	1506	1506	1506	1506	1512	1512	1519	1519	1519	1519	1519	1519	1519	1519	1519	1525	1525	1525	1525	1525	1525	1525	1525	1525	1525	1525	1519	1519	1519	1519	1519	1519	1525	1525	1532	1532	1532	1532	1532	1532	1532	1532	1532	1532	1532	1532	1532	1532	1532	1532	1532	1532	1532	1532	1532	1532	1532	1532	1532	1532	1532	1532	1532	1532	1532	1532	1525	1525	1525	1519	1519	1519	1512	1512	1512	1512	1512	1506	1506	1506	1506	1506	1492	1492	1486	1486	1486	1486	1486	1486	1486	1486	1480	1480	0	0	0	0	0	871	871	869	869	867	867	865	862	860	858	856	856	854	854	854	854	852	848	848	845	845	843	843	843	843	843	839	839	0	0	0	773	772	770	770	770	770	768	0	0	777	779	779	779	775	773	770	768	768	767	767	767	765	765	763	761	761	761	761	761	761	761	761	722	722	722	722	722	720	717	717	717	716	716	714	714	713	713	711	711	710	710	707	705	704	703	701	701	700	698	698	698	698	695	693	693	693	691	691	690	690	690	689	689	689	0	0	0	0	0	0	0	0	0	0	0	0
0	0	0	0	0	0	0	0	0	0	0	0	0	0	0	0	0	0	0	0	0	0	0	0	0	0	0	1352	1352	1352	1352	1352	1352	1358	1358	1358	1358	1358	1358	1358	1358	1358	1358	1358	1358	1358	1358	1358	1363	1363	1363	1363	1363	1363	1363	1358	1358	1358	1363	1363	1363	1363	1368	1368	1368	1368	1368	1374	1374	1374	1374	1374	1374	1374	1374	1374	1374	1368	1368	1368	1368	1368	1368	1368	1368	1368	1368	1368	1368	1368	1368	1368	1368	1374	1374	1374	1374	1368	1368	1374	1374	1374	1374	1374	1374	1374	1374	1374	1374	1374	1374	1374	1374	1374	1374	1374	1374	1379	1379	1379	1385	1385	1385	1385	1385	1385	1385	1385	1385	1385	1385	1385	1385	1385	1385	1385	1385	1385	1385	1390	1390	1390	1390	1390	1390	1390	1390	1390	1390	1390	1390	1390	1390	1390	1390	1390	1390	1390	1390	1396	1396	1390	1390	1390	1396	1396	1396	1396	1402	1402	1396	1396	1396	1396	1396	1396	1396	1396	1396	1390	1390	1390	1390	1390	1390	1390	1390	1390	1390	1390	1390	1390	1390	1390	1390	1390	1390	1390	1390	1396	1396	1390	1390	1396	1396	1396	1396	1396	1396	1396	1396	1396	1396	1396	1396	1396	1396	1402	1402	1402	1402	1402	1402	1402	1402	1402	1402	1407	1407	1407	1407	1407	1407	1407	1407	1407	1407	1407	1407	1407	1413	1413	1413	1413	1413	1419	1431	1431	1431	1437	1437	1437	1437	1437	1437	1437	1437	1437	1437	1437	1437	1437	1437	1437	1437	1437	1437	1437	1437	1437	1437	1437	1443	1443	1443	1443	1443	1443	1443	1443	1443	1443	1443	1443	1443	1443	1443	1449	1443	1443	1449	1449	1455	1455	1455	1455	1455	1455	1455	1455	1461	1461	1461	1461	1461	1461	1461	1461	1461	1461	1461	1461	1461	1461	1461	1461	1461	1467	1461	1461	1461	1461	1461	1461	1467	1467	1467	1467	1467	1467	1467	1467	1467	1473	1473	1473	1473	1473	1473	1480	1480	1480	1480	1480	1480	1480	1473	1473	1480	1480	1480	1480	1480	1486	1486	1486	1480	1480	1480	1480	1480	1480	1480	1486	1480	1480	1486	1486	1486	1486	1486	1486	1486	1486	1486	1486	1486	1486	1486	1486	1486	1486	1486	1486	1486	1486	1486	1486	1486	1492	1486	1486	1486	1492	1492	1499	1499	1499	1499	1499	1506	1506	1506	1506	1506	1506	1499	1499	1499	1499	1499	1499	1499	1499	1499	1499	1499	1499	1506	1506	1506	1506	1506	1506	1506	1506	1506	1506	1506	1506	1512	1512	1512	1512	1512	1512	1512	1512	1512	1512	1512	1512	1519	1519	1519	1519	1519	1519	1519	1519	1519	1519	1519	1519	1519	1519	1519	1519	1525	1525	1525	1525	1525	1525	1525	1532	1532	1532	1532	1532	1532	1532	1532	1532	1532	1532	1532	1532	1532	1532	1532	1532	1532	1532	1532	1532	1532	1532	1532	1532	1525	1525	1525	1525	1525	1519	1519	1512	1512	1512	1512	1506	1506	1506	1506	1506	1492	1492	1486	1486	1486	1486	1486	1486	1486	1486	1480	1480	0	0	0	0	0	871	871	869	869	867	867	865	860	860	858	858	856	856	856	854	854	852	848	848	845	845	843	843	843	843	843	843	0	0	0	0	0	0	0	770	770	770	0	0	777	777	777	777	777	775	773	768	768	767	765	765	765	763	763	761	761	761	761	761	761	761	761	761	765	765	765	722	722	720	717	717	717	716	716	714	714	713	713	711	710	710	710	707	705	704	703	701	700	700	698	698	698	698	697	695	694	694	694	693	693	691	691	689	689	689	0	0	0	0	0	0	0	0	0	0	0	0
0	0	0	0	0	0	0	0	0	0	0	0	0	0	0	0	0	0	0	0	0	0	0	0	0	0	0	1352	1352	1352	1347	1347	1352	1352	1352	1352	1358	1358	1358	1358	1358	1358	1358	1358	1358	1358	1358	1358	1358	1358	1358	1358	1358	1358	1358	1358	1358	1358	1358	1358	1358	1358	1363	1363	1363	1363	1368	1368	1368	1368	1368	1368	1374	1374	1368	1368	1368	1363	1363	1363	1363	1363	1363	1363	1363	1368	1368	1368	1368	1368	1368	1368	1368	1368	1368	1368	1368	1368	1368	1368	1368	1368	1368	1374	1374	1374	1374	1374	1374	1374	1374	1374	1374	1374	1374	1374	1374	1374	1379	1379	1379	1379	1379	1379	1379	1379	1379	1379	1379	1379	1385	1385	1379	1379	1385	1379	1379	1379	1385	1385	1385	1385	1385	1385	1385	1385	1385	1385	1390	1390	1390	1390	1390	1390	1390	1385	1385	1385	1390	1385	1385	1374	1374	1385	1390	1390	1390	1396	1396	1396	1390	1390	1390	1385	1385	1385	1385	1385	1385	1379	1379	1379	1385	1385	1385	1385	1390	1390	1390	1385	1385	1385	1385	1385	1390	1390	1390	1390	1390	1396	1390	1390	1390	1390	1390	1396	1396	1396	1396	1396	1396	1396	1396	1396	1396	1396	1396	1396	1402	1396	1396	1402	1402	1402	1402	1402	1402	1402	1402	1402	1402	1402	1402	1402	1402	1402	1402	1407	1407	1407	1407	1407	1407	1407	1407	1407	1413	1419	1425	1431	1431	1431	1431	1431	1431	1431	1431	1431	1437	1437	1437	1437	1437	1437	1437	1437	1437	1437	1437	1437	1437	1437	1437	1437	1437	1437	1437	1437	1437	1437	1443	1443	1443	1443	1443	1443	1443	1443	1443	1443	1443	1449	1449	1449	1449	1449	1449	1449	1455	1455	1455	1461	1461	1461	1461	1461	1461	1461	1461	1461	1461	1461	1461	1461	1461	1461	1461	1467	1461	1461	1461	1461	1461	1461	1461	1461	1467	1467	1461	1461	1461	1467	1467	1467	1467	1467	1467	1473	1473	1473	1473	1473	1473	1473	1473	1473	1473	1473	1473	1480	1480	1480	1480	1480	1480	1480	1480	1480	1480	1480	1473	1473	1480	1480	1480	1480	1480	1480	1480	1480	1486	1486	1486	1486	1486	1486	1486	1486	1486	1486	1486	1486	1486	1486	1486	1486	1486	1486	1486	1486	1486	1486	1486	1486	1486	1486	1486	1492	1492	1492	1499	1499	1499	1499	1499	1499	1492	1492	1492	1492	1492	1492	1492	1492	1492	1492	1499	1499	1499	1499	1499	1499	1499	1499	1499	1499	1499	1506	1506	1506	1506	1506	1506	1506	1506	1506	1506	1506	1512	1512	1512	1512	1512	1512	1512	1512	1512	1512	1512	1512	1512	1512	1512	1512	1519	1519	1519	1519	1519	1525	1525	1519	1519	1525	1525	1525	1525	1525	1525	1532	1532	1532	1532	1532	1532	1532	1532	1532	1532	1532	1532	1532	1532	1532	1532	1532	1532	1532	1532	1532	1532	1525	1525	1525	1525	1519	1519	1519	1512	1512	1512	1512	1506	1506	1506	1506	1492	1492	1492	1492	1492	1492	1486	1486	1486	1486	1486	1480	0	0	0	0	875	873	871	869	869	867	867	865	860	860	858	858	856	856	856	856	856	852	852	848	845	845	843	843	843	843	843	843	0	0	0	0	0	0	0	0	0	0	0	0	777	777	777	777	777	775	773	768	767	765	765	765	763	763	761	761	761	761	761	761	761	761	761	761	765	765	763	761	761	761	717	716	716	716	716	714	713	713	713	711	710	710	710	708	705	704	703	701	700	700	700	698	698	698	697	695	695	695	694	693	693	693	690	689	689	689	0	0	0	0	0	0	0	0	0	0	0	0
0	0	0	0	0	0	0	0	0	0	0	0	0	0	0	0	0	0	0	0	0	0	0	0	0	0	0	1347	1347	1347	1347	1347	1347	1352	1352	1352	1352	1352	1352	1358	1358	1352	1352	1358	1358	1352	1352	1352	1358	1358	1358	1358	1358	1358	1358	1358	1358	1358	1358	1358	1358	1358	1358	1358	1358	1358	1363	1363	1363	1363	1363	1368	1368	1368	1363	1363	1363	1358	1358	1358	1358	1358	1358	1358	1358	1363	1363	1363	1363	1363	1368	1368	1368	1363	1363	1363	1363	1363	1363	1368	1368	1368	1368	1368	1374	1368	1368	1374	1368	1368	1368	1368	1368	1368	1368	1374	1374	1374	1374	1374	1374	1374	1374	1374	1374	1374	1374	1374	1374	1379	1379	1379	1374	1374	1379	1379	1379	1379	1379	1379	1379	1379	1379	1379	1385	1385	1385	1385	1385	1385	1385	1385	1385	1390	1390	1379	1379	1385	1385	1385	1385	1358	1358	1368	1385	1385	1385	1379	1379	1385	1379	1374	1374	1374	1374	1374	1374	1374	1374	1379	1379	1379	1379	1379	1379	1379	1385	1385	1385	1379	1379	1379	1379	1385	1385	1385	1385	1385	1390	1390	1390	1390	1390	1390	1390	1390	1390	1390	1390	1390	1390	1390	1390	1390	1390	1390	1396	1396	1396	1396	1396	1396	1396	1396	1396	1396	1396	1396	1396	1396	1396	1402	1402	1402	1402	1402	1402	1402	1402	1402	1402	1402	1402	1402	1402	1402	1407	1413	1413	1419	1425	1425	1425	1425	1425	1425	1425	1425	1431	1431	1431	1431	1431	1431	1431	1431	1431	1431	1431	1431	1431	1431	1437	1437	1437	1437	1437	1437	1437	1437	1437	1437	1443	1443	1443	1443	1443	1443	1437	1437	1443	1443	1443	1443	1449	1449	1449	1449	1449	1449	1449	1455	1455	1455	1455	1455	1455	1455	1455	1455	1455	1455	1461	1461	1461	1461	1461	1461	1455	1455	1455	1455	1455	1455	1455	1455	1461	1461	1461	1461	1461	1461	1461	1461	1461	1461	1467	1467	1467	1473	1473	1473	1473	1473	1473	1467	1467	1467	1467	1473	1473	1473	1480	1480	1480	1480	1473	1473	1473	1467	1467	1467	1467	1473	1473	1473	1473	1473	1480	1480	1480	1480	1480	1480	1480	1480	1480	1480	1480	1480	1480	1480	1480	1480	1480	1480	1480	1480	1480	1480	1480	1480	1486	1486	1486	1486	1486	1486	1486	1486	1492	1492	1486	1486	1492	1486	1486	1486	1486	1486	1492	1492	1492	1492	1492	1492	1492	1492	1499	1499	1499	1499	1492	1492	1492	1499	1499	1499	1499	1506	1506	1506	1506	1506	1506	1506	1506	1506	1506	1506	1506	1506	1512	1512	1512	1512	1512	1512	1512	1512	1512	1512	1512	1512	1512	1512	1519	1519	1519	1519	1519	1519	1519	1519	1519	1519	1519	1519	1519	1525	1525	1525	1525	1532	1532	1532	1532	1532	1532	1532	1532	1532	1532	1532	1532	1532	1532	1532	1532	1532	1532	1525	1525	1525	1525	1525	1519	1519	1512	1512	1512	1512	1506	1506	1506	1506	1499	1492	1492	1492	1492	1492	1486	1486	1486	1486	1486	0	0	0	0	0	875	873	871	869	869	867	867	865	860	860	860	858	858	858	858	858	856	854	852	850	845	845	845	843	843	843	843	843	0	0	0	0	0	0	0	0	0	0	0	0	777	777	777	777	777	775	773	770	767	765	763	763	763	761	761	761	761	761	761	761	760	760	761	763	763	763	761	761	761	760	760	716	716	716	716	713	713	713	713	711	710	710	710	707	704	704	703	701	701	700	700	700	700	698	698	697	695	695	695	693	693	693	690	689	689	689	0	0	0	0	0	0	0	0	0	0	0	0
0	0	0	0	0	0	0	0	0	0	0	0	0	0	0	0	0	0	0	0	0	0	0	0	0	0	0	1347	1347	1347	1342	1342	1342	1347	1347	1347	1347	1352	1352	1352	1352	1352	1352	1352	1352	1352	1352	1352	1352	1352	1352	1352	1352	1352	1352	1352	1352	1352	1352	1358	1358	1358	1358	1358	1358	1358	1358	1358	1363	1363	1363	1363	1363	1363	1363	1358	1358	1358	1358	1352	1352	1358	1358	1358	1358	1358	1363	1358	1358	1363	1363	1363	1363	1363	1363	1363	1363	1363	1363	1363	1363	1363	1368	1368	1368	1368	1368	1368	1368	1368	1368	1368	1368	1368	1368	1368	1368	1368	1368	1368	1374	1374	1374	1374	1374	1374	1374	1374	1374	1374	1374	1374	1374	1374	1374	1374	1374	1374	1374	1379	1379	1379	1379	1379	1379	1379	1385	1385	1385	1385	1385	1385	1385	1385	1385	1379	1379	1379	1352	1352	1352	1352	1352	1352	1352	1352	1352	1352	1358	1358	1358	1368	1368	1368	1374	1374	1374	1374	1374	1374	1374	1374	1379	1379	1379	1379	1379	1379	1379	1379	1379	1379	1379	1379	1379	1379	1379	1379	1385	1385	1385	1385	1385	1385	1390	1390	1390	1390	1390	1390	1390	1390	1390	1390	1390	1390	1390	1390	1390	1390	1390	1390	1390	1390	1390	1390	1390	1390	1396	1396	1396	1396	1396	1396	1396	1396	1396	1396	1396	1396	1396	1396	1396	1396	1396	1396	1402	1407	1407	1413	1419	1419	1419	1419	1425	1425	1425	1425	1425	1425	1425	1425	1425	1425	1425	1425	1425	1425	1425	1431	1431	1431	1431	1437	1437	1437	1437	1437	1437	1437	1437	1437	1437	1437	1437	1437	1437	1437	1437	1437	1437	1437	1443	1443	1443	1443	1443	1443	1443	1443	1443	1449	1449	1449	1449	1449	1449	1449	1449	1449	1455	1455	1455	1455	1461	1461	1461	1461	1455	1455	1455	1455	1455	1455	1449	1449	1455	1455	1455	1455	1455	1455	1455	1461	1461	1461	1461	1461	1461	1467	1467	1467	1467	1467	1461	1461	1461	1461	1461	1467	1467	1467	1473	1473	1473	1473	1467	1467	1467	1467	1467	1467	1467	1467	1467	1467	1473	1473	1473	1473	1480	1480	1480	1480	1480	1473	1473	1473	1473	1473	1473	1473	1473	1480	1473	1480	1480	1480	1480	1480	1480	1480	1480	1480	1480	1480	1480	1486	1486	1486	1486	1486	1486	1486	1486	1486	1486	1486	1486	1486	1486	1486	1486	1486	1486	1486	1492	1492	1492	1492	1492	1492	1492	1492	1492	1492	1492	1499	1499	1499	1499	1499	1499	1499	1499	1499	1499	1499	1506	1506	1506	1506	1506	1506	1506	1506	1506	1506	1506	1506	1506	1512	1512	1512	1512	1512	1512	1512	1512	1519	1519	1519	1519	1519	1519	1519	1519	1519	1519	1525	1525	1525	1525	1525	1525	1525	1525	1525	1532	1532	1525	1525	1525	1525	1525	1532	1525	1525	1532	1532	1532	1532	1525	1525	1525	1519	1519	1512	1512	1512	1512	1512	1506	1506	1506	1506	1499	1499	1492	1492	1492	1492	1486	1486	1486	1486	1486	0	0	0	0	875	875	875	873	871	869	869	867	865	862	862	860	860	858	858	858	858	856	854	852	850	848	845	843	843	843	843	843	843	0	0	0	0	0	0	0	0	0	0	0	780	779	779	779	777	777	775	773	768	763	763	763	761	761	761	760	760	760	760	760	760	760	760	760	761	761	761	761	760	760	760	760	760	760	760	760	713	713	713	713	711	710	710	708	705	704	704	704	701	701	700	700	700	698	698	697	697	697	697	695	694	694	693	690	689	689	689	0	0	0	0	0	0	0	0	0	0	0	0
0	0	0	0	0	0	0	0	0	0	0	0	0	0	0	0	0	0	0	0	0	0	0	0	0	0	0	1342	1342	1342	1336	1336	1336	1342	1342	1342	1347	1347	1347	1352	1352	1352	1352	1352	1352	1347	1347	1347	1347	1347	1347	1347	1347	1352	1352	1352	1352	1352	1352	1352	1352	1352	1352	1352	1352	1352	1358	1358	1358	1358	1358	1358	1358	1358	1358	1358	1358	1352	1352	1352	1352	1352	1352	1352	1352	1352	1352	1358	1358	1358	1358	1358	1358	1358	1358	1358	1363	1363	1363	1363	1363	1363	1363	1363	1363	1363	1363	1363	1363	1363	1363	1363	1363	1363	1363	1368	1368	1368	1368	1368	1368	1368	1368	1368	1368	1368	1368	1368	1368	1368	1374	1374	1374	1374	1374	1374	1374	1374	1374	1374	1374	1374	1374	1374	1379	1379	1379	1379	1379	1379	1379	1379	1385	1385	1379	1379	1374	1374	1352	1347	1347	1347	1352	1347	1347	1347	1347	1352	1352	1352	1358	1358	1358	1363	1363	1368	1368	1368	1368	1368	1374	1374	1374	1374	1374	1374	1374	1374	1374	1374	1379	1374	1374	1379	1379	1379	1379	1379	1379	1379	1379	1379	1379	1385	1385	1385	1385	1385	1385	1385	1390	1390	1390	1390	1390	1390	1390	1390	1385	1385	1385	1385	1385	1385	1385	1385	1385	1390	1390	1390	1396	1396	1396	1396	1396	1396	1396	1396	1396	1396	1396	1396	1396	1396	1396	1396	1396	1402	1407	1407	1413	1413	1419	1419	1419	1419	1419	1419	1425	1419	1419	1419	1419	1419	1419	1419	1419	1425	1425	1425	1425	1425	1425	1431	1431	1431	1431	1431	1431	1431	1431	1431	1437	1437	1437	1437	1437	1437	1437	1437	1437	1437	1437	1437	1437	1437	1437	1443	1443	1443	1443	1443	1443	1443	1443	1443	1443	1443	1449	1449	1449	1449	1449	1449	1455	1455	1455	1455	1449	1449	1449	1449	1449	1449	1449	1449	1455	1455	1455	1455	1455	1455	1455	1455	1455	1455	1455	1461	1461	1461	1461	1461	1461	1461	1461	1461	1461	1461	1461	1461	1467	1467	1467	1467	1467	1467	1467	1467	1461	1461	1461	1461	1461	1461	1467	1467	1467	1467	1467	1467	1473	1473	1473	1473	1473	1467	1467	1467	1467	1467	1467	1473	1473	1473	1473	1473	1473	1473	1473	1473	1473	1480	1480	1480	1480	1480	1480	1480	1480	1480	1480	1480	1480	1480	1480	1480	1480	1480	1486	1486	1486	1486	1486	1486	1486	1486	1486	1486	1492	1492	1492	1492	1486	1486	1492	1492	1492	1492	1499	1499	1499	1499	1499	1499	1499	1492	1492	1499	1499	1506	1506	1506	1506	1506	1506	1506	1506	1506	1506	1506	1506	1506	1506	1506	1512	1512	1512	1512	1512	1512	1512	1512	1512	1512	1512	1512	1512	1512	1512	1519	1519	1519	1519	1519	1525	1525	1525	1525	1525	1525	1525	1525	1525	1525	1525	1525	1525	1525	1525	1525	1525	1525	1525	1525	1525	1519	1519	1512	1512	1512	1512	1512	1512	1506	1506	1506	1506	1499	1499	1499	1492	1492	1492	1492	1492	1492	0	0	0	0	0	875	875	875	873	871	869	869	869	867	862	862	862	860	860	858	858	858	856	854	852	850	848	845	843	841	841	841	841	843	0	0	0	0	0	0	0	0	0	0	0	780	779	779	779	777	775	775	772	768	763	763	761	760	760	761	760	760	760	760	760	760	760	760	760	760	760	760	760	760	760	760	760	760	760	760	760	713	713	713	713	711	710	710	708	705	704	704	704	701	701	700	700	700	698	698	697	697	697	697	695	695	694	694	691	689	689	689	0	0	0	0	0	0	0	0	0	0	0	0
0	0	0	0	0	0	0	0	0	0	0	0	0	0	0	0	0	0	0	0	0	0	0	0	0	0	0	1336	1336	1336	1336	1336	1336	1336	1336	1336	1336	1336	1336	1336	1336	1336	1342	1342	1342	1342	1342	1342	1342	1342	1342	1342	1342	1347	1347	1347	1347	1347	1347	1347	1347	1347	1347	1347	1347	1347	1347	1347	1352	1352	1352	1352	1352	1352	1352	1352	1352	1352	1352	1352	1352	1352	1352	1352	1352	1352	1352	1352	1352	1352	1352	1352	1352	1352	1352	1352	1352	1352	1352	1352	1352	1352	1352	1352	1352	1352	1352	1352	1352	1352	1352	1352	1352	1358	1358	1358	1358	1363	1363	1363	1363	1363	1368	1363	1363	1363	1368	1368	1368	1368	1368	1368	1368	1368	1368	1368	1368	1368	1368	1368	1368	1368	1368	1368	1368	1368	1374	1374	1374	1374	1374	1374	1374	1374	1374	1374	1368	1368	1352	1347	1347	1347	1342	1342	1342	1342	1342	1342	1347	1347	1347	1352	1352	1352	1358	1358	1358	1363	1363	1363	1363	1368	1368	1368	1368	1374	1368	1368	1368	1374	1374	1374	1374	1374	1374	1374	1374	1374	1374	1374	1374	1374	1374	1374	1379	1379	1379	1379	1379	1379	1379	1379	1379	1379	1379	1379	1379	1379	1379	1379	1379	1379	1379	1379	1379	1385	1385	1385	1385	1385	1385	1385	1385	1385	1385	1390	1390	1390	1390	1390	1390	1390	1390	1390	1390	1390	1390	1396	1396	1402	1402	1407	1413	1413	1413	1413	1413	1419	1419	1419	1419	1419	1419	1419	1419	1419	1419	1419	1419	1419	1419	1419	1419	1419	1425	1425	1425	1425	1425	1425	1425	1425	1425	1425	1425	1425	1425	1425	1425	1425	1425	1431	1431	1431	1431	1431	1431	1437	1437	1437	1437	1437	1437	1437	1437	1437	1437	1437	1437	1443	1443	1443	1443	1443	1443	1443	1443	1443	1443	1443	1443	1443	1443	1443	1437	1437	1443	1443	1449	1449	1449	1449	1449	1449	1449	1449	1449	1449	1449	1449	1449	1449	1449	1455	1455	1455	1455	1455	1455	1455	1455	1455	1455	1461	1461	1461	1461	1461	1461	1461	1461	1461	1461	1461	1461	1461	1461	1461	1461	1461	1461	1461	1461	1461	1461	1461	1461	1461	1461	1467	1467	1467	1467	1467	1467	1467	1467	1467	1467	1473	1473	1473	1473	1473	1473	1473	1473	1473	1473	1473	1480	1473	1473	1473	1473	1473	1473	1480	1480	1480	1486	1486	1486	1486	1486	1486	1486	1486	1486	1486	1486	1486	1486	1486	1486	1486	1486	1492	1492	1492	1492	1492	1492	1492	1492	1492	1492	1492	1499	1499	1499	1499	1499	1499	1499	1499	1499	1499	1499	1506	1506	1506	1506	1506	1512	1506	1506	1506	1506	1512	1512	1512	1512	1512	1512	1512	1512	1512	1512	1512	1519	1519	1519	1519	1519	1519	1519	1519	1525	1525	1519	1519	1519	1519	1519	1519	1519	1519	1519	1525	1525	1525	1525	1525	1525	1525	1525	1519	1519	1512	1512	1512	1512	1512	1506	1506	1506	1499	1499	1499	1499	1492	1492	1486	1486	1492	0	0	0	0	880	878	878	875	873	871	871	869	869	867	865	865	862	862	860	860	858	858	856	854	854	850	848	845	843	841	841	841	841	0	0	0	0	0	0	0	0	0	0	0	779	779	779	779	779	777	775	775	772	768	763	763	761	760	760	760	760	760	760	760	760	760	760	760	760	760	760	760	760	758	758	758	758	760	761	761	761	761	758	758	708	708	708	708	707	705	704	704	704	703	701	701	701	700	700	698	698	697	697	697	695	695	694	694	693	690	690	690	0	0	0	0	0	0	0	0	0	0	0	0
0	0	0	0	0	0	0	0	0	0	0	0	0	0	0	0	0	0	0	0	0	0	0	0	0	0	0	1331	1331	1331	1331	1331	1331	1331	1331	1331	1331	1331	1336	1336	1336	1336	1336	1336	1336	1336	1336	1336	1336	1336	1336	1336	1336	1342	1342	1342	1342	1342	1342	1347	1347	1347	1347	1347	1347	1347	1342	1342	1347	1347	1347	1347	1347	1347	1352	1352	1352	1347	1347	1347	1352	1347	1347	1347	1347	1347	1347	1352	1352	1352	1352	1352	1352	1352	1352	1352	1352	1352	1352	1352	1352	1352	1352	1352	1352	1352	1352	1352	1352	1352	1352	1352	1352	1352	1352	1358	1358	1358	1358	1358	1358	1363	1363	1363	1363	1363	1363	1363	1363	1363	1363	1363	1368	1368	1368	1368	1368	1368	1368	1368	1368	1368	1368	1368	1368	1368	1368	1368	1368	1368	1368	1368	1374	1374	1374	1374	1368	1363	1352	1347	1347	1342	1336	1336	1342	1342	1342	1342	1347	1347	1352	1352	1352	1352	1358	1358	1358	1358	1358	1363	1363	1363	1368	1368	1368	1368	1368	1368	1368	1374	1368	1368	1368	1368	1368	1368	1368	1368	1374	1374	1368	1368	1374	1374	1374	1374	1374	1374	1374	1374	1374	1374	1374	1374	1374	1374	1374	1374	1374	1374	1379	1374	1374	1374	1379	1379	1379	1379	1385	1385	1385	1385	1385	1385	1385	1385	1385	1390	1390	1390	1390	1390	1385	1385	1385	1390	1390	1390	1390	1390	1396	1402	1407	1413	1413	1413	1413	1413	1413	1413	1413	1413	1413	1413	1413	1413	1419	1413	1413	1419	1419	1419	1419	1419	1419	1419	1419	1419	1419	1419	1419	1419	1425	1425	1425	1425	1425	1425	1425	1425	1425	1425	1425	1431	1431	1431	1431	1431	1431	1431	1431	1437	1437	1437	1437	1437	1437	1437	1437	1437	1437	1437	1443	1443	1443	1443	1443	1443	1443	1437	1437	1437	1437	1437	1437	1437	1437	1443	1443	1443	1443	1443	1449	1449	1443	1443	1443	1443	1449	1449	1449	1449	1455	1455	1449	1449	1449	1449	1449	1455	1455	1455	1455	1455	1455	1455	1455	1455	1461	1461	1461	1461	1461	1455	1455	1455	1461	1461	1461	1461	1461	1461	1461	1461	1461	1461	1461	1461	1461	1461	1461	1461	1461	1461	1461	1461	1461	1461	1467	1467	1467	1467	1467	1467	1467	1467	1467	1467	1467	1467	1467	1467	1467	1467	1467	1467	1467	1467	1473	1473	1473	1480	1480	1480	1480	1480	1480	1480	1480	1480	1480	1480	1480	1480	1480	1480	1480	1480	1486	1486	1486	1486	1486	1486	1486	1486	1486	1486	1486	1486	1492	1492	1492	1492	1492	1499	1499	1499	1499	1499	1499	1499	1499	1506	1506	1506	1506	1506	1506	1506	1506	1506	1506	1506	1506	1512	1512	1512	1512	1512	1512	1512	1512	1512	1512	1512	1512	1512	1519	1519	1512	1512	1512	1512	1512	1519	1519	1512	1512	1519	1519	1519	1519	1519	1525	1525	1525	1519	1519	1512	1512	1512	1512	1512	1506	1506	1506	1506	1499	1499	1499	1492	1492	1486	1486	0	0	0	0	0	878	875	875	875	873	871	869	869	869	867	865	865	865	862	860	860	860	858	856	854	854	850	848	845	843	841	841	841	841	0	0	0	0	0	0	0	0	0	0	782	779	779	779	779	777	777	775	775	772	768	761	761	760	760	758	758	758	758	758	758	760	755	755	758	758	753	753	753	756	758	756	756	756	758	760	760	760	758	758	758	708	708	708	708	707	705	704	704	704	703	703	703	703	701	700	700	700	698	698	697	697	697	697	695	693	690	690	690	0	0	0	0	0	0	0	0	0	0	0	0
0	0	0	0	0	0	0	0	0	0	0	0	0	0	0	0	0	0	0	0	0	0	0	0	0	0	0	1326	1326	1326	1326	1326	1331	1326	1326	1331	1331	1331	1331	1331	1331	1331	1336	1336	1336	1336	1336	1336	1336	1336	1336	1336	1336	1336	1336	1336	1342	1342	1342	1342	1342	1342	1342	1342	1342	1342	1342	1336	1336	1342	1342	1342	1347	1347	1347	1352	1352	1347	1347	1347	1347	1347	1347	1347	1347	1347	1347	1347	1347	1347	1347	1347	1347	1347	1352	1352	1352	1352	1352	1352	1352	1347	1347	1352	1347	1347	1347	1347	1352	1347	1347	1352	1352	1352	1352	1352	1352	1352	1352	1352	1358	1358	1358	1358	1358	1358	1358	1358	1358	1358	1358	1358	1363	1363	1363	1363	1363	1363	1363	1363	1363	1368	1368	1363	1363	1368	1368	1368	1363	1363	1368	1368	1368	1368	1368	1368	1368	1363	1352	1342	1342	1336	1336	1336	1336	1336	1336	1336	1342	1347	1347	1352	1352	1352	1352	1352	1352	1358	1358	1358	1358	1363	1363	1363	1363	1363	1363	1368	1368	1368	1368	1368	1368	1368	1368	1368	1368	1368	1368	1368	1368	1368	1368	1368	1368	1368	1368	1368	1368	1368	1368	1374	1374	1374	1374	1374	1374	1374	1374	1374	1374	1374	1374	1374	1374	1374	1374	1374	1379	1379	1379	1379	1379	1379	1379	1379	1385	1385	1385	1385	1385	1385	1385	1385	1385	1385	1385	1385	1385	1385	1390	1396	1402	1407	1407	1407	1413	1413	1413	1413	1413	1413	1413	1413	1413	1413	1413	1413	1413	1413	1413	1413	1413	1413	1413	1419	1419	1419	1419	1419	1419	1419	1419	1419	1419	1419	1419	1419	1419	1419	1419	1419	1419	1425	1419	1419	1425	1425	1425	1431	1431	1431	1431	1431	1431	1431	1431	1431	1437	1437	1437	1437	1437	1437	1437	1437	1437	1443	1443	1437	1437	1437	1437	1437	1437	1437	1437	1437	1443	1443	1443	1443	1443	1443	1437	1437	1437	1443	1443	1443	1443	1443	1449	1449	1449	1449	1449	1449	1449	1449	1449	1449	1449	1455	1455	1455	1455	1455	1455	1455	1455	1455	1455	1455	1455	1455	1455	1455	1455	1455	1461	1461	1461	1461	1455	1455	1455	1455	1455	1455	1455	1455	1455	1455	1455	1455	1455	1461	1461	1461	1461	1461	1461	1461	1461	1461	1461	1461	1461	1461	1461	1461	1461	1461	1461	1461	1461	1467	1467	1473	1473	1473	1480	1480	1480	1480	1480	1480	1480	1473	1473	1480	1480	1473	1473	1480	1480	1480	1480	1480	1480	1480	1480	1480	1480	1480	1486	1486	1486	1486	1486	1486	1486	1486	1486	1492	1492	1492	1492	1492	1492	1492	1492	1499	1499	1499	1499	1499	1499	1499	1499	1499	1499	1499	1499	1506	1506	1506	1506	1506	1506	1506	1506	1506	1506	1506	1506	1506	1506	1506	1512	1512	1512	1512	1512	1512	1512	1512	1512	1512	1512	1512	1512	1512	1512	1519	1512	1512	1512	1512	1512	1512	1512	1512	1506	1506	1506	1506	1506	1499	1499	1492	1492	1486	1486	0	0	0	0	0	878	875	875	875	873	871	869	869	869	867	865	865	865	862	860	860	858	858	856	854	854	850	848	845	845	845	841	841	0	0	0	0	0	0	0	0	0	0	0	780	780	779	779	777	777	775	775	775	772	768	761	761	760	758	758	758	758	758	756	755	755	753	752	752	753	753	753	753	756	756	756	756	756	758	760	758	758	758	758	0	756	756	707	707	707	705	704	704	704	703	703	703	703	701	700	700	700	698	698	698	697	697	697	695	694	694	694	690	0	0	0	0	0	0	0	0	0	0	0	0
0	0	0	0	0	0	0	0	0	0	0	0	0	0	0	0	0	0	0	0	0	0	0	0	0	0	0	1326	1326	1326	1326	1326	1326	1326	1326	1326	1326	1331	1331	1331	1331	1331	1331	1331	1331	1336	1336	1336	1336	1336	1336	1336	1336	1336	1336	1336	1336	1336	1336	1336	1336	1336	1336	1336	1336	1336	1336	1336	1336	1342	1342	1342	1342	1342	1347	1347	1347	1342	1342	1342	1347	1342	1342	1342	1342	1342	1342	1347	1347	1347	1347	1347	1347	1347	1347	1347	1347	1347	1347	1347	1347	1347	1347	1347	1347	1347	1347	1347	1347	1347	1347	1347	1352	1352	1352	1352	1352	1352	1352	1352	1352	1352	1352	1352	1352	1352	1352	1352	1352	1352	1358	1358	1358	1358	1358	1358	1358	1363	1358	1358	1358	1363	1363	1363	1363	1363	1363	1363	1358	1358	1363	1363	1368	1368	1368	1368	1368	1363	1352	1342	1342	1336	1331	1331	1331	1336	1336	1336	1336	1336	1347	1347	1347	1347	1352	1352	1352	1352	1352	1358	1352	1352	1358	1363	1363	1363	1363	1363	1368	1368	1363	1363	1363	1363	1363	1363	1363	1368	1368	1368	1363	1363	1363	1363	1368	1368	1368	1368	1368	1368	1368	1368	1368	1368	1368	1374	1374	1374	1374	1374	1374	1368	1368	1374	1374	1374	1374	1374	1374	1374	1374	1374	1374	1374	1374	1374	1379	1379	1379	1379	1379	1379	1379	1379	1379	1379	1379	1379	1379	1379	1379	1385	1390	1390	1402	1402	1407	1407	1407	1407	1407	1407	1407	1407	1407	1413	1407	1407	1407	1413	1413	1413	1413	1413	1413	1413	1413	1413	1413	1413	1413	1413	1413	1419	1419	1419	1419	1419	1419	1419	1419	1419	1419	1419	1419	1419	1419	1419	1419	1425	1425	1425	1425	1425	1431	1431	1425	1425	1431	1431	1431	1431	1431	1437	1437	1437	1437	1437	1437	1431	1431	1431	1437	1431	1431	1431	1437	1437	1437	1437	1437	1437	1443	1437	1437	1437	1437	1437	1437	1437	1437	1443	1443	1449	1443	1443	1449	1443	1443	1443	1443	1443	1443	1449	1449	1449	1449	1449	1449	1455	1455	1455	1455	1455	1455	1455	1455	1455	1455	1455	1455	1461	1461	1455	1455	1455	1455	1455	1455	1455	1455	1455	1455	1455	1455	1455	1455	1455	1461	1461	1461	1461	1461	1461	1461	1461	1461	1461	1461	1461	1461	1461	1461	1461	1461	1461	1461	1461	1461	1461	1467	1467	1473	1473	1473	1473	1480	1473	1473	1473	1473	1473	1473	1467	1467	1473	1473	1473	1473	1473	1473	1473	1473	1473	1473	1480	1480	1480	1480	1480	1486	1486	1486	1486	1486	1486	1486	1486	1486	1486	1486	1492	1492	1492	1499	1499	1499	1499	1499	1492	1492	1499	1499	1499	1499	1499	1499	1506	1506	1506	1506	1506	1506	1506	1506	1506	1506	1506	1506	1506	1506	1506	1506	1506	1506	1506	1506	1506	1506	1506	1506	1506	1506	1512	1512	1512	1512	1512	1512	1512	1512	1512	1512	1512	1512	1506	1506	1506	1506	1499	1499	1492	1492	1486	1486	0	0	0	0	0	878	875	875	875	873	871	871	869	869	867	865	865	865	862	860	860	858	858	856	856	854	852	852	852	845	845	0	0	0	0	0	0	0	0	0	0	0	0	0	780	780	779	779	777	777	775	775	775	772	768	761	761	760	758	758	756	756	755	753	753	753	753	750	750	752	752	752	752	753	753	755	755	755	756	758	756	756	756	755	756	756	748	748	707	707	705	704	704	704	704	704	703	703	701	700	700	700	698	698	698	697	697	697	695	695	695	695	0	0	0	0	0	0	0	0	0	0	0	0	0
0	0	0	0	0	0	0	0	0	0	0	0	0	0	0	0	0	0	0	0	0	0	0	0	0	0	0	1321	1321	1321	1321	1321	1326	1321	1321	1326	1326	1326	1331	1331	1326	1326	1331	1331	1331	1331	1331	1331	1331	1336	1336	1331	1331	1331	1331	1331	1331	1331	1331	1331	1336	1336	1336	1336	1336	1336	1336	1336	1336	1336	1336	1336	1336	1342	1342	1342	1342	1336	1336	1336	1336	1336	1336	1342	1336	1336	1342	1342	1342	1342	1342	1342	1342	1342	1342	1342	1347	1347	1347	1347	1347	1347	1347	1347	1347	1347	1347	1347	1347	1347	1347	1347	1347	1347	1347	1347	1347	1347	1347	1347	1347	1347	1347	1352	1352	1352	1352	1352	1352	1352	1352	1352	1352	1352	1352	1352	1358	1358	1358	1358	1358	1363	1363	1358	1358	1363	1363	1363	1358	1358	1363	1363	1363	1368	1368	1368	1363	1363	1352	1342	1342	1336	1331	1331	1331	1331	1331	1331	1336	1336	1342	1347	1347	1347	1347	1352	1352	1352	1352	1352	1352	1352	1352	1358	1358	1363	1363	1363	1363	1363	1358	1358	1358	1363	1358	1358	1363	1363	1363	1363	1363	1363	1363	1363	1363	1363	1363	1368	1368	1368	1368	1368	1368	1368	1368	1368	1368	1374	1374	1374	1368	1368	1368	1368	1368	1374	1374	1374	1374	1374	1374	1374	1374	1374	1374	1374	1374	1379	1379	1379	1374	1374	1379	1374	1374	1374	1374	1374	1374	1374	1374	1374	1374	1379	1396	1396	1402	1402	1402	1402	1402	1402	1402	1402	1402	1407	1407	1402	1402	1407	1407	1407	1407	1407	1407	1407	1407	1407	1413	1413	1413	1413	1413	1413	1413	1413	1413	1413	1413	1413	1413	1413	1413	1419	1413	1413	1419	1419	1419	1419	1419	1425	1425	1425	1425	1425	1425	1425	1425	1425	1425	1431	1431	1431	1431	1431	1437	1437	1437	1431	1431	1431	1431	1431	1431	1431	1431	1437	1437	1437	1437	1437	1437	1437	1437	1437	1437	1437	1437	1437	1437	1437	1437	1443	1443	1443	1443	1443	1443	1443	1443	1443	1443	1443	1443	1443	1443	1443	1449	1449	1449	1449	1449	1449	1449	1449	1449	1449	1455	1455	1455	1455	1455	1455	1455	1455	1455	1455	1455	1455	1455	1455	1455	1455	1455	1449	1449	1455	1455	1455	1455	1455	1455	1455	1455	1455	1455	1455	1455	1461	1461	1461	1461	1461	1461	1461	1461	1461	1461	1461	1461	1467	1467	1467	1473	1473	1473	1473	1473	1467	1467	1467	1467	1467	1467	1467	1467	1467	1467	1467	1467	1467	1473	1473	1473	1473	1480	1480	1480	1480	1480	1480	1480	1480	1480	1486	1480	1480	1480	1480	1486	1486	1486	1486	1492	1492	1492	1492	1492	1492	1492	1492	1492	1492	1499	1499	1499	1499	1499	1499	1499	1499	1499	1506	1499	1499	1506	1506	1506	1506	1506	1506	1506	1506	1506	1506	1506	1506	1506	1506	1506	1506	1506	1506	1512	1512	1506	1506	1512	1506	1506	1506	1512	1512	1512	1506	1506	1506	1506	1506	1506	1499	1499	1499	1486	0	0	0	0	880	878	878	875	873	873	871	871	871	869	869	867	865	865	862	862	860	860	858	856	856	854	854	854	854	0	0	0	0	0	0	0	0	0	0	0	0	0	0	0	780	780	780	779	779	777	775	773	773	772	768	761	761	760	758	756	756	755	755	753	753	753	752	748	748	750	750	752	752	750	750	752	753	753	755	756	756	756	755	755	756	756	748	748	748	748	705	705	704	704	704	704	704	703	703	701	701	700	700	700	698	698	698	698	697	695	694	694	694	694	0	0	0	0	0	0	0	0	0	0	0
0	0	0	0	0	0	0	0	0	0	0	0	0	0	0	0	0	0	0	0	0	0	0	0	0	0	0	1321	1321	1321	1321	1321	1321	1316	1316	1321	1321	1321	1326	1326	1326	1326	1326	1326	1326	1326	1331	1331	1331	1331	1331	1331	1331	1331	1331	1331	1331	1331	1331	1331	1331	1331	1331	1331	1331	1336	1336	1336	1336	1336	1336	1336	1336	1336	1336	1336	1336	1331	1331	1331	1331	1331	1331	1331	1331	1331	1336	1336	1336	1336	1336	1336	1336	1336	1336	1336	1342	1342	1342	1342	1342	1342	1342	1342	1342	1342	1342	1342	1342	1342	1347	1347	1347	1347	1347	1347	1347	1347	1347	1347	1347	1347	1347	1347	1347	1347	1347	1347	1347	1347	1347	1347	1352	1352	1352	1352	1352	1352	1352	1352	1352	1358	1358	1358	1358	1358	1358	1358	1358	1358	1358	1358	1358	1363	1363	1363	1363	1363	1352	1342	1342	1336	1331	1331	1331	1331	1331	1331	1331	1331	1336	1342	1342	1342	1347	1347	1347	1347	1347	1347	1347	1347	1352	1352	1352	1352	1352	1358	1358	1358	1352	1352	1352	1358	1352	1352	1358	1358	1358	1358	1358	1358	1358	1358	1358	1363	1363	1363	1363	1363	1363	1363	1363	1363	1368	1368	1368	1368	1368	1368	1368	1363	1363	1368	1368	1368	1368	1368	1374	1374	1374	1368	1368	1368	1368	1368	1368	1368	1368	1368	1374	1374	1374	1374	1374	1374	1374	1368	1368	1368	1374	1374	1374	1374	1385	1396	1396	1396	1396	1396	1402	1402	1402	1402	1402	1402	1402	1402	1402	1402	1402	1402	1402	1402	1402	1407	1407	1407	1407	1407	1413	1407	1407	1413	1413	1413	1413	1413	1413	1413	1413	1413	1413	1413	1413	1413	1413	1413	1413	1419	1419	1419	1419	1419	1419	1425	1419	1419	1425	1419	1419	1425	1425	1431	1431	1431	1431	1437	1437	1425	1425	1425	1431	1431	1431	1431	1431	1431	1431	1431	1431	1431	1437	1437	1437	1437	1437	1437	1437	1437	1437	1437	1437	1437	1437	1437	1437	1437	1437	1437	1437	1437	1437	1437	1437	1437	1443	1443	1443	1443	1443	1443	1443	1443	1443	1449	1449	1449	1449	1449	1449	1455	1455	1449	1449	1449	1449	1449	1449	1449	1449	1449	1449	1449	1449	1449	1449	1449	1449	1449	1449	1455	1455	1455	1455	1455	1455	1455	1455	1455	1455	1455	1455	1455	1455	1455	1455	1455	1455	1455	1461	1461	1461	1461	1461	1467	1467	1467	1467	1467	1467	1467	1467	1461	1461	1461	1461	1467	1467	1467	1467	1467	1467	1467	1467	1473	1473	1473	1473	1473	1480	1480	1480	1480	1480	1480	1480	1480	1480	1480	1480	1480	1480	1486	1486	1486	1486	1486	1486	1486	1486	1486	1486	1486	1492	1492	1492	1492	1492	1492	1492	1492	1492	1499	1499	1499	1499	1499	1506	1506	1506	1506	1506	1506	1506	1499	1499	1499	1499	1499	1499	1499	1499	1506	1506	1506	1506	1506	1506	1506	1506	1506	1506	1506	1506	1506	1506	1506	1506	1506	1506	1512	1506	1506	0	0	0	0	0	880	878	878	875	873	873	871	871	871	871	869	867	865	865	862	862	860	860	858	858	856	856	858	858	854	0	0	0	0	0	0	0	0	0	0	0	0	784	784	780	780	780	780	779	779	777	775	772	772	770	768	768	763	760	756	756	756	755	755	753	752	750	748	748	748	748	748	748	748	748	748	748	748	748	750	752	750	750	750	750	750	748	748	747	743	743	743	705	705	704	703	703	704	704	703	701	701	701	700	700	698	698	698	697	695	695	694	694	694	694	0	0	0	0	0	0	0	0	0	0	0
0	0	0	0	0	0	0	0	0	0	0	0	0	0	0	0	0	0	0	0	0	0	0	0	0	0	0	1316	1316	1316	1316	1316	1316	1316	1316	1316	1316	1321	1321	1321	1326	1326	1326	1321	1321	1321	1326	1326	1326	1331	1331	1331	1331	1326	1326	1326	1326	1326	1326	1326	1326	1326	1331	1331	1331	1331	1331	1331	1336	1336	1331	1331	1336	1336	1336	1336	1331	1326	1326	1326	1326	1326	1326	1331	1331	1331	1331	1331	1331	1331	1331	1331	1336	1336	1336	1336	1336	1342	1342	1342	1342	1342	1342	1342	1336	1336	1336	1342	1342	1342	1342	1342	1342	1342	1342	1347	1347	1342	1342	1342	1347	1347	1342	1342	1342	1347	1347	1347	1347	1347	1347	1347	1347	1347	1347	1347	1347	1352	1352	1352	1352	1352	1352	1352	1352	1352	1352	1352	1352	1352	1352	1352	1358	1363	1363	1363	1363	1358	1352	1342	1342	1336	1331	1331	1331	1331	1331	1331	1331	1331	1331	1336	1336	1336	1342	1342	1342	1342	1347	1347	1347	1347	1352	1352	1352	1352	1352	1352	1352	1352	1352	1352	1352	1352	1352	1352	1352	1352	1352	1352	1352	1352	1352	1352	1352	1358	1358	1358	1358	1358	1358	1358	1358	1363	1363	1368	1368	1368	1368	1368	1363	1363	1363	1363	1363	1368	1368	1368	1368	1368	1368	1368	1368	1368	1368	1368	1368	1368	1368	1368	1368	1368	1368	1368	1368	1368	1368	1368	1368	1368	1368	1368	1368	1374	1374	1379	1396	1396	1396	1396	1396	1396	1396	1396	1396	1396	1396	1396	1396	1396	1402	1402	1402	1402	1402	1402	1402	1402	1402	1402	1407	1407	1407	1407	1407	1407	1413	1413	1413	1413	1407	1407	1407	1407	1413	1413	1413	1413	1413	1413	1413	1419	1419	1419	1419	1419	1419	1419	1419	1419	1419	1419	1419	1425	1425	1425	1425	1431	1431	1425	1425	1425	1425	1425	1425	1425	1425	1431	1431	1431	1431	1431	1431	1431	1431	1431	1431	1431	1431	1431	1431	1431	1431	1431	1437	1437	1437	1437	1437	1437	1437	1437	1437	1437	1437	1437	1437	1437	1437	1437	1437	1437	1437	1437	1437	1443	1443	1443	1449	1449	1449	1449	1449	1449	1449	1443	1443	1449	1449	1449	1449	1449	1449	1449	1443	1443	1443	1443	1449	1449	1449	1449	1449	1449	1449	1449	1449	1449	1449	1449	1449	1449	1455	1455	1455	1455	1455	1455	1455	1455	1455	1455	1455	1455	1455	1461	1461	1461	1461	1461	1461	1461	1461	1461	1461	1461	1461	1461	1461	1461	1461	1461	1467	1467	1467	1467	1473	1473	1473	1473	1473	1473	1480	1473	1473	1473	1473	1473	1473	1473	1473	1473	1480	1480	1480	1480	1480	1480	1480	1480	1480	1480	1486	1486	1486	1486	1486	1486	1486	1486	1486	1492	1492	1492	1492	1492	1499	1499	1499	1499	1499	1499	1499	1499	1499	1499	1492	1492	1499	1499	1499	1492	1492	1499	1506	1506	1506	1506	1506	1506	1506	1506	1506	1499	1499	1506	1506	1506	1506	1506	1506	1512	1512	1506	0	0	0	0	882	880	878	878	875	875	873	873	871	871	871	871	867	867	865	862	862	860	860	858	858	858	858	858	858	0	0	0	0	0	0	0	0	0	0	0	0	0	784	784	782	782	782	780	779	779	777	773	772	770	768	767	761	761	760	758	756	756	755	753	752	750	748	748	748	748	748	748	747	747	747	747	747	747	747	748	750	750	750	750	750	748	748	747	747	743	743	745	745	740	740	703	703	704	704	703	701	701	701	700	700	698	698	698	697	695	695	694	694	694	694	0	0	0	0	0	0	0	0	0	0	0
0	0	0	0	0	0	0	0	0	0	0	0	0	0	0	0	0	0	0	0	0	0	0	0	0	0	0	1316	1316	1316	1316	1316	1316	1316	1316	1316	1316	1316	1316	1321	1321	1321	1321	1321	1321	1321	1321	1321	1321	1321	1321	1326	1326	1321	1321	1321	1326	1326	1326	1326	1326	1326	1331	1331	1331	1331	1331	1331	1331	1331	1331	1331	1331	1331	1331	1331	1331	1326	1326	1326	1326	1326	1326	1326	1326	1326	1331	1331	1331	1331	1331	1331	1331	1331	1331	1331	1336	1336	1336	1336	1336	1336	1336	1336	1336	1336	1336	1336	1336	1336	1336	1336	1342	1342	1342	1342	1342	1342	1342	1342	1342	1342	1342	1342	1342	1342	1347	1347	1347	1347	1347	1347	1347	1347	1347	1347	1347	1347	1347	1347	1347	1352	1352	1352	1352	1352	1352	1352	1352	1352	1352	1352	1352	1352	1358	1358	1358	1352	1352	1347	1342	1336	1331	1331	1331	1326	1326	1326	1331	1331	1331	1331	1331	1331	1336	1342	1342	1342	1342	1342	1342	1342	1347	1347	1347	1347	1347	1352	1352	1352	1352	1352	1352	1352	1352	1352	1352	1352	1352	1352	1352	1352	1352	1352	1352	1352	1352	1352	1352	1352	1352	1358	1358	1358	1363	1363	1363	1363	1363	1363	1358	1358	1358	1358	1358	1363	1363	1363	1363	1363	1368	1363	1363	1363	1363	1363	1363	1363	1363	1363	1363	1368	1368	1368	1368	1368	1368	1368	1368	1368	1368	1368	1368	1368	1374	1374	1390	1390	1390	1390	1396	1396	1396	1396	1396	1396	1396	1390	1390	1396	1396	1396	1396	1396	1396	1396	1396	1396	1402	1402	1402	1402	1402	1407	1407	1407	1407	1407	1407	1407	1402	1402	1407	1407	1407	1407	1407	1407	1413	1413	1413	1413	1413	1413	1419	1419	1419	1419	1419	1419	1419	1419	1419	1419	1419	1419	1425	1425	1425	1419	1419	1419	1425	1419	1419	1419	1425	1425	1425	1425	1425	1425	1431	1431	1431	1431	1431	1431	1431	1431	1431	1431	1431	1431	1431	1431	1431	1431	1431	1431	1437	1437	1437	1437	1437	1431	1431	1431	1431	1431	1431	1431	1431	1431	1431	1437	1437	1443	1443	1443	1443	1449	1443	1443	1443	1437	1437	1443	1443	1443	1443	1443	1443	1443	1443	1437	1437	1437	1443	1443	1443	1443	1449	1449	1449	1449	1449	1443	1443	1449	1449	1449	1449	1449	1455	1449	1449	1449	1449	1449	1455	1455	1455	1449	1449	1455	1455	1455	1455	1455	1461	1461	1461	1461	1461	1461	1461	1461	1461	1461	1461	1461	1461	1461	1461	1467	1467	1467	1467	1467	1473	1473	1473	1473	1473	1473	1473	1473	1467	1467	1467	1467	1473	1473	1473	1473	1480	1480	1480	1480	1480	1480	1480	1486	1486	1486	1486	1486	1486	1486	1486	1486	1486	1486	1486	1486	1492	1492	1499	1499	1499	1499	1492	1492	1492	1492	1486	1486	1492	1492	1492	1492	1492	1499	1499	1506	1506	1506	1506	1506	1506	1506	1506	1499	1499	1499	1506	1506	1499	1499	1499	1512	1512	0	0	0	0	884	882	880	878	878	875	875	873	873	873	871	871	871	869	867	865	862	862	860	860	858	858	858	858	860	860	0	0	0	0	0	0	0	0	0	0	0	0	0	786	786	782	782	782	780	779	779	775	773	770	770	767	765	761	761	760	758	756	756	755	755	753	752	750	748	748	748	748	747	747	747	747	745	745	745	745	747	747	747	748	748	748	747	747	747	747	745	745	745	745	745	745	745	745	745	745	703	701	701	700	700	700	698	698	697	695	695	695	694	694	694	694	0	0	0	0	0	0	0	0	0	0	0
0	0	0	0	0	0	0	0	0	0	0	0	0	0	0	0	0	0	0	0	0	0	0	0	0	0	0	1311	1311	1311	1311	1311	1311	1311	1311	1311	1311	1316	1316	1316	1316	1316	1316	1316	1316	1321	1321	1321	1321	1321	1321	1321	1321	1321	1321	1321	1321	1321	1321	1326	1326	1326	1326	1326	1326	1326	1331	1331	1331	1331	1331	1331	1331	1331	1326	1326	1326	1326	1326	1326	1326	1326	1326	1326	1326	1326	1326	1331	1331	1331	1331	1331	1331	1331	1326	1326	1331	1331	1331	1331	1331	1331	1331	1331	1331	1331	1331	1331	1336	1336	1336	1336	1336	1336	1336	1342	1342	1342	1336	1336	1342	1342	1342	1342	1342	1342	1342	1342	1342	1342	1342	1342	1347	1347	1347	1347	1347	1347	1347	1347	1347	1347	1347	1347	1352	1352	1352	1352	1347	1347	1352	1352	1352	1352	1352	1352	1352	1352	1347	1342	1342	1336	1331	1331	1326	1326	1326	1326	1326	1326	1326	1331	1331	1331	1331	1331	1336	1336	1336	1336	1336	1342	1342	1342	1347	1347	1347	1347	1347	1347	1347	1347	1347	1347	1347	1347	1347	1347	1347	1347	1347	1347	1347	1347	1347	1347	1347	1352	1352	1352	1352	1352	1352	1352	1352	1358	1358	1358	1358	1358	1358	1352	1352	1352	1358	1358	1358	1358	1358	1358	1363	1363	1358	1358	1358	1358	1358	1358	1358	1358	1363	1363	1363	1363	1363	1363	1363	1363	1363	1363	1363	1363	1363	1368	1368	1368	1379	1385	1390	1390	1390	1390	1390	1390	1390	1390	1390	1390	1390	1390	1396	1390	1390	1396	1396	1396	1396	1396	1396	1396	1402	1402	1402	1402	1402	1402	1402	1402	1402	1402	1402	1402	1402	1402	1402	1402	1407	1407	1407	1407	1407	1407	1407	1407	1413	1413	1413	1413	1413	1413	1413	1413	1413	1419	1419	1419	1419	1419	1419	1413	1413	1413	1419	1413	1413	1413	1413	1419	1419	1419	1419	1419	1425	1431	1425	1425	1425	1431	1431	1425	1425	1425	1425	1425	1425	1431	1431	1431	1431	1431	1431	1431	1431	1431	1431	1431	1425	1425	1425	1425	1425	1431	1431	1431	1431	1431	1437	1437	1437	1437	1437	1437	1437	1437	1437	1437	1437	1437	1437	1437	1437	1437	1437	1437	1437	1437	1437	1437	1437	1437	1443	1443	1443	1443	1443	1443	1443	1443	1443	1443	1443	1443	1443	1443	1449	1449	1449	1449	1449	1449	1449	1449	1449	1443	1443	1443	1443	1443	1443	1443	1449	1449	1455	1455	1455	1455	1455	1455	1455	1455	1455	1461	1461	1461	1461	1461	1467	1467	1467	1467	1467	1467	1467	1467	1467	1467	1467	1467	1467	1467	1467	1467	1467	1467	1467	1473	1473	1473	1473	1480	1480	1480	1480	1480	1480	1480	1480	1480	1480	1480	1480	1480	1480	1486	1486	1486	1492	1492	1492	1492	1492	1492	1486	1486	1486	1486	1486	1486	1486	1486	1486	1486	1492	1499	1499	1506	1506	1506	1506	1499	1499	1499	1499	1492	1492	1492	1499	1499	1499	1499	1499	0	0	0	0	0	889	884	884	882	880	878	875	875	875	873	873	873	873	871	871	867	865	865	862	860	860	858	858	858	860	860	860	0	0	0	0	0	0	0	0	0	0	0	0	788	786	786	784	784	782	780	779	779	775	773	770	770	767	765	761	761	760	758	758	758	756	755	753	753	750	748	748	748	747	747	745	745	745	745	743	743	743	745	745	745	747	747	747	747	747	747	747	745	745	745	745	745	745	745	747	747	747	701	701	701	700	700	700	698	697	697	695	695	694	694	694	694	694	0	0	0	0	0	0	0	0	0	0	0
0	0	0	0	0	0	0	0	0	0	0	0	0	0	0	0	0	0	0	0	0	0	0	0	0	0	0	1311	1311	1311	1311	1311	1311	1311	1311	1311	1311	1311	1311	1316	1316	1316	1316	1316	1316	1316	1316	1316	1316	1316	1316	1316	1316	1316	1316	1316	1316	1316	1316	1321	1321	1321	1326	1326	1326	1326	1326	1331	1331	1331	1326	1326	1326	1326	1326	1326	1326	1321	1321	1326	1326	1326	1326	1326	1326	1326	1326	1326	1326	1326	1326	1326	1326	1326	1326	1326	1326	1326	1331	1331	1331	1331	1331	1331	1331	1331	1331	1331	1331	1331	1331	1336	1331	1331	1336	1336	1336	1336	1331	1331	1336	1336	1336	1336	1336	1336	1336	1336	1336	1342	1342	1342	1342	1342	1342	1342	1342	1342	1342	1342	1347	1347	1347	1347	1347	1347	1347	1347	1347	1347	1347	1347	1347	1347	1352	1352	1352	1352	1347	1342	1342	1336	1331	1326	1326	1321	1321	1321	1326	1326	1326	1326	1331	1331	1331	1331	1331	1336	1336	1331	1331	1336	1336	1336	1342	1342	1342	1342	1347	1347	1347	1347	1347	1347	1347	1347	1347	1347	1347	1347	1347	1347	1347	1347	1347	1347	1347	1347	1347	1347	1347	1352	1352	1352	1352	1352	1352	1352	1352	1352	1352	1352	1352	1352	1352	1352	1352	1352	1358	1358	1358	1358	1358	1358	1358	1358	1358	1358	1358	1358	1363	1363	1363	1363	1363	1363	1363	1363	1363	1363	1363	1363	1363	1358	1358	1358	1363	1368	1374	1385	1390	1390	1390	1390	1390	1390	1390	1385	1385	1390	1390	1390	1390	1390	1390	1390	1390	1396	1396	1396	1396	1396	1396	1402	1402	1402	1402	1402	1402	1396	1396	1396	1396	1396	1402	1402	1402	1402	1402	1407	1407	1407	1407	1407	1407	1407	1407	1413	1413	1413	1413	1413	1413	1413	1413	1413	1419	1419	1419	1413	1413	1413	1413	1413	1413	1413	1413	1413	1413	1413	1413	1413	1419	1425	1425	1419	1419	1425	1425	1425	1419	1419	1419	1425	1425	1425	1425	1425	1425	1425	1431	1431	1431	1431	1431	1425	1425	1425	1425	1425	1425	1431	1431	1425	1425	1431	1431	1431	1437	1431	1431	1437	1437	1431	1431	1437	1437	1437	1437	1437	1437	1437	1437	1431	1431	1431	1431	1437	1437	1437	1437	1437	1437	1437	1437	1437	1437	1437	1437	1437	1437	1443	1443	1443	1443	1443	1443	1443	1443	1443	1443	1443	1443	1443	1443	1437	1437	1443	1443	1443	1443	1449	1449	1455	1455	1455	1455	1455	1455	1455	1455	1455	1455	1455	1461	1461	1461	1461	1461	1461	1461	1461	1461	1461	1461	1461	1467	1467	1461	1461	1461	1461	1467	1467	1467	1467	1467	1473	1473	1473	1473	1473	1473	1473	1480	1480	1480	1480	1480	1480	1480	1480	1480	1480	1480	1480	1486	1486	1486	1486	1486	1486	1486	1486	1486	1486	1486	1486	1486	1486	1486	1486	1486	1492	1492	1506	1499	1499	1499	1492	1492	1499	1492	1486	1486	1492	1492	1499	1499	1499	0	0	0	0	0	0	889	887	887	884	880	880	878	878	875	875	875	875	873	873	871	869	867	865	862	862	860	860	860	860	860	860	0	0	0	0	0	0	0	0	0	0	800	800	800	788	788	788	784	782	782	780	779	777	775	773	772	770	767	765	761	761	761	760	758	758	756	755	755	753	750	748	748	748	747	745	745	745	745	743	743	743	743	743	743	745	747	747	747	745	745	747	745	745	745	745	745	745	745	745	745	745	745	745	700	700	700	700	700	698	697	695	695	694	694	693	693	694	694	0	0	0	0	0	0	0	0	0	0	0
0	0	0	0	0	0	0	0	0	0	0	0	0	0	0	0	0	0	0	0	0	0	0	0	0	0	0	1306	1306	1306	1306	1306	1306	1306	1306	1311	1311	1311	1311	1311	1311	1311	1311	1316	1316	1316	1316	1316	1316	1316	1316	1316	1316	1311	1311	1311	1311	1316	1316	1316	1316	1316	1321	1321	1321	1321	1326	1326	1326	1326	1326	1326	1326	1321	1321	1321	1321	1321	1321	1326	1321	1321	1326	1326	1326	1326	1326	1326	1326	1326	1321	1321	1321	1321	1321	1321	1326	1326	1326	1326	1326	1326	1326	1326	1326	1326	1326	1326	1326	1331	1331	1331	1331	1331	1331	1331	1331	1331	1331	1331	1331	1331	1331	1331	1331	1336	1336	1336	1336	1336	1336	1336	1336	1336	1336	1342	1342	1336	1336	1342	1342	1342	1342	1347	1347	1347	1347	1347	1347	1347	1347	1347	1347	1347	1347	1347	1352	1347	1347	1347	1336	1336	1331	1326	1326	1321	1321	1321	1321	1321	1326	1326	1326	1326	1331	1331	1331	1336	1336	1331	1331	1336	1331	1331	1336	1336	1336	1342	1342	1342	1342	1342	1342	1342	1342	1342	1347	1347	1347	1347	1347	1347	1347	1347	1347	1347	1347	1347	1347	1347	1347	1347	1352	1352	1352	1352	1352	1352	1352	1352	1352	1347	1347	1352	1352	1352	1352	1352	1352	1352	1352	1352	1352	1352	1352	1352	1352	1352	1352	1352	1358	1358	1358	1358	1358	1363	1363	1363	1363	1363	1363	1358	1358	1358	1358	1358	1363	1363	1368	1374	1379	1385	1385	1385	1385	1385	1385	1385	1385	1385	1390	1390	1390	1390	1390	1390	1390	1390	1390	1390	1396	1396	1396	1396	1396	1396	1396	1396	1396	1396	1396	1396	1396	1396	1396	1396	1396	1396	1402	1402	1402	1402	1402	1402	1407	1407	1407	1407	1407	1407	1407	1407	1413	1413	1413	1413	1413	1413	1413	1407	1407	1407	1407	1407	1407	1407	1407	1407	1407	1407	1407	1413	1413	1413	1419	1419	1419	1425	1419	1419	1419	1419	1419	1419	1419	1419	1419	1425	1425	1425	1425	1425	1425	1425	1425	1419	1419	1419	1419	1419	1419	1419	1419	1425	1425	1425	1431	1431	1431	1431	1431	1431	1431	1431	1431	1431	1431	1431	1431	1431	1431	1431	1431	1431	1431	1431	1431	1431	1431	1431	1437	1437	1437	1437	1437	1437	1437	1437	1437	1437	1437	1437	1437	1437	1437	1437	1437	1437	1437	1443	1443	1437	1437	1437	1437	1437	1437	1437	1437	1437	1437	1443	1443	1449	1449	1449	1449	1449	1449	1449	1449	1449	1455	1455	1455	1455	1461	1461	1461	1461	1461	1461	1461	1461	1461	1461	1461	1461	1461	1461	1461	1461	1461	1467	1467	1467	1467	1467	1467	1467	1467	1467	1467	1467	1473	1473	1473	1473	1473	1473	1473	1473	1473	1473	1473	1480	1480	1480	1480	1480	1480	1480	1480	1480	1480	1480	1480	1480	1480	1486	1486	1486	1486	1486	1486	1492	1499	1499	1492	1492	1492	1492	1486	1486	1486	1486	1486	1486	1486	1499	0	0	0	0	889	889	889	887	887	884	882	880	878	878	875	875	875	875	875	873	871	869	869	867	865	865	862	862	862	862	860	0	0	0	0	0	0	0	0	0	0	798	798	798	798	788	788	788	784	782	782	779	779	777	775	773	772	770	767	765	763	761	761	760	758	758	756	755	755	753	750	748	748	748	747	745	743	743	743	742	742	742	742	742	742	743	743	745	745	743	743	745	745	745	745	745	745	745	745	745	745	745	745	745	700	700	700	700	700	698	697	695	695	694	693	693	693	693	693	0	0	0	0	0	0	0	0	0	0	0
0	0	0	0	0	0	0	0	0	0	0	0	0	0	0	0	0	0	0	0	0	0	0	0	0	0	0	1301	1301	1306	1306	1306	1306	1306	1306	1306	1306	1306	1311	1311	1311	1311	1311	1311	1311	1311	1311	1311	1311	1311	1311	1311	1316	1311	1311	1311	1311	1316	1316	1316	1316	1316	1316	1316	1316	1316	1321	1321	1321	1321	1321	1321	1321	1321	1321	1321	1321	1321	1321	1321	1321	1321	1321	1321	1321	1321	1321	1321	1321	1321	1321	1321	1321	1321	1321	1321	1321	1321	1321	1326	1326	1326	1326	1326	1326	1326	1326	1326	1326	1326	1326	1326	1326	1326	1326	1331	1331	1331	1326	1326	1331	1331	1331	1331	1331	1331	1331	1331	1331	1331	1331	1331	1331	1331	1336	1336	1336	1336	1336	1336	1342	1342	1342	1342	1342	1347	1347	1342	1342	1342	1342	1347	1342	1342	1347	1347	1347	1347	1342	1342	1336	1336	1331	1326	1321	1321	1321	1321	1321	1321	1321	1321	1321	1321	1321	1326	1326	1326	1326	1326	1326	1326	1331	1331	1331	1331	1331	1331	1336	1336	1336	1336	1336	1336	1336	1336	1336	1336	1336	1342	1342	1342	1336	1336	1336	1336	1336	1336	1342	1342	1342	1347	1347	1347	1347	1347	1347	1347	1347	1347	1347	1347	1347	1347	1347	1347	1347	1347	1347	1347	1347	1347	1347	1347	1347	1347	1347	1352	1352	1352	1352	1352	1352	1352	1352	1352	1352	1352	1352	1352	1352	1352	1352	1352	1352	1352	1352	1352	1352	1352	1352	1358	1363	1368	1374	1379	1379	1379	1379	1379	1379	1379	1379	1379	1379	1385	1385	1385	1385	1385	1385	1385	1385	1385	1390	1390	1390	1390	1390	1390	1390	1390	1390	1390	1390	1390	1396	1396	1396	1396	1396	1396	1396	1396	1396	1396	1396	1396	1402	1402	1402	1402	1402	1402	1407	1407	1407	1407	1407	1402	1402	1402	1402	1402	1402	1402	1402	1402	1402	1402	1402	1402	1407	1407	1407	1407	1407	1407	1407	1407	1407	1407	1407	1413	1413	1413	1413	1413	1413	1413	1413	1419	1419	1419	1419	1413	1413	1413	1413	1413	1413	1413	1413	1413	1413	1413	1419	1419	1425	1425	1425	1425	1425	1425	1425	1425	1425	1425	1431	1431	1431	1431	1431	1431	1431	1431	1431	1431	1431	1431	1431	1431	1431	1431	1431	1431	1431	1431	1431	1437	1437	1437	1437	1437	1437	1437	1437	1437	1437	1437	1437	1437	1437	1437	1437	1437	1437	1437	1437	1437	1437	1437	1437	1443	1443	1449	1449	1449	1443	1443	1443	1443	1449	1449	1449	1449	1455	1455	1455	1455	1455	1455	1455	1455	1455	1461	1461	1461	1461	1461	1461	1461	1461	1461	1461	1461	1461	1467	1467	1467	1467	1461	1461	1467	1467	1467	1467	1473	1467	1467	1473	1467	1467	1467	1467	1473	1473	1473	1473	1473	1480	1480	1480	1480	1480	1480	1480	1480	1480	1480	1480	1486	1486	1486	1486	1486	1492	1486	1486	1486	1486	1486	1486	1480	1480	1486	1486	1486	1486	0	0	0	0	0	889	889	889	887	887	887	884	882	880	880	878	875	875	875	875	873	871	869	869	867	865	865	862	862	862	862	0	0	0	0	0	0	0	0	0	0	798	798	798	797	797	788	788	788	784	782	782	779	777	775	773	773	772	770	767	765	763	761	761	760	758	758	756	755	755	753	750	748	748	748	747	745	743	743	743	742	742	742	742	742	742	742	743	743	743	743	743	743	743	742	742	742	742	742	742	742	742	742	742	742	742	700	700	700	700	700	697	695	695	694	693	693	693	693	693	0	0	0	0	0	0	0	0	0	0	0
0	0	0	0	0	0	0	0	0	0	0	0	0	0	0	0	0	0	0	0	0	0	0	0	0	0	0	1296	1296	1301	1301	1301	1301	1301	1301	1301	1301	1306	1306	1306	1306	1306	1306	1306	1311	1311	1311	1311	1311	1311	1311	1311	1311	1311	1311	1311	1311	1311	1311	1311	1311	1311	1316	1316	1316	1316	1316	1316	1316	1316	1316	1316	1316	1316	1316	1316	1316	1316	1316	1321	1321	1321	1321	1321	1321	1316	1316	1316	1316	1316	1316	1316	1316	1316	1316	1316	1321	1321	1321	1321	1321	1321	1321	1326	1321	1321	1321	1321	1321	1326	1326	1326	1326	1326	1326	1326	1326	1326	1326	1326	1326	1326	1326	1326	1326	1326	1326	1326	1326	1326	1326	1326	1326	1331	1331	1331	1331	1331	1331	1331	1331	1331	1331	1336	1336	1336	1336	1336	1331	1331	1336	1336	1336	1336	1336	1342	1342	1342	1342	1336	1331	1331	1331	1326	1321	1321	1321	1321	1321	1316	1316	1316	1321	1321	1321	1321	1326	1326	1326	1326	1326	1326	1326	1326	1326	1326	1331	1331	1331	1331	1331	1331	1331	1331	1331	1331	1331	1331	1336	1336	1336	1336	1336	1336	1336	1336	1336	1336	1336	1342	1342	1342	1342	1342	1342	1342	1342	1347	1342	1342	1342	1342	1342	1342	1342	1342	1342	1347	1347	1347	1347	1347	1347	1347	1347	1347	1347	1347	1347	1347	1347	1347	1352	1352	1352	1352	1352	1352	1352	1352	1352	1352	1352	1352	1352	1352	1352	1347	1352	1352	1352	1352	1358	1363	1368	1374	1374	1374	1374	1379	1379	1374	1374	1379	1379	1379	1379	1379	1379	1379	1379	1379	1379	1379	1385	1385	1385	1385	1390	1390	1390	1390	1390	1390	1390	1390	1390	1390	1390	1396	1396	1396	1390	1390	1390	1390	1390	1396	1396	1396	1396	1396	1402	1402	1402	1402	1407	1407	1402	1396	1396	1396	1396	1396	1396	1396	1402	1402	1402	1402	1402	1402	1402	1402	1402	1407	1407	1407	1407	1407	1407	1407	1407	1407	1407	1413	1413	1413	1413	1413	1413	1413	1413	1413	1419	1413	1413	1413	1413	1413	1413	1413	1413	1413	1413	1413	1419	1419	1419	1419	1425	1425	1425	1419	1419	1425	1425	1425	1425	1425	1425	1425	1425	1425	1425	1425	1425	1425	1425	1425	1425	1425	1431	1425	1425	1425	1431	1431	1431	1431	1431	1431	1431	1431	1431	1431	1431	1431	1431	1431	1431	1431	1431	1431	1431	1431	1431	1431	1431	1431	1431	1431	1437	1437	1437	1437	1437	1443	1437	1437	1437	1437	1437	1437	1437	1437	1437	1449	1449	1449	1449	1449	1455	1455	1455	1455	1455	1455	1461	1461	1461	1461	1461	1461	1461	1461	1461	1461	1461	1461	1461	1461	1461	1467	1461	1461	1467	1467	1467	1467	1467	1467	1467	1467	1467	1467	1467	1467	1467	1467	1473	1473	1473	1473	1473	1473	1473	1473	1473	1480	1480	1480	1480	1480	1480	1486	1480	1480	1480	1480	1486	1486	1480	1480	1480	1486	1486	1480	1480	0	0	0	0	0	889	889	889	887	887	887	884	882	880	880	878	878	875	875	875	873	873	871	869	867	865	865	862	862	862	0	0	0	0	0	0	0	0	0	0	0	797	797	797	797	797	789	788	788	784	782	782	779	777	775	773	773	772	770	767	765	763	761	761	760	758	758	756	755	755	753	752	750	750	748	747	743	743	743	742	742	742	740	740	742	742	742	742	742	742	742	742	742	742	742	742	740	740	740	740	740	740	740	740	740	740	700	700	700	700	700	0	0	695	694	693	691	691	693	693	0	0	0	0	0	0	0	0	0	0	0
0	0	0	0	0	0	0	0	0	0	0	0	0	0	0	0	0	0	0	0	0	0	0	0	0	0	0	1296	1296	1296	1296	1296	1296	1301	1301	1301	1301	1301	1306	1301	1301	1301	1301	1301	1301	1301	1301	1306	1306	1306	1306	1311	1311	1306	1306	1306	1306	1311	1311	1311	1311	1311	1311	1311	1311	1316	1316	1316	1316	1316	1316	1316	1316	1316	1311	1311	1311	1311	1311	1311	1316	1316	1316	1311	1311	1311	1311	1311	1311	1311	1311	1311	1311	1311	1311	1311	1311	1311	1311	1316	1316	1316	1316	1316	1316	1316	1316	1316	1316	1316	1321	1321	1321	1321	1321	1321	1321	1321	1321	1321	1326	1326	1321	1321	1326	1326	1321	1321	1326	1326	1326	1326	1326	1326	1326	1326	1326	1326	1326	1326	1326	1331	1331	1331	1331	1331	1331	1331	1331	1331	1331	1331	1331	1336	1336	1336	1336	1336	1336	1331	1331	1331	1331	1326	1321	1321	1321	1316	1316	1311	1311	1316	1316	1316	1316	1316	1321	1321	1321	1321	1321	1326	1326	1326	1326	1326	1326	1326	1326	1331	1331	1331	1331	1331	1331	1331	1331	1331	1331	1331	1331	1331	1331	1331	1331	1331	1331	1331	1331	1336	1336	1336	1336	1336	1336	1336	1342	1342	1342	1342	1342	1342	1336	1336	1342	1342	1342	1342	1342	1342	1342	1342	1342	1342	1342	1342	1342	1342	1342	1342	1347	1347	1347	1347	1347	1347	1347	1352	1347	1347	1347	1347	1347	1347	1347	1347	1347	1347	1347	1347	1347	1352	1352	1358	1368	1368	1374	1374	1374	1374	1374	1374	1374	1374	1374	1374	1374	1374	1374	1374	1374	1374	1374	1379	1379	1379	1385	1385	1385	1385	1385	1385	1385	1385	1385	1385	1385	1385	1385	1390	1390	1390	1390	1390	1390	1390	1390	1390	1390	1390	1396	1390	1390	1396	1402	1402	1402	1402	1402	1396	1396	1396	1396	1396	1396	1396	1402	1396	1396	1402	1402	1402	1402	1402	1402	1402	1402	1402	1402	1402	1402	1402	1407	1407	1407	1407	1407	1407	1407	1407	1413	1413	1413	1413	1413	1413	1413	1413	1407	1407	1413	1413	1413	1413	1413	1413	1413	1413	1413	1413	1419	1419	1419	1413	1413	1419	1419	1419	1419	1425	1425	1425	1425	1419	1419	1419	1419	1425	1419	1419	1419	1425	1425	1425	1425	1425	1425	1425	1425	1425	1425	1431	1431	1431	1431	1425	1425	1431	1431	1431	1431	1431	1431	1431	1431	1431	1431	1431	1431	1431	1431	1431	1431	1431	1437	1437	1437	1437	1437	1437	1437	1437	1437	1437	1437	1437	1437	1437	1437	1443	1443	1443	1443	1443	1443	1443	1449	1449	1449	1455	1455	1455	1455	1455	1455	1455	1455	1455	1455	1455	1455	1455	1455	1455	1455	1455	1455	1455	1461	1461	1461	1461	1461	1461	1461	1461	1461	1461	1467	1467	1473	1473	1473	1467	1467	1473	1473	1473	1473	1473	1480	1480	1480	1473	1473	1473	1473	1473	1473	1480	1480	1480	1480	1480	1480	1480	1480	1480	1480	0	0	0	0	0	889	889	889	889	889	887	887	884	882	880	878	878	878	875	875	873	873	871	869	869	867	867	867	867	862	0	0	0	0	0	0	0	0	0	0	797	797	797	797	797	797	789	788	788	786	784	782	779	779	775	773	773	772	770	767	765	763	761	761	760	760	758	756	755	755	753	752	750	750	748	747	743	743	743	742	742	740	740	740	740	740	740	740	740	740	739	739	740	739	737	737	737	737	739	737	737	737	739	739	739	740	700	700	700	0	0	0	0	0	0	0	691	691	693	693	0	0	0	0	0	0	0	0	0	0	0
0	0	0	0	0	0	0	0	0	0	0	0	0	0	0	0	0	0	0	0	0	0	0	0	0	0	0	1291	1291	1296	1296	1296	1296	1296	1296	1296	1296	1301	1296	1296	1296	1301	1301	1301	1296	1296	1296	1296	1296	1296	1296	1301	1301	1301	1301	1301	1301	1306	1306	1306	1306	1306	1306	1311	1311	1311	1311	1311	1311	1311	1311	1311	1311	1311	1311	1311	1311	1311	1311	1311	1311	1311	1311	1311	1306	1306	1306	1306	1311	1311	1311	1311	1311	1311	1311	1311	1311	1311	1311	1311	1311	1311	1316	1316	1316	1316	1316	1311	1311	1316	1316	1316	1316	1316	1316	1321	1316	1316	1316	1316	1321	1321	1321	1321	1321	1321	1321	1321	1321	1321	1321	1321	1321	1321	1321	1321	1321	1321	1326	1326	1326	1326	1326	1331	1331	1331	1331	1331	1331	1331	1331	1331	1331	1331	1331	1331	1331	1331	1331	1331	1326	1326	1326	1326	1321	1321	1316	1316	1316	1311	1311	1311	1311	1311	1311	1316	1316	1316	1316	1316	1316	1321	1321	1321	1321	1321	1321	1326	1326	1326	1326	1326	1326	1326	1326	1326	1326	1331	1331	1331	1331	1331	1331	1331	1331	1331	1331	1331	1331	1331	1331	1331	1331	1331	1336	1336	1336	1336	1336	1336	1336	1336	1336	1336	1336	1336	1336	1336	1342	1342	1342	1342	1342	1342	1342	1336	1336	1336	1336	1336	1336	1342	1342	1342	1342	1347	1347	1347	1347	1347	1347	1347	1347	1347	1347	1347	1347	1347	1342	1342	1347	1347	1352	1358	1363	1368	1368	1368	1374	1374	1374	1374	1374	1374	1374	1374	1374	1374	1374	1374	1374	1374	1374	1374	1374	1379	1379	1379	1379	1379	1385	1385	1385	1385	1385	1385	1385	1385	1385	1385	1385	1385	1385	1385	1385	1385	1385	1390	1390	1390	1390	1390	1390	1396	1396	1396	1396	1396	1396	1390	1390	1390	1390	1390	1390	1390	1396	1396	1396	1396	1396	1396	1396	1396	1396	1396	1396	1396	1396	1396	1396	1402	1402	1402	1402	1402	1407	1407	1407	1407	1407	1407	1407	1413	1413	1413	1413	1413	1407	1407	1407	1413	1413	1407	1407	1413	1413	1413	1413	1413	1413	1413	1413	1413	1413	1413	1413	1413	1419	1419	1419	1419	1419	1413	1413	1413	1419	1419	1419	1419	1419	1419	1419	1419	1419	1419	1425	1425	1425	1425	1425	1425	1425	1425	1425	1425	1425	1425	1425	1425	1425	1425	1425	1425	1425	1431	1431	1431	1431	1431	1431	1431	1431	1431	1431	1431	1431	1437	1431	1431	1431	1431	1431	1431	1431	1431	1437	1437	1437	1437	1437	1437	1437	1437	1437	1437	1443	1443	1449	1449	1449	1449	1449	1449	1449	1449	1449	1455	1455	1455	1455	1455	1455	1455	1455	1455	1455	1455	1455	1455	1455	1455	1455	1455	1455	1461	1461	1461	1461	1461	1461	1461	1461	1461	1461	1461	1467	1467	1461	1461	1467	1467	1461	1461	1461	1461	1461	1467	1467	1467	1473	1473	1473	1473	1473	1473	1480	1480	1480	0	0	0	0	889	889	889	889	889	889	887	887	884	882	880	878	878	878	878	875	873	873	871	871	869	867	867	860	860	860	0	0	0	0	0	0	0	0	0	0	797	797	797	797	795	795	789	786	786	786	784	782	779	779	775	773	773	773	772	767	765	763	763	761	760	760	758	756	755	753	753	752	750	750	748	747	745	743	743	743	742	740	740	740	739	739	739	739	739	739	739	739	739	734	734	734	734	736	736	736	736	737	737	736	736	736	0	0	0	0	0	0	0	0	0	0	691	691	693	693	0	0	0	0	0	0	0	0	0	0	0
0	0	0	0	0	0	0	0	0	0	0	0	0	0	0	0	0	0	0	0	0	0	0	0	0	0	0	1291	1291	1291	1291	1291	1291	1291	1291	1291	1291	1296	1296	1296	1296	1296	1296	1296	1291	1291	1291	1296	1296	1296	1296	1296	1296	1296	1296	1296	1296	1301	1301	1301	1301	1306	1306	1306	1311	1311	1311	1311	1311	1311	1311	1311	1311	1306	1306	1306	1311	1306	1306	1306	1306	1306	1306	1306	1306	1306	1306	1306	1306	1306	1306	1306	1306	1306	1306	1306	1306	1306	1306	1311	1311	1311	1311	1311	1311	1311	1311	1311	1311	1311	1311	1311	1311	1311	1311	1316	1316	1316	1316	1316	1316	1316	1316	1316	1316	1316	1316	1316	1321	1321	1316	1316	1321	1321	1321	1321	1321	1321	1321	1321	1321	1326	1326	1326	1326	1326	1326	1326	1326	1326	1326	1326	1331	1331	1331	1331	1331	1331	1331	1331	1326	1326	1326	1326	1321	1321	1316	1316	1316	1311	1311	1311	1311	1311	1311	1311	1311	1311	1311	1311	1311	1311	1311	1311	1311	1316	1316	1321	1321	1326	1326	1326	1326	1326	1326	1326	1326	1326	1326	1326	1326	1326	1326	1326	1326	1326	1326	1326	1326	1331	1331	1331	1331	1331	1331	1331	1331	1331	1331	1331	1331	1331	1331	1331	1331	1331	1331	1331	1331	1331	1331	1336	1336	1336	1331	1331	1331	1331	1331	1331	1331	1331	1336	1342	1342	1342	1342	1342	1342	1342	1342	1342	1347	1342	1342	1342	1342	1342	1342	1336	1342	1342	1347	1352	1358	1363	1368	1368	1368	1368	1368	1368	1368	1368	1368	1368	1368	1368	1368	1368	1374	1374	1374	1374	1374	1374	1374	1374	1379	1379	1379	1379	1379	1379	1379	1379	1379	1379	1379	1379	1379	1379	1379	1385	1385	1385	1385	1385	1390	1390	1390	1390	1396	1396	1396	1396	1396	1396	1390	1385	1385	1390	1390	1390	1390	1390	1390	1390	1390	1396	1396	1396	1396	1396	1396	1396	1390	1390	1390	1396	1396	1396	1402	1402	1402	1402	1402	1407	1407	1407	1407	1407	1407	1407	1407	1407	1407	1407	1407	1407	1407	1407	1407	1407	1407	1407	1407	1407	1407	1407	1407	1407	1407	1407	1407	1407	1407	1407	1413	1413	1413	1413	1413	1413	1413	1413	1413	1413	1413	1413	1413	1413	1413	1413	1413	1413	1419	1419	1419	1419	1419	1425	1425	1425	1425	1425	1425	1419	1419	1419	1419	1419	1419	1419	1419	1425	1425	1425	1425	1425	1425	1425	1425	1425	1425	1425	1431	1431	1431	1431	1431	1431	1431	1431	1431	1431	1431	1437	1437	1437	1437	1437	1437	1437	1437	1437	1437	1437	1443	1443	1443	1449	1449	1443	1443	1443	1443	1449	1449	1449	1449	1449	1449	1449	1449	1449	1449	1455	1455	1455	1455	1455	1455	1455	1455	1455	1455	1455	1455	1461	1461	1461	1461	1461	1461	1461	1461	1461	1461	1461	1461	1461	1461	1461	1461	1461	1461	1461	1461	1461	1467	1473	1473	1473	1473	1473	1480	1480	0	0	0	0	0	891	891	891	889	889	889	887	887	884	884	882	880	878	878	878	875	875	873	871	871	867	865	862	860	860	860	0	0	0	0	0	0	0	0	0	797	797	797	797	795	795	795	791	786	786	786	784	782	779	779	775	773	773	772	772	768	767	765	765	765	761	760	760	755	755	753	753	752	750	748	748	747	745	745	745	743	740	739	739	739	737	736	736	736	736	736	736	736	736	734	734	734	734	736	736	736	736	736	736	736	734	734	734	0	0	0	0	0	0	0	0	0	0	0	0	0	0	0	0	0	0	0	0	0	0	0	0
0	0	0	0	0	0	0	0	0	0	0	0	0	0	0	0	0	0	0	0	0	0	0	0	0	0	0	1287	1287	1287	1287	1287	1291	1291	1291	1291	1291	1291	1291	1291	1291	1291	1291	1291	1291	1291	1291	1291	1291	1291	1291	1296	1296	1296	1296	1296	1296	1296	1296	1296	1296	1301	1301	1306	1306	1306	1306	1306	1306	1306	1306	1306	1306	1301	1301	1301	1306	1301	1301	1301	1301	1306	1306	1301	1301	1301	1301	1301	1306	1306	1306	1306	1306	1306	1306	1306	1306	1306	1306	1306	1306	1306	1311	1311	1306	1306	1311	1306	1306	1306	1306	1311	1311	1311	1311	1311	1311	1311	1311	1316	1316	1316	1316	1316	1316	1316	1316	1316	1316	1316	1316	1316	1316	1316	1316	1316	1316	1316	1316	1321	1321	1321	1321	1326	1321	1321	1321	1326	1326	1326	1326	1326	1326	1326	1326	1326	1326	1326	1326	1326	1326	1326	1326	1326	1321	1321	1321	1316	1316	1311	1311	1311	1311	1306	1306	1306	1306	1306	1306	1306	1311	1311	1311	1311	1311	1311	1316	1316	1321	1321	1326	1326	1326	1326	1321	1321	1321	1326	1326	1326	1326	1326	1326	1326	1326	1326	1326	1326	1326	1326	1326	1326	1326	1326	1326	1326	1331	1331	1331	1331	1331	1331	1331	1331	1331	1331	1331	1331	1331	1331	1331	1331	1331	1331	1326	1326	1326	1326	1326	1326	1326	1331	1331	1331	1336	1336	1336	1336	1342	1342	1342	1342	1342	1336	1336	1336	1336	1336	1336	1336	1336	1336	1336	1342	1347	1358	1363	1368	1368	1368	1368	1368	1368	1368	1368	1368	1368	1368	1368	1368	1368	1368	1374	1374	1374	1374	1374	1374	1374	1374	1374	1379	1374	1374	1374	1374	1374	1374	1374	1374	1374	1379	1379	1379	1379	1379	1379	1385	1385	1390	1390	1390	1390	1390	1390	1390	1390	1390	1390	1385	1385	1385	1385	1385	1390	1390	1390	1390	1390	1390	1390	1390	1390	1390	1390	1390	1390	1390	1390	1390	1390	1390	1396	1396	1396	1396	1402	1402	1402	1402	1402	1402	1402	1407	1407	1407	1407	1407	1407	1402	1402	1407	1402	1402	1402	1402	1407	1407	1407	1407	1407	1407	1407	1407	1407	1407	1407	1407	1407	1407	1407	1407	1407	1407	1407	1407	1407	1407	1407	1407	1407	1407	1413	1413	1413	1413	1413	1413	1413	1413	1413	1413	1413	1413	1419	1419	1419	1419	1419	1419	1419	1419	1419	1419	1419	1419	1419	1419	1419	1419	1419	1419	1419	1419	1419	1419	1425	1425	1425	1425	1425	1425	1425	1425	1425	1425	1431	1431	1431	1431	1431	1431	1431	1431	1431	1431	1437	1437	1437	1437	1437	1443	1443	1443	1443	1443	1443	1443	1443	1443	1443	1443	1443	1443	1443	1449	1449	1449	1449	1449	1455	1449	1449	1455	1455	1455	1455	1455	1455	1455	1455	1455	1455	1455	1455	1455	1455	1461	1461	1461	1461	1461	1455	1455	1455	1455	1455	1461	1461	1461	1467	1467	1473	1473	1473	1473	1473	1480	0	0	0	0	896	896	894	891	891	889	889	889	887	887	884	882	880	880	878	875	875	873	873	871	871	867	867	867	867	860	860	0	0	0	0	0	0	0	0	0	797	797	797	797	795	793	793	791	788	788	784	782	779	779	779	775	773	772	772	772	768	767	767	765	765	761	760	758	755	753	753	753	752	750	748	748	747	745	745	745	742	740	739	737	737	737	736	736	736	734	734	734	734	734	734	734	734	734	734	734	734	734	734	736	734	734	734	736	736	0	0	0	0	0	0	0	0	0	0	0	0	0	0	0	0	0	0	0	0	0	0	0
0	0	0	0	0	0	0	0	0	0	0	0	0	0	0	0	0	0	0	0	0	0	0	0	0	0	0	1287	1287	1287	1287	1287	1287	1287	1291	1291	1291	1291	1291	1291	1291	1291	1291	1291	1291	1291	1291	1291	1291	1291	1291	1291	1291	1291	1291	1291	1296	1296	1296	1296	1296	1296	1296	1301	1301	1306	1306	1306	1306	1306	1306	1301	1301	1301	1296	1301	1301	1291	1291	1296	1296	1296	1301	1301	1301	1301	1301	1301	1301	1301	1301	1301	1301	1301	1301	1301	1301	1301	1301	1301	1301	1306	1306	1306	1306	1306	1306	1306	1306	1306	1306	1306	1306	1306	1306	1311	1311	1311	1311	1311	1311	1311	1311	1311	1311	1311	1311	1311	1311	1311	1311	1311	1311	1311	1311	1316	1316	1316	1316	1316	1316	1316	1321	1321	1321	1321	1321	1321	1321	1321	1321	1321	1321	1326	1326	1326	1321	1326	1326	1326	1326	1326	1326	1326	1326	1321	1321	1321	1316	1311	1311	1311	1311	1306	1306	1306	1306	1306	1306	1306	1306	1311	1311	1311	1311	1311	1311	1311	1316	1321	1321	1321	1321	1321	1321	1321	1321	1321	1321	1321	1326	1326	1326	1326	1326	1326	1326	1326	1326	1326	1326	1326	1326	1326	1326	1326	1326	1331	1331	1331	1331	1331	1331	1326	1326	1326	1326	1326	1326	1326	1326	1326	1326	1326	1321	1321	1316	1316	1316	1316	1321	1321	1326	1326	1331	1331	1331	1336	1336	1336	1336	1336	1336	1336	1336	1331	1331	1331	1331	1331	1331	1331	1336	1336	1342	1352	1358	1363	1368	1363	1363	1363	1363	1363	1363	1363	1363	1363	1363	1368	1368	1368	1368	1368	1368	1368	1368	1374	1374	1374	1374	1374	1374	1374	1374	1374	1374	1374	1374	1374	1374	1374	1374	1374	1379	1379	1379	1385	1385	1385	1385	1385	1385	1385	1385	1385	1385	1385	1385	1385	1385	1385	1385	1385	1385	1390	1390	1390	1390	1390	1390	1390	1390	1390	1390	1390	1390	1390	1390	1390	1390	1390	1390	1390	1396	1396	1396	1396	1396	1396	1396	1396	1402	1402	1402	1402	1402	1402	1402	1402	1402	1402	1402	1402	1402	1402	1402	1402	1402	1402	1402	1402	1402	1402	1402	1402	1402	1402	1402	1402	1402	1407	1407	1402	1402	1402	1402	1407	1407	1407	1407	1407	1407	1407	1407	1407	1413	1413	1413	1413	1413	1413	1407	1407	1413	1413	1413	1413	1413	1413	1413	1413	1413	1413	1413	1413	1413	1413	1413	1413	1413	1413	1413	1413	1413	1413	1419	1419	1419	1419	1419	1425	1419	1419	1425	1425	1425	1431	1431	1431	1431	1431	1431	1431	1431	1431	1431	1431	1437	1437	1437	1437	1437	1437	1437	1437	1437	1437	1437	1437	1437	1437	1437	1437	1437	1437	1443	1443	1443	1443	1449	1449	1449	1449	1449	1449	1449	1449	1455	1455	1455	1455	1455	1455	1455	1455	1455	1455	1455	1455	1455	1455	1455	1455	1455	1455	1455	1455	1455	1461	1461	1461	1467	1467	1467	1467	1473	0	0	0	0	898	896	896	894	894	894	891	889	889	887	887	884	882	880	880	878	875	875	873	873	871	871	867	867	867	867	0	0	0	0	0	0	0	0	0	0	802	800	797	797	797	795	791	791	791	788	788	786	782	780	779	779	775	775	773	772	770	770	767	767	765	765	763	760	758	755	753	753	753	752	750	748	748	747	745	745	745	742	739	737	737	737	736	736	736	736	734	734	734	734	734	732	732	732	732	732	732	732	734	734	734	734	734	734	734	736	736	0	0	0	0	0	0	0	0	0	0	0	0	0	0	0	0	0	0	0	0	0	0
0	0	0	0	0	0	0	0	0	0	0	0	0	0	0	0	0	0	0	0	0	0	0	0	0	0	0	1287	1282	1282	1282	1282	1282	1282	1287	1287	1287	1287	1287	1291	1291	1291	1287	1287	1287	1287	1287	1291	1291	1291	1291	1291	1291	1291	1291	1291	1291	1291	1296	1296	1296	1296	1296	1296	1301	1301	1301	1301	1301	1301	1301	1301	1296	1296	1296	1296	1296	1291	1291	1291	1291	1296	1296	1296	1296	1296	1296	1296	1296	1301	1296	1296	1296	1301	1296	1296	1301	1301	1301	1301	1301	1301	1306	1306	1306	1306	1306	1306	1301	1301	1301	1301	1301	1301	1306	1306	1306	1306	1306	1306	1306	1306	1306	1306	1306	1311	1311	1311	1311	1311	1311	1311	1311	1311	1311	1311	1311	1311	1311	1316	1311	1311	1311	1316	1316	1316	1316	1316	1321	1321	1316	1316	1316	1321	1321	1321	1321	1321	1321	1321	1321	1321	1321	1321	1321	1321	1321	1321	1316	1311	1311	1311	1311	1306	1306	1301	1301	1301	1301	1306	1306	1306	1306	1306	1306	1306	1311	1311	1311	1311	1316	1316	1316	1316	1311	1311	1316	1316	1316	1316	1321	1321	1321	1321	1321	1321	1321	1321	1321	1321	1321	1321	1321	1321	1326	1326	1326	1326	1326	1326	1326	1326	1326	1326	1326	1321	1321	1326	1321	1321	1316	1316	1316	1316	1316	1316	1316	1316	1316	1316	1316	1316	1321	1321	1326	1326	1331	1331	1331	1331	1331	1331	1331	1331	1331	1331	1331	1331	1331	1331	1331	1331	1331	1331	1336	1342	1352	1358	1368	1363	1363	1363	1358	1358	1358	1358	1358	1358	1363	1363	1363	1363	1368	1368	1368	1368	1368	1368	1368	1368	1368	1368	1368	1368	1368	1368	1368	1368	1368	1368	1368	1368	1374	1374	1374	1374	1374	1379	1379	1379	1379	1385	1379	1379	1385	1379	1379	1385	1385	1379	1379	1379	1379	1385	1385	1385	1385	1385	1385	1385	1385	1385	1385	1385	1385	1385	1385	1385	1385	1385	1385	1390	1390	1390	1390	1390	1390	1390	1390	1390	1390	1390	1390	1390	1390	1390	1396	1396	1396	1396	1396	1396	1396	1396	1396	1396	1396	1396	1396	1396	1396	1396	1396	1396	1396	1396	1396	1396	1402	1396	1396	1396	1396	1396	1396	1396	1396	1402	1402	1402	1402	1402	1407	1407	1407	1407	1413	1413	1413	1407	1407	1407	1407	1407	1407	1407	1407	1407	1407	1407	1407	1407	1407	1407	1413	1413	1413	1413	1413	1413	1413	1413	1413	1413	1413	1413	1413	1413	1413	1413	1413	1413	1413	1413	1419	1419	1425	1425	1425	1425	1425	1425	1425	1431	1431	1431	1431	1431	1431	1431	1431	1431	1431	1431	1431	1431	1431	1431	1431	1431	1431	1431	1431	1431	1431	1431	1437	1437	1437	1437	1437	1437	1443	1443	1443	1443	1443	1443	1449	1449	1449	1449	1449	1449	1449	1449	1455	1455	1455	1455	1449	1449	1449	1449	1449	1449	1455	1455	1455	1455	1455	1461	1461	1461	1461	1461	0	0	0	0	0	898	896	896	896	894	894	891	889	889	887	887	884	882	880	880	878	878	873	873	873	871	869	869	869	867	0	0	0	0	0	0	0	0	0	0	0	802	800	797	797	797	793	791	791	789	788	788	786	784	782	780	780	777	775	773	772	770	768	767	767	767	763	761	760	758	756	755	753	753	753	752	750	750	748	747	745	743	742	742	737	736	736	736	734	734	734	734	734	734	734	734	732	732	732	732	732	732	732	732	734	734	732	732	732	732	732	732	0	0	0	0	0	0	0	0	0	0	0	0	0	0	0	0	0	0	0	0	0	0
0	0	0	0	0	0	0	0	0	0	0	0	0	0	0	0	0	0	0	0	0	0	0	0	0	0	0	0	1277	1277	1277	1277	1277	1277	1277	1282	1282	1287	1287	1287	1287	1287	1287	1287	1287	1287	1287	1287	1287	1287	1287	1291	1291	1291	1291	1291	1291	1291	1291	1291	1291	1291	1291	1291	1296	1296	1296	1296	1296	1296	1296	1296	1296	1296	1296	1296	1296	1291	1291	1291	1291	1291	1291	1291	1291	1291	1291	1291	1291	1291	1291	1291	1296	1296	1296	1296	1296	1296	1296	1296	1296	1296	1301	1296	1296	1296	1301	1301	1301	1301	1301	1301	1301	1301	1301	1306	1306	1306	1306	1306	1306	1306	1306	1306	1306	1306	1306	1306	1306	1306	1311	1311	1311	1311	1311	1311	1311	1311	1311	1311	1311	1311	1311	1311	1311	1311	1311	1311	1316	1311	1311	1311	1316	1316	1316	1316	1316	1321	1321	1321	1321	1321	1316	1316	1316	1316	1316	1316	1316	1311	1311	1306	1306	1301	1301	1301	1296	1296	1301	1301	1301	1301	1306	1306	1306	1306	1306	1311	1311	1311	1311	1311	1311	1311	1311	1311	1311	1311	1311	1311	1316	1316	1316	1316	1316	1316	1316	1316	1316	1316	1316	1316	1321	1321	1321	1321	1326	1326	1321	1321	1321	1321	1321	1321	1316	1316	1321	1316	1316	1311	1311	1311	1311	1311	1311	1311	1311	1311	1311	1311	1311	1311	1311	1316	1316	1321	1326	1326	1331	1331	1331	1331	1331	1331	1331	1326	1326	1326	1326	1326	1326	1331	1331	1331	1331	1336	1342	1352	1358	1363	1358	1358	1358	1358	1358	1358	1358	1358	1358	1363	1363	1363	1363	1363	1363	1363	1363	1363	1363	1363	1363	1363	1368	1368	1368	1363	1363	1368	1368	1368	1368	1368	1368	1374	1374	1374	1374	1374	1374	1374	1374	1374	1374	1374	1379	1379	1379	1379	1379	1379	1379	1379	1379	1379	1379	1385	1385	1385	1385	1385	1385	1385	1385	1385	1385	1385	1385	1385	1385	1385	1385	1385	1385	1385	1385	1385	1385	1390	1390	1385	1385	1385	1390	1390	1390	1390	1390	1390	1390	1390	1390	1390	1390	1390	1390	1390	1390	1390	1390	1390	1390	1390	1390	1390	1396	1396	1396	1396	1396	1396	1396	1396	1396	1396	1396	1396	1396	1396	1396	1396	1396	1396	1402	1402	1407	1407	1407	1407	1407	1407	1407	1402	1402	1402	1402	1402	1407	1407	1407	1407	1407	1407	1407	1407	1407	1413	1407	1407	1407	1407	1407	1407	1407	1407	1407	1413	1413	1413	1413	1413	1413	1413	1413	1413	1413	1413	1419	1419	1419	1419	1419	1419	1419	1425	1425	1425	1425	1425	1425	1425	1425	1425	1425	1425	1425	1431	1431	1431	1431	1431	1431	1431	1431	1425	1425	1431	1431	1431	1431	1431	1437	1437	1437	1437	1437	1437	1437	1437	1437	1437	1443	1443	1443	1443	1443	1449	1455	1449	1449	1443	1443	1443	1443	1449	1449	1449	1449	1449	1455	1455	1455	1455	1461	1461	1461	1461	0	0	0	0	901	898	898	898	896	894	894	891	889	889	887	887	884	884	882	880	878	878	873	873	873	871	869	869	869	0	0	0	0	0	0	0	0	0	0	0	804	802	802	797	797	797	793	793	791	789	789	788	784	784	782	780	780	779	777	773	772	770	768	767	767	767	763	761	761	760	756	755	755	753	753	752	750	750	748	747	747	745	742	742	739	737	736	734	734	734	734	734	732	732	734	734	734	732	732	732	731	731	731	729	729	729	729	729	729	729	729	731	731	0	0	0	0	0	0	0	0	0	0	0	0	0	0	0	0	0	0	0	0	0
