0	0	0	0	0	0	0	0	0	0	0	0	0	0	0	0	0	0	0	0	0	0	0	0	0	0	1368	1368	1363	1363	1363	1363	1363	1358	1358	1363	1358	1358	1358	1358	1358	1358	1358	1358	1358	1358	1358	1358	1352	1352	1352	1358	1352	1352	1352	1352	1352	1358	1358	1358	1358	1358	1358	1358	1352	1352	1352	1352	1352	1352	1352	1352	1352	1352	1352	1352	1352	1352	1352	1352	1352	1352	1352	1347	1347	1347	1347	1347	1347	1347	1347	1347	1347	1342	1342	1342	1336	1336	1336	1336	1336	1336	1336	1336	1342	1342	1342	1342	1336	1336	1336	1336	1336	1336	1336	1336	1336	1336	1336	1336	1336	1336	1331	1331	1331	1331	1331	1331	1331	1331	1331	1331	1331	1331	1331	1326	1326	1326	1321	1321	1326	1326	1321	1321	1321	1321	1321	1321	1321	1316	1316	1321	1316	1316	1316	1316	1316	1316	1316	1311	1311	1311	1311	1311	1311	1311	1311	1311	1311	1306	1306	1311	1311	1311	1311	1311	1311	1306	1306	1306	1306	1306	1306	1306	1306	1306	1306	1306	1301	1301	1301	1301	1296	1296	1296	1301	1301	1301	1291	1291	1301	1291	1291	1291	1291	1291	1291	1291	1291	1291	1291	1291	1291	1291	1291	1291	1291	1287	1287	1287	1287	1287	1287	1287	1287	1287	1287	1291	1291	1291	1287	1287	1287	1291	1287	1287	1287	1287	1287	1287	1287	1287	1287	1287	1287	1282	1282	1282	1277	1277	1277	1277	1277	1277	1277	1277	1277	1277	1277	1277	1277	1277	1277	1277	1272	1272	1272	1272	1272	1272	1272	1272	1272	1272	1272	1272	1272	1272	1272	1272	1268	1268	1268	1268	1268	1268	1268	1268	1268	1268	1268	1268	1268	1268	1268	1268	1268	1268	1268	1268	1268	1268	1268	1268	1268	1268	1263	1263	1263	1263	1263	1263	1259	1259	1263	1263	1259	1259	1259	1254	1254	1249	1249	1254	1254	1254	1254	1254	1254	1254	1254	1254	1254	1249	1249	1249	1249	1249	1249	1249	1249	1249	1249	1249	1249	1249	1249	1249	1249	1249	1249	1249	1249	1249	1249	1249	1249	1249	1249	1245	1245	1245	1245	1245	1245	1245	1245	1245	1245	1245	1245	1245	1245	1245	1245	1245	1245	1245	1245	1245	1245	1245	1245	1240	1240	1240	1240	1240	1240	1240	1240	1240	1240	1240	1240	1240	1240	1232	1232	1232	1236	1232	1232	1232	1232	1232	1232	1232	1232	1232	1232	1232	1232	1232	1232	1232	1232	1232	1232	1232	1232	1232	1227	1227	1227	1227	1227	1227	1227	1227	1227	1227	1227	1227	1227	1227	1227	1223	1223	1227	1227	1223	1223	1223	1223	1223	1223	1219	1219	1219	1219	1219	1219	1219	1223	1219	1219	1219	1219	1219	1219	1214	1214	1214	1214	1214	1214	1214	1214	1214	1210	1210	1214	1214	1210	1210	1210	1210	1210	1210	1210	1210	1210	1210	1210	1210	1210	1210	1210	1210	1206	1206	1206	1202	1202	1206	1206	1202	1206	1206	1206	1202	1202	1197	1197	1197	1197	1197	1197	1197	1193	1193	1193	1193	1193	1193	1193	1193	1193	1193	1193	1193	1193	1193	1193	1193	1193	1189	1189	1189	1189	1189	1193	1193	1193	1189	1189	1189	1189	1189	1189	1189	1189	1189	1185	1185	1185	1185	1185	1185	1185	1185	1185	1185	1185	1185	1185	1185	1185	1181	1181	1181	1181	1177	1177	1177	1177	1177	1177	1177	1177	1177	1181	1181	1181	1181	1177	1177	1181	1177	1177	1177	1177	1177	1177	1177	1177	1177	1177	1177	1181	1177	1177	1177	1181	1181	1177	1177	1177	1181	1177	1177	1177	1177	1177	1173	1173	1173	1173	1173	1173	1173	1173	1173	1173	1173	1173	1173	1173	1173	1173	1173	0	0	0	0	0	0	0	0	0	0	0	0	0	0	0	0	0	0
0	0	0	0	0	0	0	0	0	0	0	0	0	0	0	0	0	0	0	0	0	0	0	0	0	0	1368	1368	1363	1363	1363	1363	1363	1358	1358	1358	1358	1358	1358	1358	1358	1358	1352	1352	1358	1358	1358	1358	1352	1352	1358	1358	1352	1352	1352	1352	1352	1358	1358	1358	1358	1358	1358	1358	1352	1352	1352	1352	1352	1352	1352	1352	1352	1352	1352	1352	1352	1352	1352	1352	1352	1352	1352	1352	1347	1347	1347	1347	1347	1347	1347	1347	1342	1342	1342	1342	1336	1336	1336	1336	1336	1342	1342	1342	1342	1342	1336	1336	1336	1336	1336	1336	1336	1336	1336	1336	1336	1336	1336	1336	1336	1336	1331	1331	1331	1331	1331	1331	1331	1331	1331	1331	1331	1331	1331	1326	1326	1326	1321	1321	1326	1326	1321	1321	1321	1321	1321	1321	1316	1316	1316	1316	1316	1316	1316	1316	1316	1316	1316	1316	1311	1311	1311	1311	1311	1311	1311	1311	1311	1306	1306	1311	1311	1311	1311	1311	1311	1306	1306	1306	1306	1306	1306	1306	1306	1306	1306	1306	1301	1301	1301	1301	1296	1296	1296	1301	1296	1296	1291	1291	1301	1296	1291	1291	1291	1291	1291	1291	1291	1291	1291	1291	1291	1291	1291	1291	1291	1287	1287	1287	1287	1287	1287	1287	1287	1287	1291	1287	1287	1287	1291	1287	1287	1291	1287	1287	1287	1287	1287	1287	1287	1287	1287	1287	1287	1282	1282	1282	1277	1277	1282	1282	1277	1277	1277	1277	1277	1277	1277	1277	1272	1272	1277	1277	1272	1272	1272	1272	1272	1272	1272	1272	1272	1272	1272	1272	1272	1272	1272	1272	1272	1272	1268	1268	1268	1268	1268	1268	1268	1268	1268	1268	1268	1272	1272	1272	1272	1272	1272	1268	1268	1268	1268	1268	1268	1268	1263	1263	1263	1263	1263	1263	1259	1259	1263	1259	1259	1259	1259	1254	1254	1249	1249	1254	1249	1249	1254	1254	1254	1254	1254	1259	1254	1249	1249	1249	1249	1249	1249	1249	1249	1249	1249	1249	1249	1249	1249	1249	1249	1249	1249	1249	1249	1249	1249	1249	1249	1249	1245	1245	1245	1245	1245	1245	1245	1245	1245	1245	1245	1245	1245	1245	1245	1245	1245	1245	1245	1245	1245	1245	1245	1245	1245	1240	1240	1240	1240	1240	1240	1240	1240	1240	1240	1240	1240	1240	1240	1240	1236	1236	1236	1232	1232	1236	1236	1236	1232	1232	1232	1232	1232	1232	1232	1232	1232	1232	1232	1232	1232	1232	1232	1232	1227	1227	1227	1227	1227	1227	1227	1227	1227	1227	1227	1227	1227	1227	1227	1223	1223	1227	1227	1223	1223	1223	1223	1223	1223	1223	1223	1223	1223	1219	1219	1219	1219	1219	1219	1219	1219	1219	1219	1214	1214	1214	1214	1214	1214	1214	1214	1214	1210	1210	1214	1214	1210	1210	1210	1210	1210	1210	1210	1210	1210	1210	1210	1210	1210	1210	1210	1210	1206	1206	1206	1202	1202	1206	1206	1206	1206	1206	1206	1206	1202	1197	1197	1197	1197	1197	1193	1193	1193	1193	1193	1193	1193	1193	1193	1193	1193	1193	1193	1193	1189	1189	1193	1193	1193	1193	1189	1189	1189	1189	1193	1193	1193	1189	1189	1189	1189	1189	1189	1189	1189	1189	1185	1185	1185	1185	1185	1185	1185	1185	1185	1181	1181	1185	1185	1185	1185	1181	1181	1181	1181	1177	1177	1177	1177	1177	1177	1177	1177	1177	1181	1181	1181	1181	1177	1177	1181	1177	1177	1177	1177	1177	1181	1181	1177	1177	1177	1177	1177	1177	1177	1177	1181	1181	1177	1177	1177	1181	1177	1177	1177	1177	1177	1173	1173	1177	1177	1177	1173	1173	1173	1173	1173	1173	1173	1173	1173	1173	1173	1173	0	0	0	0	0	0	0	0	0	0	0	0	0	0	0	0	0	0
0	0	0	0	0	0	0	0	0	0	0	0	0	0	0	0	0	0	0	0	0	0	0	0	0	0	1374	1368	1363	1363	1363	1363	1363	1358	1358	1358	1358	1358	1358	1358	1358	1358	1358	1352	1358	1358	1358	1358	1352	1352	1358	1358	1352	1352	1352	1352	1352	1358	1358	1358	1358	1358	1358	1358	1352	1352	1352	1352	1352	1352	1352	1352	1352	1352	1352	1352	1352	1352	1352	1352	1352	1352	1352	1352	1352	1352	1347	1347	1347	1347	1347	1347	1342	1342	1342	1342	1342	1336	1336	1342	1342	1342	1342	1342	1342	1342	1336	1336	1336	1336	1336	1336	1336	1336	1336	1336	1336	1336	1336	1336	1336	1336	1336	1331	1331	1331	1331	1331	1331	1331	1331	1331	1331	1331	1331	1326	1326	1326	1326	1326	1326	1326	1326	1321	1321	1321	1321	1321	1316	1316	1316	1316	1316	1316	1316	1316	1316	1316	1316	1316	1316	1316	1316	1316	1311	1311	1311	1311	1311	1311	1311	1311	1311	1311	1306	1306	1306	1306	1306	1306	1306	1306	1306	1306	1306	1306	1306	1301	1301	1301	1301	1296	1296	1296	1296	1301	1296	1296	1291	1291	1301	1291	1291	1291	1291	1291	1291	1291	1291	1291	1291	1291	1291	1291	1291	1291	1291	1287	1287	1287	1287	1287	1287	1287	1287	1287	1287	1287	1287	1287	1291	1291	1291	1291	1287	1287	1287	1287	1287	1287	1287	1287	1282	1282	1282	1282	1282	1282	1282	1282	1282	1282	1282	1282	1282	1282	1282	1277	1277	1277	1272	1272	1272	1272	1272	1272	1272	1272	1272	1272	1272	1272	1272	1272	1272	1272	1272	1272	1272	1272	1272	1272	1268	1268	1268	1268	1268	1268	1268	1268	1268	1268	1268	1272	1272	1272	1272	1272	1272	1268	1268	1268	1268	1268	1268	1268	1263	1263	1263	1263	1263	1263	1259	1259	1263	1259	1259	1259	1259	1254	1254	1249	1249	1254	1249	1249	1254	1254	1254	1254	1254	1259	1254	1254	1254	1254	1249	1249	1249	1249	1249	1249	1249	1249	1249	1249	1249	1249	1249	1249	1249	1249	1249	1249	1249	1249	1249	1249	1245	1245	1245	1245	1245	1245	1245	1245	1245	1245	1245	1245	1245	1245	1245	1245	1245	1245	1245	1245	1245	1245	1245	1245	1245	1240	1240	1240	1240	1240	1240	1240	1240	1240	1240	1240	1240	1240	1240	1240	1236	1236	1236	1232	1232	1236	1236	1236	1232	1232	1232	1232	1232	1232	1232	1232	1232	1232	1232	1232	1232	1232	1232	1232	1232	1232	1227	1227	1227	1227	1227	1227	1227	1227	1227	1227	1227	1227	1227	1227	1227	1227	1227	1223	1223	1223	1223	1223	1223	1223	1223	1223	1223	1219	1219	1219	1219	1219	1219	1219	1219	1219	1219	1214	1214	1214	1214	1214	1214	1214	1214	1214	1214	1214	1214	1210	1210	1210	1210	1210	1210	1210	1210	1210	1210	1210	1210	1210	1210	1210	1210	1210	1206	1206	1206	1202	1202	1206	1206	1206	1206	1206	1206	1206	1202	1197	1197	1197	1197	1197	1193	1193	1193	1193	1193	1193	1193	1193	1193	1193	1193	1193	1193	1193	1189	1189	1193	1193	1193	1193	1189	1189	1189	1189	1193	1193	1193	1189	1189	1189	1189	1189	1189	1189	1189	1189	1185	1185	1185	1185	1181	1181	1185	1185	1185	1181	1181	1185	1185	1185	1185	1185	1185	1185	1181	1181	1177	1177	1177	1177	1177	1177	1177	1177	1181	1181	1181	1181	1181	1181	1181	1181	1181	1181	1181	1181	1181	1181	1177	1177	1177	1177	1177	1177	1177	1177	1181	1181	1181	1181	1181	1181	1177	1177	1177	1177	1177	1173	1173	1177	1177	1173	1173	1173	1173	1173	1173	1173	1173	1173	1173	1173	1173	1173	0	0	0	0	0	0	0	0	0	0	0	0	0	0	0	0	0	0
0	0	0	0	0	0	0	0	0	0	0	0	0	0	0	0	0	0	0	0	0	0	0	0	0	0	1374	1368	1358	1358	1358	1358	1358	1358	1358	1358	1358	1358	1358	1358	1358	1358	1358	1358	1358	1358	1358	1358	1352	1352	1358	1358	1352	1352	1352	1352	1352	1358	1358	1358	1358	1358	1358	1352	1352	1352	1358	1352	1352	1352	1352	1352	1352	1352	1352	1352	1352	1352	1352	1352	1352	1352	1352	1352	1352	1352	1352	1352	1347	1347	1347	1347	1347	1342	1342	1342	1342	1342	1342	1342	1342	1342	1342	1342	1342	1342	1342	1342	1336	1336	1336	1336	1336	1336	1336	1336	1336	1336	1336	1336	1336	1336	1336	1331	1331	1331	1331	1331	1331	1331	1331	1331	1331	1331	1331	1326	1326	1326	1326	1326	1326	1326	1321	1321	1321	1321	1321	1321	1316	1316	1316	1316	1316	1316	1316	1316	1316	1316	1316	1316	1316	1316	1316	1316	1311	1311	1311	1311	1311	1311	1311	1311	1311	1311	1306	1306	1306	1306	1306	1306	1306	1306	1306	1306	1306	1301	1301	1301	1301	1301	1301	1296	1296	1296	1296	1301	1296	1296	1291	1296	1301	1291	1291	1291	1291	1291	1291	1291	1296	1296	1291	1291	1291	1291	1291	1291	1291	1291	1287	1287	1287	1287	1287	1287	1287	1287	1287	1287	1291	1291	1291	1287	1287	1287	1287	1287	1287	1287	1287	1287	1287	1287	1282	1282	1282	1282	1282	1282	1282	1282	1282	1282	1282	1282	1282	1282	1282	1277	1277	1277	1277	1272	1272	1272	1272	1272	1272	1272	1272	1272	1272	1272	1272	1272	1272	1272	1272	1272	1272	1272	1272	1272	1268	1268	1272	1268	1268	1268	1268	1268	1268	1268	1268	1272	1272	1272	1272	1272	1272	1268	1268	1268	1268	1268	1268	1268	1268	1268	1263	1263	1263	1263	1259	1259	1263	1259	1259	1259	1259	1254	1254	1249	1249	1254	1254	1254	1254	1254	1254	1254	1254	1254	1254	1254	1254	1254	1249	1249	1249	1249	1249	1249	1249	1249	1249	1249	1249	1249	1249	1249	1249	1249	1249	1249	1249	1249	1249	1249	1245	1245	1245	1249	1249	1249	1249	1245	1245	1245	1245	1245	1245	1245	1245	1245	1245	1245	1245	1245	1245	1245	1245	1245	1245	1245	1240	1240	1245	1245	1240	1240	1240	1240	1240	1240	1240	1240	1240	1240	1236	1236	1236	1232	1232	1236	1236	1236	1232	1232	1232	1232	1232	1232	1232	1232	1232	1232	1232	1232	1232	1232	1232	1232	1232	1232	1232	1227	1227	1227	1227	1227	1227	1227	1227	1227	1227	1227	1227	1227	1227	1227	1223	1223	1223	1223	1223	1223	1223	1223	1223	1223	1223	1223	1219	1219	1219	1219	1219	1219	1219	1219	1219	1214	1214	1214	1214	1214	1214	1214	1214	1210	1210	1210	1210	1210	1210	1210	1210	1210	1210	1210	1210	1210	1210	1210	1210	1210	1210	1210	1210	1210	1206	1206	1206	1206	1206	1206	1206	1206	1206	1206	1206	1206	1206	1197	1197	1197	1197	1197	1197	1193	1193	1193	1193	1193	1193	1193	1193	1193	1193	1193	1193	1193	1189	1189	1193	1193	1193	1193	1189	1189	1193	1193	1193	1193	1193	1193	1193	1193	1189	1189	1189	1189	1189	1189	1185	1185	1185	1185	1181	1181	1185	1185	1185	1185	1185	1185	1185	1185	1185	1185	1185	1185	1181	1181	1185	1181	1181	1181	1181	1181	1177	1177	1181	1181	1181	1181	1181	1181	1181	1181	1181	1181	1177	1177	1181	1181	1181	1181	1181	1181	1181	1181	1177	1177	1177	1181	1181	1181	1181	1181	1177	1177	1177	1177	1177	1173	1173	1173	1173	1173	1173	1173	1173	1173	1173	1173	1173	1173	1173	1173	1173	1173	0	0	0	0	0	0	0	0	0	0	0	0	0	0	0	0	0	0
0	0	0	0	0	0	0	0	0	0	0	0	0	0	0	0	0	0	0	0	0	0	0	0	0	0	1374	1368	1358	1358	1358	1358	1358	1358	1358	1358	1358	1358	1358	1358	1358	1358	1358	1358	1358	1358	1358	1358	1352	1352	1352	1358	1352	1352	1352	1358	1358	1358	1358	1358	1358	1358	1358	1352	1352	1352	1358	1352	1352	1352	1352	1352	1352	1352	1352	1352	1352	1352	1352	1352	1352	1352	1352	1352	1352	1352	1352	1352	1347	1347	1347	1347	1347	1347	1342	1342	1342	1342	1342	1342	1342	1342	1342	1342	1342	1342	1342	1342	1342	1336	1336	1342	1336	1336	1336	1336	1336	1336	1336	1336	1336	1336	1336	1336	1331	1331	1331	1331	1331	1331	1331	1331	1326	1326	1326	1326	1326	1326	1326	1326	1326	1326	1321	1321	1321	1321	1321	1321	1316	1316	1316	1316	1316	1316	1316	1321	1316	1316	1316	1316	1316	1316	1316	1316	1316	1311	1311	1311	1311	1311	1311	1311	1311	1311	1306	1306	1306	1306	1306	1306	1306	1306	1306	1306	1306	1301	1301	1301	1301	1301	1301	1296	1296	1296	1296	1301	1296	1296	1291	1296	1296	1291	1291	1291	1291	1291	1296	1296	1296	1296	1296	1291	1291	1291	1291	1291	1291	1287	1287	1287	1287	1287	1287	1287	1287	1287	1287	1287	1291	1291	1291	1287	1287	1287	1287	1287	1287	1287	1287	1287	1282	1282	1282	1282	1282	1282	1282	1287	1287	1287	1287	1287	1282	1282	1282	1282	1282	1277	1277	1277	1277	1272	1272	1272	1272	1272	1272	1272	1272	1277	1277	1272	1272	1272	1272	1272	1277	1272	1272	1272	1272	1272	1268	1268	1268	1268	1268	1268	1268	1268	1268	1268	1268	1272	1272	1272	1272	1272	1272	1272	1268	1268	1268	1268	1268	1268	1268	1268	1268	1268	1268	1263	1263	1263	1263	1259	1259	1259	1259	1254	1254	1254	1254	1254	1254	1254	1254	1254	1254	1254	1254	1254	1254	1254	1254	1254	1249	1249	1249	1249	1249	1249	1249	1249	1249	1249	1249	1249	1249	1249	1249	1249	1249	1249	1249	1249	1249	1249	1245	1245	1245	1249	1249	1249	1249	1249	1249	1245	1245	1245	1245	1245	1245	1245	1245	1245	1245	1245	1245	1245	1245	1245	1245	1245	1240	1240	1245	1245	1240	1240	1240	1240	1240	1240	1240	1240	1240	1240	1236	1236	1240	1236	1232	1236	1236	1236	1236	1232	1232	1236	1236	1232	1232	1232	1232	1232	1232	1232	1232	1232	1232	1232	1232	1232	1232	1227	1227	1227	1227	1227	1227	1227	1227	1227	1227	1227	1227	1227	1227	1223	1223	1223	1223	1223	1223	1223	1223	1227	1223	1223	1223	1223	1223	1223	1219	1219	1219	1219	1219	1219	1219	1214	1214	1214	1214	1214	1214	1214	1214	1210	1210	1210	1210	1210	1210	1210	1210	1210	1210	1210	1210	1210	1210	1210	1210	1210	1210	1210	1210	1210	1210	1210	1206	1206	1206	1206	1206	1206	1206	1206	1206	1206	1206	1197	1197	1197	1197	1202	1197	1193	1193	1193	1193	1193	1193	1193	1193	1193	1193	1193	1193	1193	1193	1193	1193	1193	1193	1193	1193	1193	1193	1193	1193	1193	1193	1189	1189	1189	1189	1189	1189	1189	1189	1189	1189	1185	1185	1185	1185	1185	1185	1185	1185	1185	1185	1185	1185	1185	1185	1185	1185	1185	1181	1181	1185	1181	1181	1181	1181	1181	1181	1181	1181	1181	1181	1181	1181	1181	1181	1181	1181	1181	1177	1177	1177	1181	1177	1177	1177	1181	1181	1181	1181	1181	1181	1181	1177	1177	1181	1181	1181	1177	1177	1177	1177	1173	1173	1173	1173	1173	1173	1173	1173	1173	1173	1173	1173	1173	1173	1173	1173	1173	0	0	0	0	0	0	0	0	0	0	0	0	0	0	0	0	0	0
0	0	0	0	0	0	0	0	0	0	0	0	0	0	0	0	0	0	0	0	0	0	0	0	0	0	1374	1368	1368	1358	1358	1358	1358	1358	1358	1358	1358	1358	1358	1358	1358	1358	1358	1358	1358	1358	1358	1358	1352	1352	1352	1358	1358	1358	1358	1358	1358	1358	1358	1358	1358	1358	1358	1358	1358	1358	1358	1352	1352	1352	1352	1352	1352	1352	1352	1352	1352	1352	1352	1352	1352	1352	1352	1352	1352	1352	1352	1352	1352	1352	1347	1347	1347	1347	1347	1347	1342	1342	1342	1342	1342	1342	1342	1336	1336	1342	1342	1336	1336	1336	1336	1336	1336	1336	1336	1336	1336	1336	1336	1336	1336	1336	1336	1336	1331	1331	1331	1331	1331	1331	1331	1331	1326	1326	1326	1326	1326	1326	1326	1326	1326	1326	1321	1321	1321	1321	1321	1316	1316	1316	1316	1316	1316	1316	1316	1321	1321	1321	1321	1316	1316	1316	1316	1316	1316	1311	1311	1311	1311	1311	1311	1311	1311	1311	1306	1306	1306	1306	1306	1306	1301	1301	1301	1306	1306	1306	1301	1301	1301	1301	1301	1296	1296	1296	1296	1301	1296	1296	1296	1296	1296	1296	1296	1296	1296	1296	1296	1296	1296	1296	1296	1296	1291	1291	1291	1291	1291	1287	1287	1287	1287	1287	1287	1287	1287	1287	1287	1287	1291	1291	1291	1287	1287	1287	1287	1287	1287	1287	1287	1287	1282	1282	1282	1282	1282	1282	1282	1287	1287	1287	1287	1287	1282	1282	1282	1282	1282	1282	1282	1277	1277	1272	1272	1272	1272	1272	1272	1272	1272	1277	1277	1272	1272	1272	1272	1272	1277	1272	1272	1272	1272	1272	1272	1272	1272	1272	1268	1268	1272	1272	1268	1268	1268	1272	1272	1272	1272	1272	1272	1272	1272	1268	1268	1268	1268	1268	1268	1268	1268	1268	1268	1263	1263	1263	1263	1263	1259	1259	1259	1254	1254	1254	1254	1254	1254	1254	1249	1249	1254	1254	1254	1254	1254	1254	1254	1254	1249	1249	1249	1249	1249	1249	1249	1249	1249	1249	1249	1249	1249	1249	1249	1249	1249	1249	1249	1249	1249	1249	1249	1249	1249	1249	1249	1249	1249	1249	1245	1245	1245	1245	1245	1245	1245	1245	1245	1245	1245	1245	1245	1245	1245	1245	1245	1245	1245	1245	1245	1245	1240	1240	1240	1240	1240	1240	1240	1240	1240	1240	1236	1236	1240	1236	1236	1236	1236	1236	1236	1236	1236	1236	1236	1236	1232	1232	1232	1232	1232	1232	1232	1232	1232	1232	1232	1232	1232	1227	1227	1227	1227	1227	1227	1227	1227	1227	1227	1227	1227	1227	1227	1223	1223	1223	1223	1223	1223	1227	1227	1227	1223	1223	1223	1223	1223	1219	1219	1219	1219	1219	1219	1219	1219	1214	1214	1214	1214	1214	1214	1214	1214	1210	1210	1210	1210	1210	1210	1210	1210	1210	1214	1214	1210	1210	1210	1210	1210	1210	1210	1210	1210	1210	1210	1210	1206	1206	1206	1206	1206	1206	1206	1206	1206	1206	1206	1202	1197	1197	1202	1202	1197	1197	1197	1197	1193	1193	1193	1193	1193	1193	1193	1193	1193	1193	1193	1193	1193	1193	1193	1193	1193	1193	1193	1193	1193	1193	1193	1189	1189	1189	1189	1189	1189	1189	1189	1189	1189	1185	1185	1185	1185	1185	1185	1185	1185	1185	1185	1185	1185	1185	1185	1185	1185	1185	1181	1181	1185	1181	1181	1185	1185	1181	1181	1181	1181	1181	1181	1181	1181	1181	1181	1177	1177	1177	1177	1177	1177	1177	1177	1177	1181	1181	1181	1177	1177	1181	1181	1177	1177	1177	1181	1181	1181	1177	1177	1173	1173	1173	1173	1173	1173	1173	1173	1173	1173	1173	1173	1173	1173	1173	1173	1173	1173	1173	0	0	0	0	0	0	0	0	0	0	0	0	0	0	0	0	0	0
0	0	0	0	0	0	0	0	0	0	0	0	0	0	0	0	0	0	0	0	0	0	0	0	0	0	1368	1368	1358	1358	1358	1358	1358	1363	1358	1358	1358	1358	1358	1358	1358	1358	1358	1358	1358	1358	1358	1358	1352	1352	1358	1358	1358	1358	1358	1358	1358	1358	1358	1358	1358	1358	1358	1358	1358	1358	1358	1352	1352	1352	1352	1352	1352	1352	1352	1352	1352	1352	1352	1352	1352	1352	1352	1352	1352	1352	1347	1347	1347	1347	1347	1347	1347	1347	1347	1347	1342	1342	1342	1342	1342	1342	1342	1336	1336	1336	1336	1336	1336	1336	1336	1336	1336	1336	1336	1336	1336	1336	1336	1336	1336	1336	1336	1336	1336	1336	1336	1331	1331	1331	1331	1331	1331	1331	1331	1326	1326	1326	1326	1326	1326	1326	1321	1321	1321	1321	1316	1316	1316	1316	1316	1316	1316	1316	1316	1316	1316	1316	1321	1316	1316	1316	1316	1316	1311	1311	1311	1311	1311	1311	1311	1311	1311	1311	1306	1306	1306	1306	1306	1306	1301	1301	1301	1301	1301	1306	1301	1301	1306	1306	1301	1301	1301	1296	1296	1301	1296	1296	1296	1296	1296	1296	1291	1291	1296	1296	1296	1296	1296	1296	1296	1291	1291	1291	1291	1291	1291	1291	1287	1287	1287	1287	1287	1287	1287	1287	1287	1287	1287	1287	1291	1291	1287	1287	1287	1287	1287	1287	1287	1287	1287	1287	1287	1287	1282	1282	1282	1282	1282	1287	1287	1287	1282	1282	1282	1282	1282	1282	1282	1282	1282	1277	1277	1277	1277	1277	1277	1277	1277	1277	1277	1272	1272	1272	1272	1272	1272	1272	1277	1277	1272	1272	1272	1272	1272	1272	1268	1268	1272	1272	1268	1268	1272	1272	1272	1272	1272	1272	1272	1272	1272	1272	1272	1268	1268	1268	1268	1268	1268	1268	1268	1263	1263	1263	1263	1263	1263	1259	1259	1259	1259	1259	1259	1254	1254	1254	1249	1249	1254	1254	1254	1254	1254	1254	1254	1254	1249	1249	1249	1249	1249	1249	1249	1249	1249	1249	1249	1249	1249	1249	1249	1249	1249	1249	1249	1249	1249	1249	1249	1249	1249	1249	1249	1249	1249	1249	1245	1245	1245	1245	1245	1245	1245	1245	1245	1245	1245	1245	1245	1245	1245	1245	1245	1245	1245	1245	1245	1245	1245	1240	1240	1240	1240	1240	1240	1240	1240	1240	1236	1236	1240	1236	1236	1236	1236	1236	1236	1236	1236	1236	1236	1236	1232	1232	1232	1232	1232	1232	1232	1232	1232	1232	1232	1232	1232	1232	1232	1227	1227	1227	1227	1227	1227	1227	1227	1227	1227	1227	1227	1223	1223	1223	1223	1223	1223	1227	1227	1227	1223	1223	1223	1223	1219	1219	1214	1214	1214	1214	1214	1219	1219	1214	1214	1219	1214	1214	1214	1214	1214	1210	1210	1210	1214	1214	1214	1214	1214	1214	1214	1214	1210	1210	1210	1210	1210	1210	1210	1210	1210	1210	1210	1210	1210	1210	1210	1210	1206	1206	1206	1206	1206	1206	1206	1202	1197	1197	1197	1202	1197	1197	1197	1197	1197	1193	1193	1193	1193	1193	1193	1193	1193	1193	1193	1193	1193	1193	1193	1193	1193	1193	1193	1193	1193	1193	1193	1189	1189	1189	1189	1189	1189	1189	1189	1189	1189	1189	1185	1185	1185	1185	1185	1185	1185	1185	1185	1185	1185	1185	1185	1185	1185	1185	1185	1185	1185	1181	1181	1185	1185	1181	1181	1181	1181	1181	1181	1181	1181	1181	1181	1177	1177	1177	1177	1177	1177	1177	1177	1177	1181	1181	1181	1177	1177	1181	1181	1177	1177	1177	1181	1181	1181	1177	1177	1173	1173	1173	1173	1173	1173	1173	1173	1173	1173	1173	1173	1173	1173	1173	1173	1173	1173	1173	0	0	0	0	0	0	0	0	0	0	0	0	0	0	0	0	0	0
0	0	0	0	0	0	0	0	0	0	0	0	0	0	0	0	0	0	0	0	0	0	0	0	0	0	1368	1368	1358	1358	1358	1358	1358	1363	1358	1358	1358	1358	1358	1358	1358	1358	1358	1358	1358	1358	1358	1358	1352	1352	1358	1358	1358	1358	1358	1358	1358	1358	1358	1358	1358	1358	1358	1358	1358	1358	1358	1352	1352	1352	1352	1352	1352	1352	1352	1352	1352	1352	1352	1352	1352	1352	1352	1352	1352	1352	1347	1347	1347	1347	1347	1347	1347	1347	1347	1347	1347	1342	1342	1342	1342	1342	1342	1336	1336	1336	1336	1336	1336	1336	1336	1336	1336	1336	1336	1336	1336	1336	1336	1336	1336	1336	1336	1336	1336	1336	1336	1331	1331	1331	1331	1331	1331	1331	1331	1326	1326	1326	1326	1326	1326	1326	1321	1321	1321	1321	1316	1316	1316	1316	1316	1316	1316	1316	1316	1316	1316	1316	1321	1316	1316	1316	1316	1316	1311	1311	1311	1311	1311	1311	1311	1306	1306	1311	1306	1306	1306	1306	1306	1306	1301	1301	1301	1301	1306	1306	1301	1301	1301	1301	1301	1301	1296	1296	1296	1296	1296	1296	1296	1296	1296	1296	1291	1291	1301	1301	1296	1296	1296	1296	1296	1291	1291	1291	1291	1291	1291	1291	1291	1291	1287	1287	1287	1287	1287	1287	1287	1287	1287	1287	1291	1287	1287	1287	1287	1287	1287	1287	1287	1287	1287	1287	1287	1287	1287	1282	1282	1282	1282	1287	1287	1287	1287	1287	1287	1287	1287	1282	1282	1282	1282	1282	1277	1277	1277	1277	1277	1277	1277	1272	1272	1272	1272	1272	1277	1277	1272	1272	1277	1272	1272	1272	1272	1272	1272	1272	1268	1268	1272	1272	1272	1272	1268	1268	1268	1268	1272	1272	1272	1272	1272	1272	1272	1272	1268	1268	1268	1268	1268	1268	1268	1263	1263	1263	1263	1263	1263	1263	1263	1263	1259	1259	1254	1254	1254	1254	1254	1254	1249	1249	1254	1254	1254	1254	1254	1254	1249	1249	1249	1249	1249	1249	1249	1249	1249	1249	1249	1249	1249	1249	1249	1249	1249	1249	1249	1249	1249	1249	1249	1249	1249	1249	1249	1249	1249	1249	1249	1249	1245	1245	1245	1245	1245	1245	1245	1245	1245	1245	1245	1245	1245	1245	1245	1245	1245	1245	1245	1245	1245	1240	1240	1240	1240	1236	1236	1240	1240	1240	1240	1240	1240	1236	1236	1236	1236	1236	1236	1236	1236	1236	1236	1236	1232	1232	1232	1232	1232	1232	1232	1232	1232	1232	1232	1232	1232	1232	1232	1227	1227	1227	1227	1227	1227	1227	1227	1227	1227	1227	1227	1227	1227	1227	1227	1227	1227	1227	1227	1227	1223	1223	1223	1219	1219	1219	1214	1214	1214	1214	1214	1214	1214	1214	1214	1219	1214	1214	1214	1214	1214	1210	1210	1210	1214	1214	1214	1214	1214	1214	1214	1214	1214	1210	1210	1210	1210	1210	1210	1210	1210	1210	1210	1210	1210	1210	1210	1210	1206	1206	1206	1206	1206	1206	1206	1202	1202	1197	1197	1202	1197	1197	1197	1197	1197	1193	1193	1193	1193	1193	1193	1193	1193	1193	1193	1193	1193	1193	1193	1193	1193	1193	1193	1193	1193	1193	1193	1189	1189	1189	1189	1189	1189	1189	1189	1189	1189	1189	1189	1185	1185	1185	1185	1185	1185	1185	1185	1185	1185	1185	1185	1185	1185	1185	1185	1185	1185	1181	1181	1181	1185	1185	1181	1181	1181	1181	1181	1181	1181	1181	1181	1181	1177	1177	1177	1177	1177	1177	1177	1181	1181	1181	1181	1177	1177	1181	1181	1181	1181	1181	1181	1181	1181	1181	1177	1177	1177	1177	1177	1173	1173	1173	1173	1173	1173	1173	1173	1173	1173	1173	1173	1173	1173	1173	0	0	0	0	0	0	0	0	0	0	0	0	0	0	0	0	0	0
0	0	0	0	0	0	0	0	0	0	0	0	0	0	0	0	0	0	0	0	0	0	0	0	0	0	1368	1368	1358	1358	1358	1358	1363	1363	1358	1358	1358	1358	1358	1358	1358	1358	1358	1358	1358	1358	1358	1358	1352	1352	1358	1358	1358	1358	1358	1358	1358	1358	1358	1358	1358	1358	1358	1358	1352	1352	1358	1358	1358	1358	1358	1358	1358	1352	1352	1352	1352	1352	1352	1352	1352	1352	1352	1352	1352	1352	1352	1352	1347	1347	1347	1347	1347	1347	1347	1347	1347	1342	1342	1342	1342	1342	1342	1336	1336	1336	1336	1336	1336	1336	1336	1336	1336	1336	1336	1336	1336	1336	1336	1336	1336	1336	1336	1336	1336	1336	1336	1331	1331	1331	1331	1331	1331	1331	1331	1326	1326	1326	1326	1326	1326	1326	1326	1321	1321	1321	1316	1316	1316	1316	1316	1316	1321	1321	1321	1321	1321	1321	1321	1316	1316	1316	1316	1316	1311	1311	1311	1311	1311	1311	1311	1306	1306	1311	1306	1306	1306	1306	1306	1306	1306	1306	1306	1306	1306	1306	1301	1301	1301	1301	1301	1301	1301	1301	1296	1296	1296	1296	1296	1296	1296	1296	1296	1296	1301	1301	1296	1296	1296	1296	1296	1296	1291	1291	1291	1291	1291	1291	1291	1291	1287	1287	1287	1287	1287	1287	1287	1287	1287	1287	1287	1287	1287	1287	1287	1287	1287	1287	1287	1287	1287	1287	1287	1287	1287	1287	1287	1287	1287	1287	1287	1287	1287	1287	1287	1287	1287	1282	1282	1282	1282	1282	1282	1277	1277	1277	1277	1277	1277	1272	1272	1277	1272	1272	1277	1277	1277	1277	1277	1272	1272	1272	1272	1272	1272	1272	1272	1272	1272	1272	1268	1268	1268	1268	1268	1268	1272	1272	1272	1272	1272	1272	1272	1272	1268	1268	1268	1268	1268	1268	1268	1268	1268	1268	1263	1263	1263	1263	1263	1259	1259	1259	1254	1254	1254	1254	1254	1254	1249	1254	1254	1254	1254	1254	1254	1254	1254	1254	1249	1249	1249	1249	1249	1249	1249	1249	1249	1249	1249	1249	1249	1249	1249	1249	1249	1249	1249	1249	1249	1249	1249	1249	1249	1249	1245	1245	1245	1245	1245	1245	1245	1245	1245	1245	1245	1245	1245	1245	1245	1245	1245	1245	1245	1245	1245	1245	1245	1245	1245	1240	1240	1240	1240	1236	1236	1236	1236	1236	1240	1240	1240	1236	1236	1236	1236	1236	1232	1232	1232	1232	1232	1236	1232	1232	1232	1232	1232	1232	1232	1232	1232	1232	1232	1232	1232	1232	1232	1232	1232	1227	1227	1227	1227	1227	1227	1227	1227	1227	1227	1227	1227	1227	1227	1227	1227	1227	1227	1223	1223	1223	1219	1219	1219	1219	1214	1214	1214	1214	1214	1214	1214	1214	1214	1219	1214	1214	1214	1214	1214	1214	1214	1214	1214	1214	1214	1214	1214	1214	1214	1214	1214	1210	1210	1210	1210	1210	1210	1210	1210	1210	1210	1210	1210	1210	1210	1210	1206	1206	1206	1206	1206	1206	1206	1202	1202	1202	1202	1202	1202	1197	1197	1197	1197	1193	1193	1193	1193	1193	1193	1193	1193	1193	1193	1193	1193	1193	1193	1193	1193	1193	1193	1193	1193	1193	1193	1189	1189	1189	1189	1189	1189	1189	1189	1189	1189	1189	1189	1185	1185	1185	1185	1185	1185	1185	1185	1185	1185	1185	1185	1185	1185	1185	1181	1181	1185	1181	1181	1181	1185	1185	1185	1181	1181	1181	1181	1177	1177	1177	1177	1177	1177	1177	1177	1177	1177	1177	1177	1181	1181	1181	1181	1181	1181	1181	1181	1181	1177	1177	1181	1181	1181	1181	1181	1177	1177	1177	1177	1177	1177	1173	1173	1177	1173	1173	1173	1173	1177	1177	1173	1173	1173	1173	0	0	0	0	0	0	0	0	0	0	0	0	0	0	0	0	0	0
0	0	0	0	0	0	0	0	0	0	0	0	0	0	0	0	0	0	0	0	0	0	0	0	0	0	1368	1368	1368	1363	1363	1363	1363	1363	1358	1358	1358	1358	1358	1358	1358	1358	1358	1358	1358	1358	1358	1358	1358	1358	1358	1358	1358	1358	1358	1358	1358	1358	1358	1358	1358	1358	1358	1358	1352	1352	1358	1358	1358	1358	1358	1358	1358	1358	1358	1352	1352	1352	1352	1352	1352	1352	1352	1352	1347	1347	1347	1352	1347	1347	1347	1347	1347	1347	1347	1347	1347	1342	1342	1342	1342	1342	1342	1342	1336	1336	1342	1336	1336	1336	1336	1336	1336	1336	1336	1336	1336	1336	1336	1336	1336	1336	1336	1331	1331	1331	1336	1331	1331	1331	1331	1331	1331	1331	1331	1326	1326	1326	1326	1326	1326	1321	1321	1321	1321	1321	1321	1321	1321	1321	1321	1321	1321	1321	1321	1321	1321	1321	1316	1316	1316	1316	1311	1311	1311	1311	1311	1311	1311	1311	1311	1306	1306	1311	1306	1306	1306	1306	1306	1306	1306	1306	1306	1306	1306	1306	1301	1301	1301	1301	1301	1301	1301	1301	1301	1306	1301	1296	1296	1296	1296	1296	1296	1296	1296	1296	1301	1296	1296	1291	1291	1291	1291	1291	1291	1291	1291	1291	1291	1291	1287	1287	1291	1291	1291	1291	1287	1287	1287	1287	1287	1287	1287	1287	1287	1287	1287	1287	1287	1287	1287	1287	1287	1287	1287	1282	1282	1287	1287	1287	1287	1287	1287	1287	1287	1287	1287	1287	1287	1282	1282	1282	1282	1282	1277	1277	1277	1277	1277	1277	1277	1277	1277	1277	1277	1272	1272	1272	1277	1272	1272	1272	1272	1272	1272	1272	1272	1272	1272	1272	1268	1268	1268	1268	1268	1268	1268	1268	1272	1272	1272	1272	1272	1272	1272	1268	1268	1268	1268	1268	1268	1268	1268	1268	1268	1263	1263	1263	1263	1259	1259	1259	1259	1259	1259	1254	1254	1254	1254	1254	1254	1249	1249	1249	1249	1254	1254	1254	1249	1249	1249	1249	1249	1249	1249	1249	1249	1249	1249	1249	1249	1249	1249	1249	1249	1249	1249	1249	1249	1249	1249	1249	1249	1249	1245	1245	1245	1245	1245	1245	1245	1245	1245	1245	1245	1245	1245	1245	1245	1245	1245	1245	1245	1245	1245	1245	1245	1245	1245	1240	1240	1240	1236	1236	1236	1236	1236	1236	1240	1240	1240	1236	1236	1236	1236	1236	1232	1232	1232	1232	1232	1232	1232	1232	1232	1232	1232	1232	1232	1232	1232	1232	1232	1232	1232	1232	1232	1232	1232	1227	1227	1227	1227	1227	1227	1227	1227	1227	1227	1227	1227	1227	1227	1227	1227	1227	1227	1223	1223	1223	1219	1219	1219	1219	1214	1214	1214	1214	1214	1219	1219	1219	1219	1219	1214	1214	1214	1214	1214	1214	1214	1214	1214	1214	1214	1214	1214	1214	1214	1214	1210	1210	1210	1210	1210	1210	1210	1210	1210	1210	1210	1210	1210	1210	1210	1210	1210	1210	1206	1206	1206	1206	1206	1202	1202	1202	1202	1202	1202	1202	1197	1197	1197	1197	1193	1193	1193	1193	1193	1193	1193	1193	1193	1193	1193	1193	1193	1193	1193	1193	1193	1193	1193	1193	1193	1189	1189	1189	1189	1189	1189	1189	1189	1189	1189	1189	1189	1185	1185	1185	1185	1185	1185	1185	1185	1185	1185	1185	1185	1185	1185	1185	1181	1181	1181	1181	1181	1181	1185	1185	1181	1181	1177	1177	1181	1177	1177	1177	1177	1177	1177	1177	1177	1177	1177	1177	1177	1177	1181	1181	1181	1177	1177	1181	1181	1181	1177	1177	1181	1181	1181	1181	1177	1177	1177	1177	1177	1173	1173	1173	1173	1177	1173	1173	1173	1173	1177	1177	1177	1173	1173	1173	0	0	0	0	0	0	0	0	0	0	0	0	0	0	0	0	0	0
0	0	0	0	0	0	0	0	0	0	0	0	0	0	0	0	0	0	0	0	0	0	0	0	0	0	1368	1368	1368	1368	1363	1363	1363	1358	1358	1358	1358	1358	1358	1358	1358	1358	1358	1358	1358	1358	1352	1358	1358	1358	1358	1358	1358	1358	1358	1358	1358	1358	1358	1358	1358	1358	1358	1358	1352	1352	1352	1352	1358	1358	1358	1358	1358	1358	1358	1352	1352	1352	1352	1352	1352	1352	1352	1352	1347	1347	1347	1347	1347	1347	1347	1347	1347	1347	1347	1347	1342	1342	1342	1342	1342	1342	1342	1342	1342	1342	1342	1336	1336	1336	1336	1336	1336	1336	1336	1342	1336	1336	1336	1336	1336	1336	1336	1331	1331	1331	1331	1331	1331	1331	1331	1331	1331	1331	1331	1326	1326	1326	1326	1326	1326	1321	1321	1321	1321	1321	1321	1321	1321	1321	1321	1321	1321	1321	1321	1321	1321	1321	1316	1316	1316	1316	1311	1311	1311	1311	1311	1311	1311	1311	1311	1311	1311	1311	1311	1311	1306	1306	1306	1306	1306	1306	1306	1306	1306	1306	1301	1301	1301	1301	1306	1301	1301	1301	1301	1306	1301	1301	1301	1296	1296	1296	1296	1296	1296	1296	1301	1296	1296	1291	1291	1291	1291	1291	1291	1291	1291	1291	1291	1291	1291	1291	1291	1291	1291	1287	1287	1287	1287	1287	1287	1287	1287	1287	1287	1287	1287	1287	1287	1287	1287	1287	1287	1287	1287	1282	1282	1282	1282	1287	1287	1287	1287	1287	1287	1287	1287	1282	1282	1282	1282	1282	1282	1277	1277	1277	1277	1277	1277	1277	1277	1277	1277	1272	1272	1272	1272	1272	1272	1272	1272	1272	1272	1272	1272	1268	1268	1272	1272	1272	1268	1268	1268	1268	1268	1268	1268	1268	1268	1268	1268	1268	1272	1272	1272	1268	1268	1268	1268	1268	1268	1268	1268	1268	1268	1268	1268	1263	1263	1259	1259	1259	1259	1259	1259	1254	1254	1254	1254	1254	1249	1249	1249	1249	1249	1254	1254	1254	1249	1249	1249	1249	1249	1249	1249	1249	1249	1249	1249	1249	1249	1249	1249	1249	1249	1249	1249	1249	1249	1249	1249	1249	1249	1249	1245	1245	1245	1245	1245	1245	1245	1245	1245	1245	1245	1245	1245	1245	1245	1245	1245	1245	1245	1245	1245	1245	1245	1245	1245	1240	1240	1240	1236	1236	1236	1236	1236	1236	1236	1240	1240	1236	1236	1236	1236	1232	1232	1232	1232	1232	1232	1232	1232	1232	1232	1232	1232	1232	1232	1227	1227	1232	1232	1232	1232	1232	1232	1232	1232	1232	1227	1227	1227	1227	1227	1227	1227	1227	1227	1227	1227	1227	1227	1227	1227	1227	1227	1223	1223	1223	1219	1219	1219	1214	1214	1214	1214	1214	1214	1219	1219	1219	1219	1219	1214	1214	1214	1214	1214	1214	1214	1214	1214	1214	1214	1214	1214	1214	1214	1214	1210	1210	1210	1210	1210	1210	1210	1210	1210	1210	1210	1210	1210	1210	1210	1210	1210	1210	1210	1206	1206	1206	1206	1202	1202	1202	1202	1202	1202	1202	1197	1197	1197	1197	1193	1193	1193	1193	1193	1193	1193	1193	1193	1193	1193	1193	1193	1193	1193	1193	1193	1193	1193	1193	1193	1189	1189	1189	1189	1189	1189	1189	1189	1189	1189	1189	1189	1189	1189	1189	1189	1189	1185	1185	1185	1185	1185	1185	1185	1185	1185	1185	1181	1181	1181	1181	1181	1181	1181	1185	1181	1181	1177	1177	1181	1177	1177	1177	1177	1177	1177	1177	1177	1177	1177	1177	1177	1177	1181	1181	1181	1177	1177	1181	1181	1181	1181	1181	1177	1177	1177	1177	1177	1177	1177	1177	1177	1173	1173	1173	1173	1177	1177	1177	1173	1173	1177	1173	1173	1173	1173	1173	0	0	0	0	0	0	0	0	0	0	0	0	0	0	0	0	0	0
0	0	0	0	0	0	0	0	0	0	0	0	0	0	0	0	0	0	0	0	0	0	0	0	0	0	1368	1363	1363	1363	1363	1363	1363	1358	1358	1358	1358	1358	1358	1358	1352	1352	1358	1352	1352	1352	1352	1358	1358	1358	1358	1358	1358	1358	1358	1358	1358	1358	1358	1358	1358	1358	1358	1352	1352	1352	1352	1352	1352	1352	1352	1358	1358	1358	1358	1352	1352	1352	1352	1352	1352	1352	1352	1352	1347	1347	1347	1347	1347	1347	1347	1347	1347	1347	1342	1342	1342	1342	1342	1342	1342	1342	1342	1342	1342	1342	1342	1336	1336	1336	1336	1336	1336	1336	1336	1342	1336	1336	1336	1336	1336	1336	1336	1331	1331	1331	1331	1331	1331	1331	1331	1331	1331	1331	1331	1326	1326	1326	1326	1326	1326	1326	1321	1321	1321	1321	1321	1316	1316	1316	1316	1321	1321	1321	1321	1321	1321	1321	1321	1316	1316	1316	1311	1311	1311	1311	1311	1311	1311	1311	1311	1311	1311	1311	1311	1311	1306	1306	1306	1306	1306	1306	1306	1306	1306	1306	1301	1301	1301	1301	1306	1301	1301	1301	1301	1301	1301	1301	1301	1296	1296	1296	1296	1296	1296	1301	1296	1296	1296	1291	1291	1291	1291	1291	1296	1291	1291	1291	1291	1291	1291	1291	1291	1291	1291	1287	1287	1287	1287	1287	1287	1287	1287	1287	1287	1287	1291	1291	1287	1287	1287	1287	1287	1287	1287	1287	1287	1282	1282	1287	1287	1282	1282	1287	1287	1287	1282	1282	1282	1282	1282	1282	1282	1277	1277	1277	1277	1277	1277	1272	1272	1277	1277	1272	1272	1272	1272	1272	1272	1272	1272	1272	1272	1272	1272	1268	1268	1272	1272	1272	1272	1272	1272	1272	1268	1268	1268	1268	1268	1268	1268	1268	1272	1272	1272	1272	1268	1268	1268	1268	1268	1268	1268	1268	1268	1268	1268	1268	1268	1259	1259	1259	1259	1259	1254	1254	1254	1254	1254	1254	1249	1249	1249	1249	1249	1249	1249	1249	1249	1249	1249	1249	1249	1249	1249	1249	1249	1249	1249	1249	1249	1249	1249	1249	1249	1249	1249	1249	1249	1249	1249	1249	1245	1245	1245	1245	1245	1245	1245	1245	1245	1245	1245	1245	1245	1245	1245	1245	1245	1245	1245	1245	1245	1245	1245	1245	1245	1245	1245	1240	1240	1240	1240	1236	1236	1236	1236	1236	1236	1240	1240	1236	1236	1236	1236	1232	1232	1232	1232	1232	1232	1232	1232	1232	1232	1232	1232	1232	1232	1227	1227	1232	1232	1232	1232	1232	1232	1232	1232	1232	1232	1232	1227	1227	1227	1227	1227	1227	1227	1227	1227	1227	1227	1227	1227	1227	1223	1223	1223	1223	1219	1219	1219	1214	1214	1214	1214	1214	1214	1214	1214	1214	1214	1219	1214	1214	1214	1214	1214	1214	1214	1214	1214	1214	1214	1214	1214	1214	1214	1214	1210	1210	1210	1210	1210	1210	1210	1210	1210	1210	1210	1210	1210	1210	1210	1210	1210	1210	1206	1206	1206	1206	1206	1202	1202	1202	1202	1202	1202	1202	1202	1197	1197	1197	1197	1193	1193	1193	1193	1193	1193	1193	1193	1193	1193	1193	1193	1193	1193	1193	1193	1193	1193	1193	1193	1189	1189	1189	1189	1189	1189	1189	1189	1189	1189	1189	1189	1189	1189	1189	1189	1189	1189	1189	1189	1185	1185	1189	1185	1185	1185	1185	1181	1181	1181	1181	1181	1181	1181	1185	1181	1181	1181	1181	1181	1181	1181	1181	1177	1177	1177	1177	1177	1177	1177	1177	1177	1181	1181	1181	1181	1181	1181	1181	1181	1177	1177	1177	1177	1177	1177	1177	1177	1177	1177	1177	1177	1177	1177	1177	1177	1177	1177	1177	1177	1177	1177	1173	1173	1173	1173	1173	0	0	0	0	0	0	0	0	0	0	0	0	0	0	0	0	0	0
0	0	0	0	0	0	0	0	0	0	0	0	0	0	0	0	0	0	0	0	0	0	0	0	0	0	1363	1363	1363	1363	1363	1363	1363	1358	1358	1358	1358	1358	1358	1358	1352	1352	1352	1352	1352	1358	1358	1358	1358	1358	1358	1358	1358	1358	1358	1358	1358	1358	1358	1358	1358	1358	1358	1352	1352	1352	1352	1352	1352	1352	1358	1358	1358	1358	1358	1358	1358	1358	1352	1352	1352	1352	1352	1352	1352	1347	1347	1352	1347	1347	1347	1347	1347	1347	1342	1342	1342	1342	1342	1342	1342	1342	1342	1342	1342	1342	1342	1336	1336	1336	1336	1336	1336	1336	1336	1342	1336	1336	1336	1336	1336	1336	1336	1331	1331	1331	1331	1331	1331	1336	1331	1331	1331	1331	1331	1326	1326	1326	1326	1326	1326	1326	1321	1321	1321	1321	1321	1316	1316	1316	1316	1321	1321	1321	1321	1321	1321	1321	1321	1316	1316	1316	1311	1311	1311	1311	1311	1311	1311	1311	1306	1306	1306	1306	1311	1311	1306	1306	1306	1306	1306	1306	1306	1306	1306	1306	1306	1306	1306	1306	1306	1301	1301	1301	1301	1301	1306	1301	1301	1301	1301	1296	1296	1296	1296	1296	1296	1296	1296	1291	1291	1291	1296	1296	1296	1296	1296	1296	1296	1291	1291	1291	1291	1291	1291	1287	1287	1287	1287	1287	1287	1287	1287	1287	1287	1287	1291	1291	1287	1287	1287	1287	1287	1287	1287	1287	1287	1282	1282	1287	1287	1282	1282	1282	1282	1287	1282	1282	1282	1282	1282	1282	1282	1277	1277	1277	1277	1277	1277	1272	1272	1277	1277	1272	1272	1272	1272	1272	1272	1272	1272	1272	1272	1272	1272	1272	1272	1272	1272	1272	1272	1272	1272	1268	1268	1268	1268	1268	1268	1268	1268	1268	1272	1272	1272	1268	1268	1268	1268	1268	1268	1268	1268	1268	1268	1268	1268	1268	1263	1259	1259	1259	1259	1254	1254	1254	1254	1254	1254	1254	1254	1254	1254	1249	1249	1249	1249	1249	1249	1249	1254	1249	1249	1249	1249	1249	1249	1249	1249	1249	1249	1249	1249	1249	1249	1249	1249	1249	1249	1249	1249	1245	1245	1245	1245	1245	1245	1245	1245	1245	1245	1245	1245	1245	1245	1245	1245	1245	1245	1245	1245	1245	1245	1245	1245	1245	1245	1245	1245	1240	1240	1240	1240	1240	1240	1236	1236	1236	1240	1240	1240	1236	1236	1236	1236	1232	1232	1232	1232	1232	1232	1232	1232	1232	1232	1232	1232	1232	1232	1232	1232	1232	1232	1232	1232	1232	1232	1232	1232	1232	1232	1232	1232	1227	1227	1227	1227	1227	1227	1227	1227	1227	1227	1227	1227	1227	1223	1223	1223	1223	1219	1219	1219	1214	1214	1214	1214	1214	1214	1214	1214	1214	1214	1219	1219	1214	1214	1214	1214	1214	1214	1214	1214	1214	1219	1214	1214	1214	1214	1210	1210	1210	1210	1210	1210	1210	1210	1210	1210	1210	1210	1210	1210	1210	1210	1210	1210	1210	1206	1206	1206	1206	1206	1202	1202	1202	1202	1202	1202	1202	1202	1197	1197	1197	1197	1193	1193	1193	1193	1193	1193	1193	1193	1193	1193	1193	1193	1193	1193	1193	1193	1193	1193	1193	1193	1189	1189	1189	1189	1189	1189	1189	1189	1189	1189	1189	1189	1189	1189	1189	1189	1189	1189	1189	1189	1189	1189	1189	1185	1185	1185	1185	1185	1185	1185	1185	1181	1181	1181	1185	1185	1181	1181	1181	1181	1181	1181	1181	1177	1177	1177	1177	1177	1177	1177	1177	1177	1181	1181	1177	1177	1181	1181	1181	1181	1177	1177	1177	1177	1177	1177	1177	1177	1177	1177	1177	1177	1177	1177	1177	1177	1181	1177	1177	1177	1177	1177	1177	1177	1173	1173	1173	0	0	0	0	0	0	0	0	0	0	0	0	0	0	0	0	0	0
0	0	0	0	0	0	0	0	0	0	0	0	0	0	0	0	0	0	0	0	0	0	0	0	0	0	1363	1363	1363	1363	1363	1363	1358	1358	1358	1358	1358	1358	1358	1358	1358	1352	1352	1352	1352	1352	1352	1358	1358	1358	1358	1358	1358	1358	1358	1358	1358	1358	1358	1358	1358	1358	1352	1352	1352	1352	1352	1352	1352	1358	1358	1358	1358	1358	1358	1358	1358	1352	1352	1352	1352	1352	1352	1352	1352	1347	1347	1352	1347	1347	1347	1347	1347	1347	1342	1342	1342	1342	1342	1342	1342	1342	1342	1342	1342	1342	1342	1336	1336	1336	1336	1336	1336	1336	1336	1342	1336	1336	1336	1336	1336	1336	1336	1336	1336	1336	1336	1331	1331	1336	1331	1331	1331	1331	1331	1326	1326	1326	1321	1321	1321	1321	1321	1321	1321	1321	1321	1321	1321	1321	1321	1321	1321	1321	1321	1321	1321	1321	1321	1316	1316	1316	1311	1311	1311	1311	1311	1311	1311	1311	1306	1306	1306	1306	1311	1311	1306	1306	1306	1306	1306	1306	1301	1301	1306	1306	1306	1306	1306	1306	1306	1306	1306	1306	1306	1306	1306	1301	1301	1301	1301	1296	1296	1301	1301	1296	1296	1296	1291	1291	1296	1296	1291	1291	1296	1296	1296	1296	1291	1291	1291	1291	1291	1291	1291	1291	1287	1287	1287	1287	1287	1287	1287	1287	1291	1291	1291	1291	1287	1287	1287	1287	1287	1287	1287	1287	1287	1282	1282	1287	1287	1282	1282	1282	1282	1287	1282	1282	1282	1282	1282	1282	1282	1277	1277	1277	1277	1277	1277	1277	1277	1277	1277	1277	1272	1272	1272	1272	1272	1272	1272	1272	1272	1272	1272	1272	1272	1272	1272	1272	1272	1272	1272	1268	1268	1268	1268	1268	1268	1268	1268	1268	1268	1272	1268	1268	1268	1268	1268	1268	1268	1268	1268	1268	1268	1268	1268	1268	1263	1259	1259	1259	1259	1254	1254	1254	1254	1254	1254	1254	1249	1249	1249	1249	1249	1249	1249	1249	1249	1249	1249	1249	1249	1249	1249	1249	1249	1249	1249	1249	1249	1249	1249	1249	1249	1249	1249	1249	1245	1245	1245	1245	1245	1245	1245	1245	1249	1249	1249	1249	1249	1245	1245	1245	1245	1245	1245	1245	1245	1245	1245	1245	1245	1245	1245	1245	1245	1245	1240	1240	1240	1240	1240	1240	1240	1236	1236	1240	1236	1236	1236	1236	1236	1236	1232	1232	1232	1232	1232	1232	1232	1232	1232	1232	1232	1232	1232	1232	1232	1232	1232	1232	1232	1232	1232	1232	1232	1232	1232	1232	1232	1232	1232	1227	1227	1227	1227	1232	1232	1232	1232	1227	1227	1227	1227	1227	1223	1223	1223	1223	1223	1219	1219	1219	1214	1214	1214	1214	1214	1219	1219	1219	1219	1219	1219	1214	1214	1214	1214	1214	1214	1214	1219	1214	1214	1214	1214	1214	1214	1210	1210	1210	1210	1210	1210	1210	1210	1210	1210	1210	1210	1210	1210	1210	1210	1210	1210	1210	1206	1206	1206	1206	1206	1202	1202	1202	1202	1202	1202	1202	1197	1197	1197	1197	1197	1193	1193	1193	1193	1193	1193	1193	1193	1193	1193	1193	1193	1193	1193	1193	1193	1193	1193	1193	1193	1189	1189	1189	1189	1189	1189	1189	1189	1189	1189	1189	1189	1189	1189	1189	1189	1189	1189	1189	1189	1189	1189	1189	1185	1185	1185	1185	1185	1185	1185	1185	1181	1181	1185	1185	1185	1181	1181	1181	1181	1181	1177	1177	1177	1177	1177	1177	1177	1177	1177	1177	1177	1181	1177	1177	1177	1181	1181	1181	1181	1181	1181	1177	1177	1177	1177	1177	1177	1177	1177	1177	1177	1177	1177	1177	1181	1181	1177	1177	1177	1177	1177	1177	1177	1173	1173	1173	0	0	0	0	0	0	0	0	0	0	0	0	0	0	0	0	0	0
0	0	0	0	0	0	0	0	0	0	0	0	0	0	0	0	0	0	0	0	0	0	0	0	0	0	1363	1363	1363	1363	1363	1363	1358	1358	1358	1358	1358	1358	1358	1358	1358	1358	1358	1352	1352	1352	1352	1358	1358	1358	1358	1358	1358	1358	1358	1358	1358	1358	1358	1358	1358	1352	1352	1352	1352	1352	1352	1352	1352	1352	1352	1358	1352	1352	1358	1358	1358	1352	1352	1352	1352	1352	1352	1352	1352	1352	1352	1352	1352	1347	1347	1347	1347	1347	1342	1342	1342	1342	1342	1342	1342	1342	1342	1342	1342	1342	1342	1336	1336	1336	1336	1336	1336	1336	1336	1342	1336	1336	1336	1336	1336	1336	1336	1336	1336	1336	1331	1331	1331	1336	1331	1331	1331	1331	1331	1326	1326	1326	1321	1321	1321	1321	1321	1321	1321	1321	1321	1321	1321	1321	1321	1321	1321	1321	1321	1321	1321	1321	1321	1321	1316	1316	1316	1311	1311	1311	1311	1311	1306	1306	1306	1306	1306	1306	1306	1311	1306	1306	1306	1306	1306	1306	1301	1301	1306	1306	1306	1306	1306	1306	1306	1306	1301	1301	1306	1306	1301	1301	1301	1301	1301	1301	1301	1301	1301	1296	1296	1296	1291	1291	1296	1296	1291	1291	1296	1296	1296	1291	1291	1291	1291	1291	1291	1291	1291	1291	1287	1287	1287	1287	1291	1287	1287	1287	1287	1287	1287	1287	1287	1287	1287	1287	1287	1287	1287	1287	1287	1287	1287	1287	1287	1282	1282	1282	1282	1282	1282	1282	1282	1282	1282	1282	1282	1282	1277	1277	1277	1277	1277	1277	1277	1282	1277	1277	1272	1272	1277	1272	1272	1272	1272	1272	1272	1272	1272	1272	1272	1272	1272	1272	1272	1272	1272	1268	1268	1268	1268	1268	1268	1268	1268	1268	1268	1272	1268	1268	1268	1268	1268	1268	1268	1268	1268	1268	1268	1268	1268	1268	1263	1259	1259	1259	1259	1254	1254	1254	1254	1254	1254	1254	1249	1249	1249	1249	1249	1249	1249	1249	1249	1249	1249	1249	1249	1249	1249	1249	1249	1249	1249	1249	1249	1249	1249	1249	1249	1249	1249	1249	1245	1245	1245	1245	1245	1245	1245	1245	1249	1249	1249	1249	1249	1249	1249	1245	1245	1245	1245	1245	1245	1245	1245	1245	1245	1245	1245	1245	1245	1240	1240	1240	1240	1240	1240	1240	1236	1236	1236	1236	1236	1236	1236	1236	1236	1232	1232	1232	1232	1232	1232	1232	1232	1232	1232	1232	1232	1232	1232	1232	1232	1232	1232	1232	1232	1232	1232	1232	1232	1232	1232	1232	1232	1232	1232	1227	1227	1227	1227	1227	1227	1227	1227	1227	1227	1227	1227	1227	1223	1223	1223	1223	1223	1219	1219	1219	1219	1219	1219	1219	1219	1219	1219	1219	1219	1214	1214	1214	1214	1214	1214	1214	1219	1219	1219	1214	1214	1214	1214	1214	1214	1210	1210	1210	1210	1210	1210	1210	1210	1210	1210	1210	1210	1210	1210	1210	1210	1210	1210	1210	1206	1206	1206	1206	1206	1202	1202	1202	1202	1202	1202	1202	1197	1197	1197	1193	1193	1193	1193	1193	1193	1193	1193	1193	1193	1193	1193	1193	1193	1189	1189	1189	1193	1189	1189	1189	1193	1189	1189	1189	1189	1189	1189	1189	1189	1189	1189	1189	1189	1189	1189	1189	1189	1189	1189	1189	1189	1189	1189	1189	1185	1185	1185	1189	1185	1185	1185	1185	1185	1185	1185	1185	1185	1181	1181	1181	1181	1181	1177	1177	1177	1177	1177	1177	1177	1177	1177	1177	1181	1181	1177	1177	1177	1181	1181	1181	1181	1181	1181	1177	1177	1177	1177	1177	1177	1177	1177	1177	1177	1177	1177	1177	1181	1181	1177	1177	1177	1177	1177	1173	1173	1173	1169	1169	0	0	0	0	0	0	0	0	0	0	0	0	0	0	0	0	0	0
0	0	0	0	0	0	0	0	0	0	0	0	0	0	0	0	0	0	0	0	0	0	0	0	0	0	1363	1363	1363	1363	1363	1363	1363	1358	1358	1358	1363	1358	1358	1358	1358	1358	1358	1352	1352	1352	1352	1358	1358	1358	1358	1358	1358	1358	1358	1358	1358	1358	1358	1358	1358	1352	1352	1352	1352	1352	1352	1352	1352	1352	1352	1358	1352	1352	1352	1352	1352	1352	1352	1352	1352	1352	1352	1352	1352	1352	1352	1352	1352	1347	1347	1347	1347	1347	1347	1342	1342	1342	1342	1342	1342	1342	1342	1342	1342	1342	1342	1342	1342	1342	1342	1342	1342	1336	1336	1342	1336	1336	1336	1336	1336	1336	1336	1336	1336	1336	1331	1331	1331	1336	1331	1331	1331	1331	1331	1326	1326	1326	1321	1321	1321	1321	1321	1321	1321	1321	1321	1321	1321	1321	1321	1316	1316	1316	1321	1321	1321	1321	1321	1321	1316	1316	1311	1311	1311	1306	1306	1311	1306	1306	1306	1306	1306	1306	1306	1306	1306	1306	1306	1306	1306	1306	1301	1301	1306	1306	1306	1306	1306	1306	1301	1301	1301	1301	1306	1306	1301	1301	1301	1301	1301	1301	1301	1296	1296	1296	1296	1296	1296	1296	1296	1296	1291	1296	1296	1296	1296	1291	1291	1291	1291	1291	1291	1291	1291	1291	1291	1291	1287	1287	1291	1287	1287	1291	1287	1287	1291	1287	1287	1287	1287	1287	1287	1287	1287	1287	1287	1287	1287	1287	1282	1282	1282	1282	1282	1282	1282	1282	1282	1282	1282	1282	1277	1277	1277	1277	1277	1277	1277	1277	1277	1277	1277	1277	1277	1277	1277	1272	1272	1272	1272	1272	1277	1272	1272	1272	1272	1272	1272	1272	1272	1268	1268	1268	1268	1268	1268	1268	1268	1268	1268	1268	1268	1268	1268	1268	1268	1268	1268	1268	1268	1268	1268	1268	1268	1268	1268	1268	1268	1259	1259	1259	1259	1259	1259	1254	1254	1254	1254	1254	1254	1254	1254	1249	1249	1249	1249	1249	1249	1249	1254	1254	1254	1249	1249	1249	1249	1249	1249	1249	1249	1249	1249	1249	1249	1249	1249	1249	1245	1245	1245	1245	1245	1245	1245	1245	1249	1249	1249	1249	1249	1249	1249	1245	1245	1245	1245	1245	1245	1245	1245	1245	1245	1245	1245	1245	1245	1240	1240	1240	1240	1240	1240	1240	1236	1236	1236	1236	1236	1236	1236	1236	1236	1232	1232	1232	1232	1232	1232	1232	1232	1232	1232	1232	1232	1232	1232	1232	1232	1232	1232	1232	1232	1232	1232	1232	1232	1232	1232	1232	1227	1227	1227	1227	1227	1227	1227	1227	1227	1227	1227	1227	1227	1223	1223	1223	1223	1223	1223	1223	1223	1219	1219	1219	1219	1219	1219	1219	1219	1219	1219	1219	1219	1214	1214	1214	1214	1214	1214	1214	1219	1219	1214	1214	1214	1214	1214	1214	1214	1210	1210	1210	1210	1210	1210	1210	1210	1210	1210	1210	1210	1210	1210	1210	1210	1210	1210	1210	1206	1206	1206	1206	1206	1202	1202	1202	1202	1202	1202	1202	1197	1197	1197	1193	1193	1193	1193	1193	1193	1193	1193	1193	1193	1193	1193	1193	1193	1189	1189	1193	1193	1189	1189	1189	1189	1189	1189	1189	1189	1189	1189	1189	1189	1189	1189	1189	1189	1189	1189	1189	1189	1189	1189	1189	1189	1189	1189	1189	1185	1185	1189	1189	1189	1185	1185	1185	1185	1185	1185	1185	1185	1181	1181	1181	1181	1181	1181	1177	1177	1177	1177	1177	1177	1177	1177	1177	1181	1181	1181	1181	1181	1181	1181	1181	1181	1181	1181	1177	1177	1177	1177	1177	1177	1177	1177	1177	1177	1177	1177	1177	1181	1177	1177	1177	1177	1173	1173	1173	1173	1169	1169	1169	0	0	0	0	0	0	0	0	0	0	0	0	0	0	0	0	0	0
0	0	0	0	0	0	0	0	0	0	0	0	0	0	0	0	0	0	0	0	0	0	0	0	0	0	1358	1358	1358	1363	1363	1363	1363	1358	1358	1363	1363	1363	1358	1358	1358	1358	1358	1352	1352	1352	1352	1358	1358	1358	1358	1358	1358	1358	1358	1358	1358	1358	1358	1358	1358	1352	1352	1352	1352	1352	1352	1352	1352	1352	1352	1358	1352	1352	1352	1352	1352	1352	1352	1352	1352	1352	1352	1352	1352	1352	1352	1352	1352	1347	1347	1347	1347	1347	1347	1342	1347	1342	1342	1342	1342	1347	1347	1342	1342	1342	1342	1342	1342	1342	1342	1342	1342	1336	1336	1342	1342	1342	1342	1336	1336	1336	1336	1336	1336	1336	1331	1331	1331	1331	1331	1331	1331	1331	1331	1326	1326	1326	1326	1326	1326	1326	1321	1321	1321	1321	1321	1321	1321	1321	1321	1316	1316	1316	1316	1316	1316	1316	1321	1316	1316	1316	1311	1311	1311	1306	1306	1311	1311	1311	1311	1306	1306	1306	1306	1306	1306	1306	1306	1306	1306	1306	1306	1306	1306	1306	1306	1306	1306	1306	1301	1301	1301	1301	1301	1301	1301	1301	1301	1301	1301	1301	1301	1296	1296	1301	1296	1296	1296	1296	1296	1296	1291	1291	1291	1291	1291	1291	1291	1287	1287	1287	1287	1291	1291	1291	1291	1291	1291	1291	1291	1287	1287	1291	1287	1287	1291	1287	1287	1287	1287	1287	1287	1287	1287	1287	1287	1287	1287	1287	1287	1282	1282	1282	1282	1282	1282	1282	1282	1282	1282	1282	1277	1277	1277	1277	1277	1277	1277	1277	1277	1277	1277	1277	1277	1277	1277	1272	1272	1272	1272	1272	1277	1272	1272	1272	1272	1272	1272	1272	1272	1268	1268	1268	1268	1268	1268	1268	1268	1268	1268	1268	1268	1268	1268	1268	1268	1268	1268	1268	1268	1268	1268	1268	1268	1268	1268	1268	1268	1263	1259	1259	1259	1254	1254	1254	1254	1254	1254	1254	1254	1254	1254	1254	1249	1249	1249	1249	1249	1249	1254	1249	1249	1249	1249	1249	1249	1249	1249	1249	1249	1249	1249	1249	1249	1249	1249	1249	1245	1245	1245	1245	1245	1245	1245	1245	1249	1249	1249	1249	1249	1249	1249	1245	1245	1245	1245	1245	1245	1245	1245	1245	1245	1245	1245	1245	1240	1240	1240	1240	1240	1240	1240	1240	1236	1236	1240	1240	1236	1236	1236	1236	1232	1232	1232	1232	1232	1232	1232	1232	1232	1232	1232	1232	1232	1232	1232	1232	1232	1232	1232	1232	1232	1232	1232	1232	1232	1232	1232	1232	1227	1227	1227	1227	1227	1227	1227	1227	1227	1227	1227	1227	1227	1223	1223	1223	1223	1223	1223	1223	1223	1223	1223	1223	1223	1223	1223	1223	1223	1223	1223	1219	1219	1219	1219	1214	1214	1214	1214	1214	1214	1219	1214	1214	1214	1214	1214	1214	1214	1214	1214	1214	1210	1210	1210	1210	1210	1210	1210	1210	1210	1210	1210	1210	1210	1210	1210	1206	1206	1206	1206	1206	1206	1202	1202	1202	1202	1202	1202	1197	1197	1197	1197	1193	1193	1193	1193	1193	1193	1193	1193	1193	1193	1193	1193	1193	1193	1189	1189	1193	1193	1189	1189	1189	1189	1189	1189	1189	1189	1189	1189	1189	1189	1189	1189	1189	1189	1189	1189	1189	1189	1189	1189	1189	1189	1189	1189	1185	1185	1185	1189	1189	1189	1189	1185	1185	1185	1185	1185	1185	1185	1185	1185	1181	1181	1181	1181	1177	1177	1177	1177	1177	1177	1177	1177	1177	1181	1181	1181	1177	1177	1181	1181	1181	1181	1181	1177	1177	1177	1177	1177	1177	1177	1177	1177	1177	1177	1177	1177	1177	1181	1177	1177	1177	1173	1173	1173	1173	1173	1169	1169	0	0	0	0	0	0	0	0	0	0	0	0	0	0	0	0	0	0	0
0	0	0	0	0	0	0	0	0	0	0	0	0	0	0	0	0	0	0	0	0	0	0	0	0	0	1358	1358	1358	1358	1358	1358	1363	1363	1363	1363	1363	1363	1358	1358	1358	1358	1358	1352	1352	1352	1352	1352	1358	1358	1358	1358	1358	1358	1358	1358	1358	1358	1358	1358	1358	1352	1352	1352	1352	1352	1358	1358	1358	1352	1352	1358	1358	1352	1352	1352	1352	1352	1352	1352	1352	1352	1352	1352	1352	1352	1352	1352	1352	1347	1347	1347	1347	1347	1347	1342	1342	1342	1342	1342	1342	1347	1342	1342	1342	1342	1342	1342	1342	1342	1342	1342	1342	1342	1342	1342	1342	1336	1336	1336	1336	1336	1336	1336	1336	1336	1331	1331	1331	1331	1331	1331	1331	1331	1331	1326	1326	1326	1326	1326	1326	1321	1321	1321	1321	1321	1321	1321	1321	1321	1316	1316	1316	1316	1316	1316	1316	1316	1316	1316	1316	1316	1311	1311	1306	1306	1306	1311	1311	1311	1311	1306	1306	1306	1306	1306	1306	1306	1306	1306	1306	1306	1306	1301	1301	1301	1301	1301	1301	1301	1301	1301	1301	1301	1301	1301	1301	1301	1301	1301	1301	1301	1301	1301	1301	1301	1296	1296	1296	1291	1291	1296	1291	1291	1291	1291	1291	1291	1291	1287	1287	1287	1287	1291	1291	1291	1291	1291	1291	1291	1291	1287	1287	1287	1287	1287	1291	1287	1287	1291	1287	1287	1287	1287	1287	1287	1287	1287	1287	1287	1287	1282	1282	1282	1282	1282	1282	1282	1282	1282	1282	1277	1277	1277	1277	1277	1277	1277	1277	1277	1277	1277	1277	1277	1277	1277	1277	1277	1272	1272	1272	1272	1277	1272	1272	1272	1272	1272	1272	1272	1272	1268	1268	1268	1268	1268	1268	1268	1268	1268	1272	1268	1268	1268	1268	1268	1268	1268	1268	1268	1268	1268	1268	1268	1268	1268	1268	1268	1268	1263	1259	1259	1259	1254	1254	1254	1254	1254	1254	1254	1254	1254	1254	1254	1249	1249	1249	1249	1249	1249	1249	1249	1249	1249	1249	1249	1249	1249	1249	1249	1249	1249	1249	1249	1249	1249	1249	1249	1245	1245	1245	1245	1245	1245	1249	1249	1249	1249	1249	1249	1249	1249	1249	1249	1245	1245	1245	1245	1245	1245	1245	1245	1245	1245	1245	1245	1240	1240	1240	1240	1240	1240	1240	1240	1240	1240	1240	1240	1236	1236	1236	1236	1232	1232	1232	1232	1232	1232	1232	1232	1232	1232	1232	1236	1236	1236	1232	1232	1232	1232	1232	1232	1232	1232	1232	1232	1232	1232	1232	1232	1227	1227	1227	1227	1227	1227	1227	1227	1227	1227	1227	1227	1227	1223	1223	1223	1223	1223	1223	1227	1227	1223	1223	1227	1223	1223	1223	1223	1223	1223	1223	1219	1219	1219	1219	1219	1219	1219	1219	1214	1214	1219	1219	1214	1214	1214	1214	1214	1214	1214	1214	1214	1214	1210	1210	1210	1210	1210	1210	1210	1210	1210	1210	1210	1210	1210	1206	1206	1206	1206	1206	1206	1206	1202	1202	1202	1206	1202	1202	1197	1197	1197	1197	1193	1193	1197	1197	1197	1197	1197	1197	1197	1193	1193	1193	1193	1193	1193	1193	1193	1193	1193	1193	1193	1193	1193	1189	1189	1189	1189	1189	1189	1189	1189	1189	1189	1189	1189	1189	1189	1189	1189	1189	1189	1189	1189	1189	1185	1185	1185	1185	1189	1189	1189	1185	1185	1185	1185	1185	1185	1185	1185	1185	1185	1185	1181	1181	1177	1177	1177	1177	1181	1177	1177	1177	1177	1181	1181	1181	1177	1177	1181	1181	1181	1181	1181	1177	1177	1177	1177	1177	1177	1177	1177	1177	1177	1177	1177	1177	1177	1177	1177	1173	1173	1173	1173	1173	1173	1173	1173	1173	0	0	0	0	0	0	0	0	0	0	0	0	0	0	0	0	0	0	0
0	0	0	0	0	0	0	0	0	0	0	0	0	0	0	0	0	0	0	0	0	0	0	0	0	0	1363	1363	1363	1363	1363	1363	1363	1363	1363	1363	1368	1363	1363	1363	1358	1358	1358	1352	1352	1352	1352	1352	1358	1358	1358	1358	1358	1358	1358	1358	1358	1358	1358	1358	1358	1358	1352	1352	1352	1358	1358	1358	1358	1352	1352	1358	1358	1352	1352	1352	1352	1352	1352	1352	1352	1352	1352	1352	1352	1352	1352	1352	1352	1347	1347	1347	1347	1347	1347	1342	1342	1342	1342	1342	1342	1342	1342	1342	1342	1342	1342	1342	1342	1342	1342	1342	1342	1336	1336	1336	1336	1336	1336	1336	1336	1336	1336	1336	1336	1336	1336	1331	1331	1331	1331	1331	1336	1331	1331	1326	1326	1326	1326	1326	1326	1321	1321	1321	1321	1321	1321	1321	1321	1321	1316	1316	1316	1311	1311	1316	1316	1316	1316	1316	1316	1316	1316	1311	1306	1306	1311	1311	1311	1311	1311	1306	1306	1306	1306	1306	1306	1306	1306	1306	1306	1306	1306	1301	1301	1301	1301	1301	1301	1301	1306	1301	1301	1301	1301	1301	1301	1301	1296	1301	1301	1301	1301	1301	1301	1301	1296	1296	1296	1291	1291	1296	1291	1296	1291	1291	1291	1291	1291	1287	1287	1287	1287	1291	1291	1291	1291	1291	1291	1291	1291	1291	1291	1287	1287	1287	1291	1287	1287	1291	1291	1291	1287	1287	1287	1287	1287	1287	1287	1287	1287	1282	1282	1282	1282	1282	1282	1282	1282	1282	1277	1277	1277	1277	1277	1277	1277	1277	1277	1277	1277	1277	1277	1277	1277	1277	1277	1277	1277	1277	1272	1272	1272	1272	1272	1272	1272	1272	1272	1272	1272	1272	1272	1272	1272	1268	1268	1268	1268	1268	1272	1268	1268	1268	1268	1268	1268	1268	1268	1268	1268	1268	1268	1268	1268	1268	1268	1268	1268	1263	1259	1259	1254	1254	1254	1254	1254	1254	1254	1254	1254	1254	1254	1254	1254	1249	1249	1249	1249	1249	1249	1249	1249	1249	1249	1249	1249	1249	1249	1249	1249	1249	1249	1249	1249	1249	1249	1249	1245	1245	1245	1249	1249	1249	1249	1249	1249	1249	1249	1249	1249	1249	1249	1249	1245	1245	1245	1245	1245	1245	1245	1245	1245	1245	1245	1245	1240	1240	1240	1240	1240	1240	1240	1240	1240	1240	1240	1240	1240	1240	1236	1236	1232	1232	1232	1232	1232	1232	1232	1232	1232	1232	1232	1236	1236	1236	1236	1236	1232	1232	1232	1232	1232	1232	1232	1232	1232	1232	1232	1232	1232	1227	1227	1227	1227	1227	1227	1227	1227	1227	1223	1223	1223	1223	1223	1223	1223	1223	1223	1227	1227	1227	1227	1227	1223	1223	1223	1223	1223	1223	1219	1219	1219	1219	1219	1219	1219	1219	1219	1214	1214	1219	1219	1214	1214	1214	1214	1214	1214	1214	1214	1214	1214	1210	1210	1210	1210	1210	1210	1210	1210	1210	1210	1210	1210	1210	1206	1206	1206	1206	1206	1206	1206	1202	1202	1202	1206	1202	1202	1202	1197	1197	1197	1197	1197	1197	1197	1197	1197	1193	1193	1197	1197	1193	1193	1193	1193	1193	1193	1193	1193	1193	1193	1193	1193	1193	1193	1193	1189	1189	1189	1189	1189	1189	1189	1189	1189	1189	1189	1189	1189	1189	1189	1189	1189	1189	1185	1185	1185	1185	1185	1189	1189	1189	1189	1189	1189	1185	1185	1185	1185	1185	1185	1185	1185	1181	1181	1177	1177	1177	1177	1181	1181	1181	1181	1181	1181	1181	1177	1177	1177	1177	1177	1181	1181	1181	1181	1177	1177	1177	1177	1177	1177	1177	1177	1177	1177	1177	1177	1177	1177	1177	1173	1173	1173	1173	1173	1173	1173	1173	1173	0	0	0	0	0	0	0	0	0	0	0	0	0	0	0	0	0	0	0
0	0	0	0	0	0	0	0	0	0	0	0	0	0	0	0	0	0	0	0	0	0	0	0	0	0	1363	1363	1363	1363	1363	1363	1363	1363	1368	1368	1368	1363	1363	1363	1363	1363	1358	1358	1358	1358	1358	1358	1358	1358	1358	1358	1358	1358	1358	1358	1358	1358	1358	1358	1358	1358	1352	1352	1358	1358	1358	1358	1358	1352	1352	1358	1358	1352	1352	1352	1352	1352	1352	1352	1352	1352	1352	1352	1352	1352	1352	1352	1352	1347	1347	1347	1347	1347	1347	1347	1347	1347	1342	1342	1342	1342	1342	1342	1342	1342	1342	1342	1342	1342	1342	1342	1342	1336	1336	1336	1336	1336	1336	1336	1336	1336	1336	1336	1336	1336	1331	1331	1331	1331	1331	1331	1336	1331	1331	1331	1326	1326	1326	1326	1326	1326	1326	1326	1321	1321	1321	1321	1321	1316	1316	1316	1316	1311	1311	1316	1316	1316	1316	1316	1316	1316	1316	1316	1311	1311	1311	1311	1311	1311	1311	1311	1311	1306	1306	1306	1306	1306	1306	1306	1306	1306	1306	1306	1306	1306	1306	1306	1301	1301	1306	1301	1301	1301	1301	1301	1301	1301	1296	1301	1296	1296	1301	1296	1296	1296	1296	1291	1291	1291	1291	1296	1296	1296	1291	1291	1291	1291	1291	1287	1287	1287	1291	1291	1291	1291	1291	1291	1291	1291	1291	1291	1291	1291	1287	1287	1291	1287	1287	1291	1291	1291	1287	1287	1287	1287	1287	1287	1287	1287	1287	1282	1282	1282	1282	1282	1282	1282	1282	1282	1277	1277	1277	1277	1277	1277	1277	1277	1277	1277	1277	1277	1277	1277	1277	1277	1277	1277	1277	1277	1272	1272	1272	1272	1272	1272	1272	1272	1272	1272	1272	1272	1272	1272	1272	1268	1268	1268	1268	1268	1268	1268	1268	1268	1268	1268	1268	1268	1268	1268	1268	1272	1268	1268	1268	1268	1268	1268	1268	1259	1259	1259	1254	1254	1254	1254	1254	1254	1254	1259	1254	1254	1254	1254	1254	1249	1249	1249	1249	1249	1249	1249	1249	1249	1249	1249	1249	1249	1249	1249	1249	1249	1249	1249	1249	1249	1249	1249	1249	1249	1249	1249	1249	1249	1249	1249	1249	1249	1249	1249	1249	1249	1249	1249	1245	1245	1245	1245	1245	1245	1245	1245	1245	1245	1245	1245	1240	1240	1240	1240	1240	1240	1240	1240	1240	1240	1245	1245	1240	1240	1236	1236	1232	1232	1232	1232	1232	1232	1236	1236	1232	1232	1232	1236	1236	1236	1236	1236	1232	1232	1232	1232	1232	1232	1232	1232	1232	1232	1232	1232	1232	1227	1227	1227	1227	1227	1227	1227	1227	1227	1223	1223	1223	1223	1223	1223	1223	1223	1223	1223	1223	1223	1227	1227	1227	1227	1227	1227	1223	1223	1219	1219	1219	1219	1219	1219	1219	1219	1219	1219	1219	1219	1214	1214	1214	1214	1214	1214	1214	1214	1214	1214	1210	1210	1210	1210	1210	1210	1210	1210	1210	1210	1210	1210	1210	1210	1210	1210	1206	1206	1206	1210	1206	1202	1202	1202	1206	1206	1202	1202	1202	1202	1197	1197	1197	1197	1197	1197	1197	1193	1193	1197	1193	1193	1193	1193	1193	1193	1193	1193	1193	1193	1193	1193	1193	1193	1193	1189	1189	1189	1189	1189	1189	1189	1189	1189	1189	1189	1189	1189	1189	1189	1189	1189	1189	1185	1181	1181	1181	1181	1185	1185	1185	1185	1189	1189	1189	1185	1185	1185	1185	1185	1185	1181	1181	1181	1181	1177	1177	1177	1181	1181	1181	1181	1181	1181	1181	1181	1177	1177	1177	1177	1177	1181	1181	1181	1181	1181	1177	1177	1177	1177	1177	1177	1177	1177	1177	1177	1177	1177	1177	1177	1173	1173	1173	1173	1173	1173	1173	1173	1173	0	0	0	0	0	0	0	0	0	0	0	0	0	0	0	0	0	0	0
0	0	0	0	0	0	0	0	0	0	0	0	0	0	0	0	0	0	0	0	0	0	0	0	0	0	1363	1363	1363	1368	1368	1368	1368	1368	1368	1363	1363	1363	1363	1363	1363	1363	1363	1358	1358	1358	1358	1358	1358	1358	1358	1358	1358	1358	1358	1358	1358	1358	1358	1358	1358	1358	1358	1358	1358	1358	1358	1358	1358	1352	1352	1358	1358	1352	1352	1352	1352	1352	1352	1352	1352	1352	1352	1352	1352	1352	1352	1352	1352	1347	1347	1347	1347	1347	1347	1347	1347	1347	1347	1342	1342	1342	1342	1342	1342	1342	1342	1342	1342	1342	1342	1342	1342	1336	1336	1336	1336	1336	1336	1336	1336	1336	1336	1336	1336	1336	1331	1331	1331	1331	1336	1336	1336	1331	1336	1331	1326	1326	1326	1326	1326	1326	1326	1326	1321	1321	1321	1321	1321	1316	1316	1316	1316	1316	1316	1316	1316	1316	1316	1316	1316	1316	1316	1316	1311	1311	1311	1311	1311	1311	1311	1311	1311	1306	1306	1311	1306	1306	1311	1306	1306	1306	1306	1306	1306	1306	1306	1306	1306	1306	1306	1301	1301	1301	1301	1301	1301	1301	1301	1301	1296	1296	1301	1296	1296	1296	1291	1291	1291	1296	1296	1296	1296	1296	1291	1291	1291	1291	1291	1291	1291	1291	1291	1291	1291	1291	1291	1291	1287	1287	1291	1291	1291	1291	1287	1287	1291	1287	1287	1291	1291	1291	1291	1291	1287	1287	1287	1287	1287	1287	1287	1287	1282	1282	1282	1282	1282	1282	1282	1282	1282	1277	1277	1277	1277	1277	1277	1277	1277	1277	1277	1277	1282	1282	1277	1277	1277	1277	1277	1277	1277	1277	1277	1272	1272	1272	1272	1272	1272	1272	1272	1272	1272	1272	1272	1268	1268	1268	1268	1268	1268	1268	1268	1268	1268	1268	1268	1268	1268	1268	1268	1268	1268	1268	1268	1268	1268	1268	1268	1259	1259	1259	1254	1254	1254	1259	1254	1254	1259	1259	1254	1254	1254	1254	1254	1249	1249	1249	1249	1249	1249	1249	1249	1249	1249	1249	1249	1249	1249	1249	1249	1249	1249	1249	1249	1249	1249	1249	1249	1249	1249	1249	1249	1249	1249	1249	1249	1249	1249	1249	1249	1249	1249	1249	1249	1245	1245	1245	1245	1245	1245	1245	1245	1245	1245	1240	1240	1240	1240	1240	1240	1240	1240	1240	1245	1245	1245	1245	1240	1240	1236	1236	1232	1232	1232	1232	1232	1232	1236	1236	1232	1232	1232	1236	1236	1236	1236	1236	1232	1232	1232	1232	1232	1232	1232	1232	1232	1232	1232	1232	1232	1227	1227	1227	1227	1227	1227	1227	1227	1227	1227	1223	1223	1223	1223	1223	1223	1223	1223	1223	1223	1223	1223	1223	1227	1223	1223	1223	1223	1223	1223	1219	1219	1219	1219	1219	1219	1219	1219	1219	1219	1219	1214	1214	1214	1214	1214	1214	1214	1214	1214	1214	1210	1210	1210	1210	1210	1210	1210	1210	1210	1210	1210	1210	1210	1210	1210	1210	1206	1206	1206	1210	1206	1202	1202	1202	1206	1206	1202	1202	1202	1202	1197	1197	1197	1197	1197	1193	1193	1193	1193	1193	1193	1193	1193	1193	1193	1193	1193	1193	1193	1193	1193	1193	1193	1193	1193	1189	1189	1189	1189	1189	1189	1189	1189	1189	1189	1189	1189	1189	1189	1189	1189	1189	1185	1185	1181	1181	1181	1181	1185	1185	1185	1185	1185	1185	1185	1185	1185	1185	1185	1185	1185	1181	1181	1181	1181	1181	1181	1181	1181	1181	1181	1181	1185	1185	1181	1181	1181	1181	1181	1177	1177	1181	1181	1181	1177	1177	1177	1177	1177	1177	1177	1177	1177	1177	1177	1177	1177	1177	1177	1177	1173	1173	1173	1173	1173	1173	1173	1173	1173	0	0	0	0	0	0	0	0	0	0	0	0	0	0	0	0	0	0	0
0	0	0	0	0	0	0	0	0	0	0	0	0	0	0	0	0	0	0	0	0	0	0	0	0	0	1363	1363	1363	1368	1368	1368	1368	1368	1363	1363	1363	1363	1363	1363	1363	1363	1363	1358	1358	1358	1358	1358	1358	1358	1358	1358	1358	1358	1358	1358	1358	1358	1358	1358	1358	1358	1358	1358	1358	1358	1358	1358	1358	1352	1352	1358	1358	1352	1352	1352	1352	1352	1352	1352	1352	1352	1352	1352	1352	1352	1352	1352	1352	1347	1347	1347	1347	1347	1347	1347	1347	1347	1347	1347	1347	1347	1342	1342	1342	1342	1342	1342	1342	1342	1342	1342	1342	1342	1336	1336	1336	1336	1336	1336	1336	1336	1336	1336	1336	1336	1336	1331	1331	1331	1336	1336	1336	1336	1336	1331	1326	1326	1326	1326	1326	1326	1326	1326	1321	1321	1321	1321	1321	1316	1316	1316	1316	1316	1316	1316	1316	1316	1316	1316	1316	1316	1316	1316	1311	1311	1311	1311	1311	1311	1311	1311	1306	1306	1306	1311	1311	1306	1306	1306	1306	1306	1306	1306	1306	1306	1306	1306	1306	1306	1306	1306	1306	1301	1301	1301	1301	1301	1301	1301	1301	1301	1301	1296	1296	1296	1291	1291	1291	1296	1296	1301	1296	1296	1291	1291	1291	1291	1291	1291	1291	1291	1291	1291	1291	1291	1291	1291	1287	1287	1291	1291	1291	1291	1287	1287	1291	1291	1291	1291	1291	1291	1291	1291	1287	1287	1287	1287	1287	1287	1287	1287	1282	1282	1282	1282	1282	1282	1282	1282	1282	1277	1277	1277	1277	1277	1277	1277	1277	1277	1277	1277	1282	1282	1282	1277	1277	1277	1277	1277	1277	1277	1277	1277	1277	1272	1272	1272	1272	1272	1272	1272	1272	1272	1272	1268	1268	1268	1268	1268	1268	1268	1268	1268	1268	1268	1268	1268	1268	1268	1268	1268	1268	1268	1272	1268	1268	1268	1268	1259	1259	1259	1254	1254	1254	1254	1254	1254	1254	1254	1254	1254	1254	1254	1254	1254	1249	1249	1249	1249	1249	1249	1249	1249	1249	1249	1249	1249	1249	1249	1249	1249	1249	1249	1249	1249	1249	1249	1249	1249	1249	1249	1249	1249	1249	1245	1245	1245	1245	1245	1249	1245	1245	1245	1249	1245	1245	1245	1245	1245	1245	1245	1245	1245	1245	1240	1240	1240	1240	1240	1240	1240	1240	1240	1245	1245	1245	1245	1245	1245	1240	1236	1236	1232	1232	1236	1236	1236	1236	1236	1232	1232	1232	1236	1236	1236	1236	1232	1232	1232	1232	1232	1232	1232	1232	1232	1232	1232	1232	1232	1232	1227	1227	1227	1227	1227	1227	1227	1227	1227	1227	1227	1223	1223	1223	1223	1223	1223	1223	1223	1223	1223	1223	1223	1223	1223	1223	1223	1223	1223	1223	1223	1219	1219	1219	1219	1219	1219	1219	1219	1219	1219	1219	1214	1214	1214	1214	1214	1214	1214	1214	1214	1210	1210	1210	1210	1210	1210	1210	1210	1210	1210	1210	1210	1210	1210	1210	1210	1210	1206	1206	1210	1206	1202	1202	1202	1206	1206	1202	1202	1202	1202	1197	1197	1197	1197	1197	1193	1193	1193	1193	1193	1193	1193	1193	1193	1193	1193	1193	1193	1193	1193	1193	1193	1193	1193	1193	1189	1189	1189	1189	1189	1189	1189	1189	1189	1189	1189	1189	1189	1189	1189	1189	1189	1185	1185	1181	1181	1181	1181	1185	1185	1185	1185	1185	1185	1185	1185	1185	1185	1185	1185	1185	1185	1185	1181	1181	1181	1181	1181	1181	1181	1181	1181	1181	1185	1185	1181	1181	1185	1185	1181	1181	1181	1181	1181	1177	1177	1177	1177	1177	1177	1177	1177	1177	1177	1177	1177	1177	1177	1177	1177	1173	1173	1173	1173	1173	1173	1173	1173	1173	0	0	0	0	0	0	0	0	0	0	0	0	0	0	0	0	0	0	0
0	0	0	0	0	0	0	0	0	0	0	0	0	0	0	0	0	0	0	0	0	0	0	0	0	0	1363	1363	1363	1368	1368	1368	1363	1363	1363	1363	1363	1363	1363	1363	1363	1363	1363	1358	1358	1358	1358	1358	1358	1358	1358	1358	1358	1358	1358	1358	1358	1358	1358	1358	1358	1358	1358	1358	1358	1358	1358	1358	1358	1352	1352	1358	1358	1352	1352	1352	1352	1352	1352	1352	1352	1352	1352	1352	1352	1352	1352	1352	1352	1347	1347	1347	1347	1347	1347	1347	1347	1347	1347	1347	1347	1347	1342	1342	1342	1342	1342	1342	1342	1342	1342	1342	1342	1336	1336	1336	1336	1336	1336	1336	1336	1336	1336	1336	1336	1336	1336	1336	1331	1331	1331	1336	1336	1336	1336	1331	1326	1326	1326	1326	1326	1326	1321	1321	1321	1321	1321	1321	1321	1321	1321	1316	1316	1316	1316	1316	1316	1316	1311	1311	1311	1311	1311	1311	1311	1311	1311	1311	1311	1311	1311	1311	1306	1306	1306	1311	1311	1306	1306	1306	1306	1306	1306	1306	1306	1306	1306	1306	1306	1306	1306	1306	1306	1301	1301	1296	1296	1301	1301	1301	1301	1301	1301	1301	1301	1301	1301	1296	1296	1296	1296	1301	1296	1296	1296	1291	1291	1291	1291	1291	1291	1291	1291	1291	1291	1291	1291	1291	1287	1287	1291	1291	1291	1291	1287	1287	1291	1291	1291	1291	1291	1287	1287	1287	1287	1287	1287	1287	1287	1287	1287	1287	1287	1287	1287	1287	1282	1282	1282	1282	1282	1282	1282	1277	1277	1277	1277	1277	1277	1277	1277	1277	1282	1282	1282	1277	1277	1277	1277	1277	1277	1277	1277	1277	1277	1272	1272	1272	1272	1272	1272	1272	1272	1272	1272	1268	1268	1268	1268	1268	1268	1268	1268	1268	1268	1268	1268	1268	1268	1268	1268	1268	1268	1272	1272	1268	1268	1268	1268	1263	1259	1259	1259	1259	1259	1259	1254	1254	1259	1254	1254	1254	1254	1254	1254	1254	1254	1254	1254	1254	1249	1249	1249	1249	1249	1249	1249	1249	1249	1249	1249	1249	1249	1249	1249	1249	1249	1249	1249	1249	1249	1249	1249	1249	1245	1245	1245	1245	1245	1245	1245	1245	1245	1245	1245	1245	1245	1245	1245	1245	1245	1245	1245	1245	1245	1240	1240	1240	1240	1240	1240	1240	1240	1240	1240	1245	1245	1245	1245	1245	1240	1236	1236	1236	1236	1236	1236	1236	1232	1232	1232	1232	1232	1232	1232	1236	1236	1232	1232	1232	1232	1232	1232	1232	1232	1232	1232	1232	1232	1232	1232	1232	1232	1232	1227	1227	1227	1227	1227	1227	1227	1227	1223	1223	1227	1227	1227	1227	1223	1223	1227	1223	1223	1223	1223	1223	1223	1223	1223	1223	1223	1219	1219	1219	1219	1219	1219	1219	1219	1219	1219	1219	1219	1214	1214	1214	1214	1214	1214	1214	1214	1214	1210	1210	1210	1210	1210	1210	1210	1210	1210	1210	1210	1210	1210	1210	1210	1210	1210	1206	1206	1210	1206	1202	1202	1202	1206	1206	1202	1202	1202	1202	1197	1197	1197	1197	1197	1193	1193	1193	1193	1193	1193	1193	1193	1193	1193	1193	1193	1193	1193	1193	1193	1193	1193	1193	1193	1189	1189	1189	1189	1189	1189	1189	1189	1189	1189	1189	1189	1189	1189	1189	1189	1189	1185	1185	1185	1181	1181	1181	1185	1185	1185	1185	1185	1185	1185	1185	1185	1185	1185	1185	1185	1185	1185	1181	1181	1181	1181	1181	1181	1181	1181	1185	1185	1185	1185	1185	1185	1185	1185	1181	1181	1181	1177	1177	1181	1181	1181	1177	1177	1177	1177	1177	1177	1177	1177	1177	1177	1177	1177	1177	1173	1173	1173	1173	1177	1177	1173	1173	1173	0	0	0	0	0	0	0	0	0	0	0	0	0	0	0	0	0	0	0
0	0	0	0	0	0	0	0	0	0	0	0	0	0	0	0	0	0	0	0	0	0	0	0	0	0	1363	1363	1368	1368	1368	1368	1363	1363	1363	1363	1363	1363	1358	1358	1363	1363	1363	1358	1358	1358	1358	1358	1358	1358	1358	1358	1358	1358	1358	1358	1358	1358	1358	1358	1358	1358	1358	1358	1358	1358	1358	1358	1358	1352	1352	1358	1358	1358	1352	1352	1352	1352	1352	1352	1352	1352	1352	1352	1352	1352	1352	1352	1352	1347	1347	1347	1347	1347	1347	1347	1347	1347	1347	1347	1347	1347	1342	1342	1342	1342	1342	1342	1342	1342	1342	1336	1336	1336	1336	1336	1336	1336	1336	1336	1336	1336	1336	1336	1336	1336	1336	1336	1331	1331	1331	1331	1336	1336	1336	1331	1326	1326	1326	1326	1321	1321	1321	1321	1321	1321	1321	1321	1321	1321	1316	1316	1316	1316	1316	1316	1316	1316	1311	1311	1311	1311	1311	1311	1311	1311	1311	1311	1311	1311	1311	1311	1306	1306	1306	1311	1311	1306	1306	1306	1306	1306	1306	1306	1306	1306	1306	1306	1306	1306	1306	1301	1301	1301	1301	1296	1296	1301	1301	1301	1301	1301	1301	1301	1301	1301	1296	1296	1296	1296	1296	1296	1296	1296	1296	1291	1291	1291	1291	1291	1291	1291	1291	1291	1291	1291	1291	1291	1287	1287	1291	1291	1291	1291	1291	1291	1291	1291	1291	1287	1287	1287	1287	1287	1287	1287	1287	1287	1287	1287	1287	1287	1287	1287	1287	1287	1282	1282	1282	1282	1282	1282	1282	1282	1277	1277	1277	1282	1282	1277	1277	1277	1282	1282	1282	1277	1277	1277	1277	1277	1277	1277	1277	1277	1277	1272	1272	1272	1272	1272	1272	1272	1272	1272	1272	1268	1268	1272	1268	1268	1268	1268	1268	1268	1268	1268	1268	1268	1268	1268	1268	1268	1268	1272	1268	1268	1268	1268	1268	1263	1263	1263	1259	1259	1259	1259	1259	1259	1259	1259	1259	1259	1254	1254	1254	1254	1254	1254	1254	1254	1254	1249	1249	1249	1249	1249	1249	1249	1249	1249	1249	1249	1249	1249	1249	1249	1249	1249	1249	1249	1249	1249	1249	1249	1245	1245	1245	1245	1245	1245	1245	1245	1245	1245	1249	1245	1245	1245	1245	1245	1245	1245	1245	1245	1245	1245	1240	1240	1240	1240	1240	1240	1240	1245	1245	1245	1245	1245	1245	1245	1240	1240	1236	1236	1236	1236	1236	1236	1236	1236	1236	1232	1232	1236	1236	1236	1236	1236	1232	1232	1232	1232	1232	1232	1232	1232	1232	1232	1232	1232	1232	1232	1232	1232	1232	1232	1227	1227	1227	1227	1227	1223	1223	1223	1227	1227	1227	1227	1227	1227	1227	1223	1223	1223	1223	1223	1223	1223	1223	1223	1223	1219	1219	1219	1214	1214	1219	1219	1219	1219	1219	1219	1219	1219	1214	1214	1214	1214	1214	1214	1214	1214	1210	1210	1210	1210	1210	1210	1210	1210	1210	1210	1210	1210	1210	1214	1210	1210	1210	1210	1210	1210	1210	1206	1206	1206	1206	1206	1206	1206	1202	1202	1202	1202	1197	1197	1193	1193	1193	1193	1193	1193	1193	1193	1193	1193	1193	1193	1193	1193	1193	1193	1193	1193	1193	1193	1193	1193	1189	1189	1189	1189	1189	1189	1189	1189	1189	1189	1189	1189	1189	1189	1189	1189	1189	1189	1185	1181	1181	1181	1185	1185	1185	1185	1185	1185	1185	1185	1185	1189	1185	1185	1185	1185	1181	1181	1181	1181	1181	1181	1181	1181	1181	1185	1185	1185	1185	1185	1181	1181	1181	1181	1181	1181	1177	1181	1181	1181	1181	1177	1177	1177	1177	1177	1177	1177	1177	1177	1177	1177	1177	1177	1173	1173	1173	1177	1177	1177	1177	1177	1177	0	0	0	0	0	0	0	0	0	0	0	0	0	0	0	0	0	0	0
0	0	0	0	0	0	0	0	0	0	0	0	0	0	0	0	0	0	0	0	0	0	0	0	0	0	1368	1368	1368	1368	1368	1368	1363	1363	1363	1363	1358	1358	1358	1358	1358	1358	1358	1358	1358	1358	1358	1358	1358	1358	1358	1358	1358	1358	1358	1358	1358	1358	1358	1358	1358	1358	1358	1358	1358	1358	1358	1358	1358	1352	1352	1358	1358	1352	1352	1352	1352	1352	1352	1352	1352	1352	1352	1352	1352	1352	1352	1352	1352	1347	1347	1347	1347	1347	1347	1347	1347	1347	1347	1347	1347	1347	1347	1347	1342	1342	1342	1342	1342	1336	1336	1336	1336	1336	1336	1336	1336	1336	1336	1336	1336	1336	1336	1336	1336	1336	1336	1336	1331	1331	1331	1331	1336	1331	1331	1326	1326	1326	1326	1326	1321	1321	1321	1321	1321	1321	1321	1321	1321	1321	1316	1316	1316	1316	1316	1316	1316	1316	1311	1311	1311	1311	1311	1311	1311	1311	1311	1311	1311	1311	1311	1311	1306	1306	1306	1311	1311	1306	1306	1306	1306	1306	1306	1306	1306	1306	1306	1306	1306	1306	1301	1301	1301	1301	1301	1301	1301	1301	1301	1301	1301	1301	1301	1301	1301	1296	1296	1296	1296	1296	1296	1296	1296	1296	1296	1296	1291	1291	1291	1291	1291	1291	1291	1291	1291	1291	1291	1291	1291	1291	1291	1291	1291	1291	1291	1291	1291	1291	1291	1287	1287	1287	1287	1287	1287	1287	1287	1287	1287	1287	1287	1287	1287	1287	1287	1287	1282	1282	1282	1282	1282	1282	1282	1282	1282	1282	1282	1282	1282	1277	1277	1277	1282	1282	1282	1277	1277	1277	1277	1277	1277	1277	1277	1277	1277	1272	1272	1272	1272	1272	1272	1272	1272	1272	1272	1268	1268	1268	1268	1268	1268	1268	1268	1268	1268	1268	1268	1268	1268	1268	1268	1268	1268	1272	1268	1268	1268	1268	1268	1263	1263	1263	1259	1259	1259	1259	1259	1259	1259	1259	1259	1259	1259	1254	1254	1254	1254	1254	1254	1254	1254	1249	1249	1249	1249	1249	1249	1249	1249	1249	1249	1249	1249	1249	1249	1249	1249	1249	1249	1249	1249	1249	1249	1245	1245	1245	1245	1245	1245	1245	1245	1245	1245	1245	1245	1245	1245	1245	1245	1245	1245	1245	1245	1245	1245	1245	1240	1240	1240	1240	1245	1240	1240	1245	1245	1245	1245	1245	1245	1245	1240	1240	1240	1236	1236	1236	1236	1236	1236	1236	1236	1236	1236	1236	1236	1236	1236	1236	1232	1232	1232	1232	1232	1232	1232	1232	1232	1232	1232	1232	1232	1232	1232	1232	1232	1232	1227	1227	1227	1227	1227	1223	1223	1223	1227	1227	1227	1227	1227	1227	1227	1223	1223	1223	1223	1227	1227	1227	1227	1227	1223	1219	1219	1219	1214	1214	1219	1219	1219	1219	1219	1219	1219	1219	1214	1214	1214	1214	1214	1214	1214	1210	1210	1210	1210	1210	1210	1210	1210	1210	1210	1210	1210	1210	1210	1214	1214	1214	1210	1210	1210	1210	1210	1206	1206	1206	1202	1202	1206	1206	1206	1206	1202	1202	1197	1197	1193	1193	1193	1193	1193	1193	1193	1193	1193	1193	1193	1193	1193	1193	1193	1193	1193	1193	1193	1193	1193	1193	1189	1189	1189	1193	1189	1189	1189	1189	1189	1189	1189	1189	1189	1189	1189	1189	1189	1189	1185	1181	1181	1181	1185	1185	1185	1185	1185	1185	1185	1185	1185	1189	1189	1189	1189	1189	1185	1185	1185	1185	1181	1181	1181	1185	1185	1185	1185	1185	1185	1185	1181	1181	1181	1181	1181	1181	1181	1181	1181	1181	1181	1177	1177	1177	1177	1177	1177	1177	1177	1177	1177	1177	1177	1177	1173	1173	1177	1177	1177	1177	1177	1177	1177	0	0	0	0	0	0	0	0	0	0	0	0	0	0	0	0	0	0	0
0	0	0	0	0	0	0	0	0	0	0	0	0	0	0	0	0	0	0	0	0	0	0	0	0	0	1368	1368	1368	1363	1363	1368	1363	1363	1363	1363	1358	1358	1358	1358	1358	1358	1358	1358	1358	1358	1358	1358	1358	1358	1358	1358	1358	1358	1358	1358	1358	1358	1358	1358	1358	1358	1358	1358	1358	1358	1358	1358	1358	1352	1352	1358	1358	1352	1352	1352	1352	1352	1352	1352	1352	1352	1352	1352	1352	1352	1352	1352	1352	1352	1347	1347	1347	1347	1347	1347	1347	1347	1347	1347	1347	1347	1347	1347	1342	1342	1342	1342	1342	1336	1336	1342	1336	1336	1336	1336	1336	1336	1336	1336	1336	1336	1336	1336	1336	1336	1336	1336	1331	1331	1331	1331	1336	1331	1331	1326	1326	1326	1326	1326	1326	1326	1326	1321	1321	1326	1321	1321	1321	1321	1321	1316	1316	1316	1316	1316	1316	1316	1316	1311	1311	1311	1311	1311	1311	1311	1311	1311	1311	1311	1311	1311	1306	1306	1306	1311	1306	1306	1306	1306	1306	1306	1306	1306	1306	1306	1306	1306	1306	1306	1301	1301	1301	1301	1301	1301	1301	1301	1301	1301	1301	1301	1301	1301	1301	1296	1296	1296	1296	1296	1296	1296	1296	1296	1296	1296	1291	1291	1291	1291	1291	1291	1291	1291	1291	1291	1291	1291	1291	1291	1291	1291	1291	1291	1291	1291	1291	1291	1287	1287	1287	1287	1287	1287	1287	1287	1287	1287	1287	1287	1287	1287	1287	1287	1287	1287	1282	1282	1282	1282	1282	1282	1282	1282	1282	1282	1282	1282	1282	1277	1277	1277	1282	1282	1282	1277	1277	1277	1277	1277	1277	1277	1277	1277	1277	1272	1272	1272	1272	1272	1272	1272	1272	1272	1268	1268	1268	1268	1268	1268	1268	1268	1268	1268	1268	1268	1268	1268	1268	1268	1268	1268	1268	1268	1268	1268	1268	1268	1268	1263	1263	1263	1263	1263	1263	1263	1259	1259	1263	1259	1259	1259	1259	1254	1254	1254	1254	1254	1254	1254	1254	1249	1249	1254	1249	1249	1249	1249	1249	1249	1249	1249	1249	1249	1249	1249	1249	1249	1249	1249	1249	1249	1249	1245	1245	1245	1245	1245	1245	1245	1245	1245	1245	1245	1245	1245	1245	1245	1245	1245	1245	1245	1245	1245	1245	1245	1245	1245	1240	1240	1240	1240	1240	1245	1245	1245	1245	1245	1245	1240	1240	1240	1240	1236	1236	1236	1236	1236	1236	1236	1236	1236	1236	1236	1236	1236	1236	1236	1232	1232	1232	1232	1232	1232	1232	1232	1232	1232	1232	1232	1232	1232	1232	1232	1232	1232	1232	1227	1227	1227	1227	1227	1227	1227	1227	1227	1227	1227	1227	1227	1227	1223	1223	1223	1223	1227	1227	1227	1227	1227	1223	1219	1219	1219	1219	1219	1219	1219	1219	1219	1223	1219	1219	1219	1219	1214	1214	1214	1214	1214	1214	1210	1210	1210	1210	1210	1210	1210	1210	1210	1210	1214	1210	1210	1210	1214	1214	1214	1210	1210	1210	1210	1210	1206	1206	1206	1202	1202	1206	1202	1202	1202	1202	1202	1197	1197	1193	1193	1193	1193	1193	1193	1193	1193	1193	1193	1193	1193	1193	1193	1193	1193	1193	1193	1193	1193	1193	1193	1189	1189	1189	1193	1189	1189	1189	1189	1189	1189	1189	1189	1189	1189	1189	1189	1189	1189	1185	1185	1181	1181	1185	1185	1185	1185	1185	1189	1189	1189	1189	1189	1189	1189	1189	1189	1185	1185	1185	1185	1181	1181	1185	1185	1185	1185	1185	1185	1185	1185	1181	1181	1181	1181	1181	1181	1181	1181	1181	1181	1177	1177	1177	1177	1177	1177	1177	1177	1177	1177	1177	1177	1177	1177	1173	1173	1177	1177	1177	1173	1173	1173	1173	0	0	0	0	0	0	0	0	0	0	0	0	0	0	0	0	0	0	0
0	0	0	0	0	0	0	0	0	0	0	0	0	0	0	0	0	0	0	0	0	0	0	0	0	0	1368	1363	1363	1363	1363	1368	1363	1363	1363	1358	1358	1358	1358	1358	1358	1358	1358	1358	1358	1358	1358	1358	1358	1358	1358	1358	1358	1352	1352	1352	1358	1352	1352	1352	1358	1358	1358	1358	1358	1358	1358	1358	1358	1352	1352	1358	1358	1352	1352	1352	1352	1352	1352	1352	1352	1352	1352	1352	1352	1352	1352	1352	1352	1352	1347	1347	1347	1347	1347	1347	1347	1347	1347	1347	1347	1347	1347	1347	1347	1342	1342	1342	1342	1336	1336	1342	1342	1336	1336	1336	1336	1336	1336	1336	1336	1336	1336	1336	1336	1336	1336	1336	1331	1331	1331	1331	1331	1331	1331	1326	1326	1326	1326	1326	1326	1326	1326	1326	1326	1326	1326	1321	1321	1321	1321	1321	1316	1316	1316	1316	1316	1316	1316	1316	1316	1311	1311	1311	1311	1311	1311	1311	1311	1311	1311	1311	1306	1306	1306	1311	1306	1306	1306	1306	1306	1306	1306	1306	1306	1306	1306	1306	1306	1306	1306	1301	1301	1301	1301	1301	1301	1301	1301	1301	1301	1301	1301	1301	1301	1296	1296	1296	1296	1301	1301	1301	1296	1296	1296	1296	1291	1291	1291	1291	1291	1291	1291	1291	1291	1291	1291	1291	1291	1291	1291	1291	1291	1287	1287	1287	1287	1287	1287	1287	1287	1287	1287	1287	1287	1287	1287	1287	1287	1287	1287	1287	1287	1287	1287	1287	1287	1287	1287	1282	1282	1282	1282	1282	1282	1282	1282	1282	1282	1277	1277	1277	1282	1282	1282	1277	1277	1277	1277	1277	1277	1277	1277	1277	1277	1272	1272	1272	1272	1272	1272	1272	1272	1272	1268	1268	1268	1268	1268	1268	1268	1268	1268	1268	1268	1268	1268	1268	1268	1268	1268	1268	1268	1268	1268	1268	1268	1268	1268	1263	1263	1263	1263	1263	1263	1263	1263	1259	1259	1259	1259	1259	1259	1259	1259	1259	1254	1254	1259	1254	1254	1254	1254	1254	1249	1249	1249	1249	1249	1249	1249	1249	1249	1249	1249	1249	1249	1249	1249	1249	1249	1249	1245	1245	1245	1245	1245	1245	1245	1245	1245	1245	1245	1245	1245	1245	1249	1245	1245	1245	1245	1245	1245	1245	1245	1245	1245	1245	1240	1240	1240	1240	1240	1240	1240	1240	1240	1240	1240	1240	1240	1240	1240	1236	1236	1236	1236	1236	1236	1236	1236	1236	1236	1236	1236	1236	1236	1236	1232	1232	1232	1232	1232	1232	1232	1232	1232	1232	1232	1232	1232	1232	1232	1232	1232	1232	1232	1227	1227	1227	1227	1227	1227	1227	1227	1227	1227	1227	1227	1227	1227	1223	1223	1223	1223	1227	1227	1227	1227	1227	1223	1223	1223	1219	1219	1219	1219	1219	1219	1219	1223	1219	1219	1219	1219	1214	1214	1214	1214	1214	1214	1214	1214	1214	1210	1210	1210	1210	1210	1210	1210	1210	1210	1210	1210	1214	1214	1214	1210	1210	1210	1210	1210	1206	1202	1202	1202	1202	1206	1202	1202	1202	1202	1202	1197	1197	1197	1197	1197	1193	1193	1193	1193	1193	1193	1193	1193	1193	1193	1193	1193	1193	1193	1193	1193	1193	1193	1193	1189	1189	1189	1193	1189	1189	1189	1189	1189	1189	1189	1189	1189	1189	1189	1189	1189	1189	1189	1189	1185	1185	1185	1185	1185	1185	1185	1185	1185	1189	1185	1185	1189	1189	1189	1185	1185	1185	1181	1181	1181	1181	1181	1181	1181	1181	1181	1181	1181	1185	1181	1181	1181	1181	1181	1181	1181	1181	1181	1181	1177	1177	1177	1177	1177	1177	1177	1181	1177	1177	1177	1177	1177	1177	1173	1173	1177	1177	1177	1173	1173	1173	1173	0	0	0	0	0	0	0	0	0	0	0	0	0	0	0	0	0	0	0
0	0	0	0	0	0	0	0	0	0	0	0	0	0	0	0	0	0	0	0	0	0	0	0	0	0	1368	1363	1363	1363	1363	1368	1363	1363	1363	1358	1358	1358	1358	1358	1358	1358	1358	1358	1358	1358	1358	1358	1358	1358	1358	1358	1358	1352	1352	1358	1358	1352	1352	1352	1352	1358	1358	1358	1358	1358	1358	1358	1358	1358	1358	1358	1358	1358	1352	1352	1352	1352	1352	1352	1352	1352	1352	1352	1352	1347	1347	1352	1352	1352	1347	1347	1347	1347	1347	1347	1347	1347	1347	1347	1347	1347	1347	1347	1342	1342	1342	1342	1342	1336	1336	1342	1342	1336	1336	1336	1336	1336	1336	1336	1336	1336	1336	1336	1336	1336	1336	1336	1331	1331	1331	1331	1331	1331	1331	1326	1326	1326	1326	1326	1326	1326	1326	1326	1326	1326	1326	1321	1321	1321	1321	1321	1316	1316	1316	1316	1316	1316	1316	1316	1316	1311	1311	1311	1311	1311	1311	1311	1311	1311	1311	1311	1306	1306	1311	1311	1306	1306	1306	1306	1306	1306	1306	1306	1306	1306	1306	1306	1306	1306	1306	1301	1301	1301	1301	1301	1301	1301	1301	1301	1301	1301	1301	1301	1301	1301	1301	1301	1301	1301	1301	1301	1296	1296	1301	1296	1296	1291	1291	1291	1296	1291	1291	1291	1291	1291	1291	1291	1291	1291	1291	1291	1291	1287	1287	1287	1287	1287	1287	1287	1287	1287	1287	1287	1287	1287	1287	1287	1287	1287	1287	1287	1287	1287	1287	1287	1287	1287	1287	1282	1282	1282	1282	1287	1282	1282	1282	1282	1282	1277	1277	1277	1282	1282	1282	1282	1277	1277	1277	1277	1277	1277	1277	1277	1277	1272	1272	1272	1272	1272	1272	1272	1272	1272	1272	1272	1272	1268	1268	1268	1268	1268	1268	1268	1268	1268	1268	1268	1268	1268	1268	1268	1268	1268	1268	1268	1268	1268	1268	1263	1263	1263	1263	1263	1263	1263	1263	1259	1259	1259	1259	1259	1259	1259	1259	1259	1254	1254	1254	1254	1254	1254	1254	1254	1254	1254	1254	1254	1254	1254	1249	1249	1249	1254	1254	1254	1254	1249	1249	1249	1249	1249	1245	1245	1245	1245	1245	1245	1245	1245	1245	1245	1245	1245	1245	1245	1249	1245	1245	1245	1245	1245	1245	1245	1245	1245	1245	1245	1240	1240	1240	1240	1240	1240	1236	1236	1240	1240	1240	1240	1240	1240	1240	1236	1236	1236	1236	1236	1236	1236	1236	1236	1236	1236	1236	1236	1236	1236	1232	1232	1232	1232	1232	1232	1232	1232	1232	1232	1232	1232	1232	1232	1232	1232	1232	1232	1232	1227	1227	1227	1227	1227	1227	1227	1227	1227	1227	1227	1227	1227	1223	1223	1223	1223	1223	1227	1227	1227	1227	1227	1223	1223	1223	1219	1219	1219	1214	1214	1219	1223	1219	1219	1219	1219	1219	1219	1214	1214	1214	1214	1214	1214	1214	1214	1214	1210	1210	1214	1210	1210	1210	1210	1210	1210	1210	1210	1214	1210	1210	1210	1210	1210	1210	1202	1202	1202	1202	1202	1202	1202	1202	1206	1202	1202	1197	1197	1197	1197	1197	1197	1197	1197	1193	1193	1193	1193	1193	1193	1193	1193	1193	1193	1193	1193	1193	1193	1193	1193	1189	1189	1189	1193	1189	1189	1189	1189	1189	1189	1189	1189	1189	1189	1189	1189	1189	1189	1189	1189	1189	1189	1189	1189	1189	1189	1185	1185	1185	1189	1185	1185	1189	1189	1185	1185	1185	1185	1181	1181	1181	1181	1181	1181	1181	1181	1181	1181	1181	1185	1181	1181	1181	1181	1185	1181	1181	1181	1181	1181	1177	1177	1177	1177	1177	1177	1177	1181	1177	1177	1181	1177	1177	1177	1173	1173	1177	1177	1177	1173	1173	1173	1173	0	0	0	0	0	0	0	0	0	0	0	0	0	0	0	0	0	0	0
0	0	0	0	0	0	0	0	0	0	0	0	0	0	0	0	0	0	0	0	0	0	0	0	0	0	1368	1368	1368	1368	1368	1368	1363	1363	1363	1363	1363	1358	1358	1358	1358	1358	1358	1358	1358	1358	1358	1358	1358	1358	1358	1358	1358	1358	1358	1358	1358	1352	1352	1352	1358	1358	1358	1358	1358	1358	1358	1358	1358	1358	1358	1358	1358	1358	1352	1352	1352	1352	1352	1352	1352	1352	1352	1352	1352	1347	1347	1347	1352	1352	1347	1347	1347	1352	1352	1347	1347	1347	1347	1347	1347	1347	1347	1347	1342	1342	1342	1342	1342	1342	1342	1336	1336	1336	1336	1336	1336	1336	1336	1336	1336	1336	1336	1336	1336	1336	1336	1336	1331	1331	1331	1331	1331	1331	1331	1326	1326	1326	1326	1326	1326	1326	1326	1326	1326	1326	1326	1321	1321	1321	1321	1321	1316	1316	1316	1316	1316	1316	1316	1316	1316	1316	1311	1311	1311	1311	1311	1311	1311	1311	1311	1311	1311	1311	1311	1311	1306	1306	1306	1306	1306	1306	1306	1306	1306	1306	1306	1306	1306	1306	1306	1306	1306	1306	1306	1301	1301	1301	1301	1301	1301	1301	1301	1301	1301	1301	1301	1301	1301	1301	1301	1301	1301	1301	1301	1296	1296	1291	1291	1296	1296	1296	1296	1296	1296	1296	1296	1291	1291	1291	1291	1291	1291	1291	1291	1291	1287	1287	1287	1287	1287	1287	1287	1287	1287	1287	1287	1287	1287	1287	1287	1287	1287	1287	1287	1287	1287	1287	1282	1282	1282	1282	1282	1287	1282	1282	1282	1282	1282	1282	1277	1277	1282	1282	1282	1282	1277	1277	1277	1277	1277	1277	1272	1272	1272	1272	1272	1272	1272	1272	1272	1272	1272	1272	1272	1272	1272	1268	1268	1268	1268	1268	1268	1268	1268	1268	1268	1268	1268	1268	1268	1268	1268	1272	1268	1268	1268	1268	1268	1263	1263	1263	1263	1263	1263	1263	1263	1263	1263	1263	1259	1259	1259	1259	1259	1259	1254	1254	1254	1254	1254	1254	1254	1254	1254	1254	1254	1254	1254	1254	1254	1254	1254	1254	1254	1254	1254	1254	1249	1249	1249	1249	1245	1245	1245	1245	1245	1245	1245	1245	1245	1245	1245	1245	1245	1245	1245	1245	1245	1245	1245	1245	1245	1245	1245	1245	1245	1245	1240	1240	1240	1240	1240	1240	1236	1236	1236	1236	1240	1240	1236	1240	1240	1240	1236	1236	1236	1236	1236	1236	1236	1236	1236	1236	1236	1236	1236	1236	1232	1232	1232	1232	1232	1232	1232	1232	1232	1232	1232	1232	1232	1232	1232	1232	1232	1232	1232	1227	1227	1227	1227	1227	1227	1227	1227	1227	1227	1227	1227	1227	1223	1223	1227	1227	1227	1227	1227	1227	1227	1227	1227	1223	1223	1219	1219	1219	1214	1214	1219	1219	1219	1219	1219	1219	1219	1214	1214	1214	1214	1214	1214	1214	1214	1214	1214	1214	1214	1214	1214	1210	1210	1210	1210	1210	1210	1210	1214	1210	1210	1210	1210	1210	1210	1202	1202	1202	1202	1202	1202	1202	1202	1206	1202	1202	1197	1197	1197	1197	1197	1197	1197	1197	1193	1193	1193	1193	1193	1193	1193	1193	1193	1193	1193	1193	1193	1193	1193	1193	1193	1193	1193	1193	1189	1189	1189	1189	1189	1189	1189	1189	1189	1189	1189	1189	1189	1189	1189	1189	1189	1189	1189	1189	1189	1189	1189	1185	1185	1189	1185	1185	1185	1185	1185	1185	1185	1185	1185	1185	1181	1181	1181	1181	1181	1181	1181	1181	1181	1185	1181	1181	1181	1181	1181	1181	1181	1181	1181	1181	1177	1177	1177	1177	1177	1177	1177	1181	1177	1177	1181	1177	1177	1177	1173	1173	1177	1177	1177	1173	1173	1173	1173	0	0	0	0	0	0	0	0	0	0	0	0	0	0	0	0	0	0	0
0	0	0	0	0	0	0	0	0	0	0	0	0	0	0	0	0	0	0	0	0	0	0	0	0	0	1368	1368	1368	1363	1363	1368	1363	1363	1363	1363	1363	1363	1358	1358	1358	1358	1358	1358	1358	1358	1358	1358	1358	1358	1358	1358	1358	1358	1358	1358	1358	1358	1358	1358	1358	1358	1358	1358	1358	1358	1358	1358	1358	1358	1358	1358	1358	1358	1352	1352	1352	1352	1352	1352	1352	1352	1352	1352	1347	1347	1347	1347	1352	1352	1347	1347	1347	1347	1347	1347	1347	1347	1347	1347	1347	1347	1342	1342	1342	1342	1342	1342	1342	1336	1336	1336	1336	1336	1336	1336	1336	1336	1336	1336	1336	1336	1336	1336	1336	1336	1336	1336	1331	1331	1331	1331	1331	1331	1331	1326	1326	1326	1326	1326	1326	1326	1326	1326	1326	1326	1326	1326	1326	1321	1321	1321	1316	1316	1316	1316	1316	1316	1316	1316	1316	1311	1311	1311	1311	1311	1311	1311	1311	1311	1311	1311	1311	1311	1311	1311	1306	1306	1306	1306	1306	1306	1306	1306	1306	1306	1306	1306	1306	1306	1306	1301	1301	1306	1306	1301	1301	1301	1301	1301	1301	1301	1301	1301	1306	1301	1301	1301	1301	1301	1301	1301	1301	1301	1301	1296	1296	1291	1291	1296	1296	1291	1291	1296	1296	1296	1291	1291	1291	1291	1291	1291	1291	1291	1291	1291	1291	1291	1287	1287	1287	1287	1287	1287	1287	1287	1287	1287	1287	1287	1287	1287	1287	1287	1287	1287	1282	1282	1282	1282	1282	1282	1282	1287	1282	1282	1282	1282	1282	1282	1277	1277	1282	1282	1282	1282	1282	1277	1277	1277	1277	1277	1272	1272	1272	1272	1272	1272	1272	1272	1272	1272	1272	1272	1272	1272	1272	1272	1268	1268	1268	1268	1268	1268	1268	1268	1268	1268	1268	1268	1268	1268	1268	1268	1268	1268	1268	1268	1268	1263	1263	1263	1263	1263	1263	1263	1263	1263	1263	1263	1259	1259	1259	1259	1259	1254	1254	1254	1254	1254	1254	1254	1254	1254	1254	1254	1254	1254	1254	1254	1254	1254	1254	1254	1254	1254	1254	1254	1249	1249	1249	1249	1245	1245	1245	1245	1245	1245	1245	1245	1245	1245	1245	1245	1245	1245	1245	1245	1245	1245	1245	1245	1245	1245	1245	1245	1245	1245	1245	1240	1240	1240	1240	1240	1236	1236	1236	1236	1236	1236	1236	1236	1236	1236	1240	1236	1236	1236	1236	1236	1236	1236	1236	1236	1236	1236	1236	1236	1232	1232	1232	1232	1232	1232	1232	1232	1232	1232	1232	1232	1232	1227	1227	1227	1232	1232	1232	1232	1227	1227	1227	1227	1227	1227	1227	1227	1227	1227	1227	1227	1227	1227	1227	1227	1227	1227	1227	1227	1227	1227	1227	1223	1223	1223	1219	1219	1214	1214	1219	1219	1219	1219	1219	1214	1214	1214	1214	1214	1214	1214	1214	1214	1214	1214	1214	1214	1214	1214	1214	1210	1210	1214	1214	1210	1210	1210	1214	1214	1214	1210	1210	1210	1210	1206	1206	1206	1206	1206	1206	1202	1202	1206	1202	1202	1202	1202	1202	1202	1197	1197	1197	1197	1193	1193	1193	1193	1193	1193	1193	1193	1193	1193	1193	1193	1193	1193	1193	1193	1193	1193	1193	1193	1189	1189	1189	1189	1189	1189	1189	1189	1189	1189	1189	1189	1189	1189	1189	1189	1189	1189	1189	1189	1189	1189	1189	1185	1185	1185	1185	1185	1185	1185	1185	1185	1185	1185	1181	1181	1181	1181	1181	1181	1181	1177	1177	1181	1181	1181	1181	1181	1181	1181	1181	1181	1181	1181	1181	1181	1177	1177	1177	1177	1177	1177	1177	1177	1177	1177	1181	1181	1181	1177	1177	1177	1177	1177	1177	1173	1173	1173	1173	0	0	0	0	0	0	0	0	0	0	0	0	0	0	0	0	0	0	0
0	0	0	0	0	0	0	0	0	0	0	0	0	0	0	0	0	0	0	0	0	0	0	0	0	0	1368	1368	1368	1363	1363	1368	1363	1363	1363	1363	1363	1363	1363	1358	1358	1358	1358	1358	1358	1358	1358	1358	1358	1358	1358	1358	1358	1358	1358	1358	1358	1358	1358	1358	1358	1358	1358	1358	1358	1358	1358	1358	1358	1358	1358	1358	1358	1358	1352	1352	1352	1352	1352	1352	1352	1352	1352	1352	1347	1347	1347	1347	1347	1347	1347	1347	1347	1347	1347	1347	1347	1347	1347	1347	1347	1347	1342	1342	1347	1342	1342	1342	1342	1336	1336	1336	1336	1336	1336	1336	1336	1336	1336	1336	1336	1336	1336	1336	1336	1336	1336	1336	1336	1331	1331	1331	1331	1331	1331	1326	1326	1326	1326	1326	1326	1326	1326	1326	1326	1326	1326	1321	1321	1321	1321	1321	1316	1316	1316	1316	1316	1316	1316	1316	1316	1311	1311	1311	1311	1311	1311	1311	1311	1311	1311	1311	1311	1311	1311	1311	1311	1306	1306	1306	1306	1306	1306	1306	1306	1306	1306	1306	1306	1301	1301	1301	1301	1306	1306	1301	1301	1301	1301	1301	1301	1301	1301	1301	1301	1301	1301	1301	1301	1306	1301	1301	1301	1301	1301	1296	1296	1296	1296	1296	1296	1291	1291	1296	1296	1296	1291	1291	1291	1291	1291	1291	1291	1291	1291	1291	1291	1291	1287	1287	1291	1291	1291	1291	1291	1291	1287	1287	1287	1287	1287	1287	1287	1287	1287	1287	1282	1282	1282	1282	1282	1282	1287	1287	1287	1287	1282	1282	1282	1282	1282	1282	1282	1282	1282	1282	1282	1277	1277	1277	1277	1277	1272	1272	1272	1272	1272	1272	1272	1272	1272	1272	1272	1272	1272	1272	1272	1272	1272	1268	1268	1268	1268	1268	1268	1268	1268	1268	1268	1268	1268	1268	1268	1268	1268	1268	1268	1268	1268	1263	1263	1263	1263	1263	1263	1263	1263	1263	1263	1263	1259	1259	1259	1254	1254	1254	1249	1249	1254	1254	1254	1254	1254	1254	1254	1254	1254	1254	1254	1254	1254	1254	1254	1254	1254	1254	1254	1254	1249	1249	1249	1249	1249	1245	1245	1245	1245	1245	1245	1245	1245	1245	1245	1245	1245	1245	1245	1245	1245	1245	1245	1245	1245	1245	1245	1245	1245	1245	1245	1245	1240	1240	1240	1240	1236	1236	1236	1236	1236	1236	1236	1236	1236	1236	1240	1236	1236	1236	1236	1236	1236	1236	1236	1236	1236	1236	1236	1232	1232	1232	1232	1232	1232	1232	1232	1232	1232	1232	1232	1232	1227	1227	1227	1227	1232	1232	1232	1232	1232	1232	1227	1227	1227	1227	1227	1227	1227	1227	1227	1227	1227	1227	1227	1227	1227	1227	1227	1227	1227	1227	1227	1223	1223	1223	1219	1219	1219	1219	1219	1219	1219	1219	1214	1214	1214	1214	1214	1214	1214	1214	1214	1214	1214	1214	1214	1214	1214	1214	1214	1214	1214	1214	1210	1210	1210	1210	1210	1214	1210	1210	1210	1210	1210	1206	1206	1202	1202	1202	1206	1206	1206	1206	1206	1202	1202	1202	1202	1202	1202	1202	1197	1197	1197	1193	1193	1193	1193	1193	1193	1193	1193	1193	1193	1193	1193	1193	1193	1193	1193	1193	1193	1193	1189	1189	1189	1189	1189	1189	1189	1189	1189	1189	1189	1189	1189	1189	1189	1189	1189	1189	1189	1189	1189	1189	1189	1189	1185	1185	1185	1185	1185	1185	1185	1185	1185	1185	1181	1181	1181	1181	1181	1181	1181	1177	1177	1181	1181	1181	1181	1181	1181	1181	1185	1181	1181	1181	1181	1181	1177	1177	1177	1177	1177	1177	1177	1177	1177	1177	1181	1181	1181	1177	1177	1177	1177	1177	1177	1173	1173	1173	1173	0	0	0	0	0	0	0	0	0	0	0	0	0	0	0	0	0	0	0
