0	0	0	0	0	0	0	0	0	0	0	0	0	0	0	0	0	0	0	0	0	0	0	0	0	1634	1634	1634	1626	1626	1626	1626	1626	1626	1626	1626	1626	1626	1618	1618	1618	1618	1618	1618	1611	1611	1611	1603	1603	1603	1596	1596	1596	1596	1596	1596	1596	1596	1596	1596	1589	1581	1581	1581	1581	1581	1581	1581	1581	1581	1581	1581	1574	1567	1560	1560	1560	1560	1560	1560	1560	1560	1553	1553	1553	1553	1553	1546	1546	1532	1532	1532	1532	1532	1532	1532	1532	1532	1532	1525	1525	1532	1525	1525	1525	1525	1519	1519	1519	1519	1519	1512	1512	1512	1506	1506	1506	1506	1506	1506	1506	1499	1499	1499	1499	1499	1492	1492	1492	1492	1486	1486	1486	1480	1480	1480	1473	1473	1473	1473	1473	1473	1473	1473	1473	1467	1467	1461	1461	1455	1455	1455	1449	1449	1449	1449	1449	1443	1443	1443	1443	1437	1437	1268	1268	1268	1263	1259	1259	1254	1254	1254	1254	1254	1157	1157	1157	1157	1157	1157	1157	1157	1153	1153	1153	1153	1153	1153	1150	1150	1150	1150	1150	1146	1146	1142	1142	1138	1138	1138	1138	1138	1138	1138	1138	1138	1134	1134	1134	1131	1131	1131	1127	1127	1127	1127	1127	1123	1123	1123	1123	1123	1120	1120	1120	1116	1116	1113	1113	1113	1113	1109	1109	1109	1109	1109	1105	1105	1105	1105	1102	1102	1102	1102	1098	1098	1098	1095	1095	1095	1095	1095	1091	1091	1088	1088	1088	1085	1085	1085	1085	1081	1081	1081	1081	1081	1078	1078	1078	1074	1074	1074	1074	1071	1071	1068	1068	1068	1068	1068	1064	1064	1068	1068	1061	1061	1061	1061	1061	1058	1058	1055	1055	1055	1052	1052	1052	1052	1052	1052	1052	1052	1048	1048	1048	1048	1048	1045	1045	1042	1042	1042	1039	1039	1039	1039	1039	1039	1039	1036	1036	1030	1026	1026	1026	1026	1026	1023	1023	1020	1020	1017	1017	1017	1017	1017	1014	1014	1014	1014	1014	1014	1014	1011	1011	1011	1011	1011	1011	1011	1008	1008	1006	1006	1006	1003	1003	1003	1000	1000	1000	1000	1000	997	997	997	994	994	994	994	994	994	994	991	991	991	988	988	988	988	988	988	988	985	985	983	983	980	980	980	977	977	977	977	977	977	977	977	974	974	972	972	972	969	969	969	969	966	963	963	963	963	961	961	961	961	961	961	961	958	958	955	955	955	955	953	953	953	953	953	950	950	950	948	948	948	948	945	945	945	942	942	942	942	942	940	940	940	940	937	937	935	935	935	935	935	935	935	932	932	932	932	932	930	930	927	927	925	925	925	925	922	922	922	922	922	920	917	917	917	917	915	915	915	913	913	913	913	913	913	913	915	915	915	915	1113	1113	1109	1109	1109	1109	1109	1109	1109	1105	1105	1105	1109	1109	1105	1105	1098	1098	1098	1098	1098	1098	1098	1095	1095	1095	1095	1095	1095	1095	1091	1091	1091	1091	1091	1088	1085	1085	1085	1085	1085	1085	1085	1081	1081	1081	1081	1081	1081	1078	1078	1078	1078	1078	1078	1078	1074	1074	1071	1071	1074	1071	1071	1071	1071	1071	1068	1068	1068	1068	1068	1068	1068	1064	1064	1064	1061	1061	1064	1061	1058	1058	1055	1055	1055	1055	1052	1055	1052	1052	1052	1052	1052	1052	1052	1048	1048	1048	1045	1045	1042	1042	1042	1042	1042	1042	1042	1042	1042	1042	1042	1042	1039	1039	1039	1039	1039	1039	1039	1036	1036	1036	1036	1036	1036	1030	1030	1030	0	0	0	0	0	0	0	0	0	0	0	0	0	0	0	0	0
0	0	0	0	0	0	0	0	0	0	0	0	0	0	0	0	0	0	0	0	0	0	0	0	0	1634	1634	1634	1634	1626	1626	1626	1626	1626	1626	1626	1626	1626	1626	1626	1626	1618	1618	1611	1611	1611	1611	1603	1603	1603	1603	1603	1603	1603	1603	1596	1596	1596	1596	1596	1589	1581	1581	1581	1581	1581	1581	1581	1581	1581	1581	1574	1574	1567	1560	1560	1560	1560	1560	1560	1560	1560	1553	1553	1553	1553	1553	1553	1546	1546	1539	1539	1539	1539	1532	1532	1532	1532	1532	1525	1525	1532	1532	1525	1525	1525	1525	1519	1519	1519	1519	1512	1512	1512	1506	1506	1506	1506	1506	1506	1506	1499	1499	1499	1499	1499	1499	1492	1492	1492	1492	1486	1486	1480	1480	1480	1480	1473	1473	1473	1473	1473	1473	1473	1473	1467	1467	1461	1461	1455	1455	1455	1449	1449	1449	1449	1449	1443	1443	1443	1443	1443	1443	1268	1268	1268	1263	1259	1259	1254	1254	1254	1254	1254	1157	1157	1157	1157	1157	1157	1157	1157	1157	1153	1153	1153	1153	1153	1153	1153	1150	1150	1150	1150	1146	1142	1142	1142	1138	1138	1138	1138	1138	1138	1138	1138	1134	1134	1134	1131	1131	1131	1127	1127	1127	1127	1127	1123	1123	1123	1123	1123	1120	1120	1120	1120	1116	1116	1113	1113	1113	1109	1109	1109	1109	1109	1105	1105	1105	1105	1105	1102	1102	1102	1098	1098	1098	1095	1095	1095	1095	1091	1091	1091	1088	1088	1088	1085	1085	1085	1085	1081	1081	1081	1081	1081	1078	1078	1078	1078	1074	1074	1074	1071	1071	1068	1068	1068	1068	1068	1064	1064	1064	1064	1061	1061	1061	1061	1061	1061	1058	1058	1055	1055	1055	1055	1052	1052	1052	1052	1052	1052	1052	1048	1048	1048	1048	1045	1045	1042	1042	1042	1042	1042	1039	1039	1039	1039	1039	1036	1036	1033	1030	1026	1026	1026	1026	1023	1023	1020	1020	1017	1017	1017	1017	1017	1017	1014	1014	1014	1014	1014	1014	1011	1011	1011	1011	1011	1011	1011	1011	1008	1008	1006	1006	1003	1003	1003	1000	1000	1000	1000	1000	997	997	997	994	994	994	994	994	994	994	991	991	991	991	988	988	988	988	988	988	988	985	983	983	980	980	980	977	977	977	977	977	977	977	977	974	974	972	972	969	969	969	969	969	966	966	963	963	963	963	963	963	963	961	961	961	961	958	958	955	955	955	953	953	953	953	953	953	950	950	948	948	948	948	945	945	945	945	942	942	942	942	942	940	940	940	937	937	937	937	937	935	935	935	935	935	932	932	932	932	932	930	927	927	925	925	925	925	922	922	922	922	922	920	920	920	917	917	915	915	915	913	913	913	913	913	913	913	915	915	915	915	915	922	922	1109	1109	1109	1109	1109	1109	1109	1109	1109	1109	1109	1105	1105	1098	1098	1098	1098	1098	1098	1098	1095	1095	1095	1095	1095	1095	1095	1091	1091	1091	1091	1091	1088	1088	1088	1085	1085	1085	1085	1085	1085	1085	1081	1081	1081	1081	1081	1081	1081	1078	1078	1078	1078	1074	1074	1071	1071	1074	1071	1071	1071	1071	1068	1068	1068	1068	1068	1068	1068	1068	1064	1064	1064	1061	1061	1064	1061	1058	1058	1055	1055	1055	1055	1055	1055	1052	1052	1052	1052	1052	1052	1052	1048	1048	1048	1045	1045	1042	1042	1042	1042	1042	1042	1042	1042	1045	1045	1042	1042	1042	1039	1039	1039	1039	1039	1036	1036	1036	1036	1039	1036	1036	1033	1033	1033	0	0	0	0	0	0	0	0	0	0	0	0	0	0	0	0	0
0	0	0	0	0	0	0	0	0	0	0	0	0	0	0	0	0	0	0	0	0	0	0	0	0	1634	1634	1634	1634	1626	1626	1626	1626	1626	1626	1626	1626	1626	1626	1626	1618	1618	1618	1611	1611	1611	1611	1611	1603	1603	1603	1603	1611	1611	1603	1603	1603	1596	1596	1596	1596	1589	1581	1581	1581	1581	1581	1581	1581	1581	1581	1581	1574	1567	1567	1560	1560	1560	1560	1560	1560	1560	1553	1553	1560	1553	1553	1553	1546	1546	1539	1539	1539	1539	1532	1532	1532	1532	1532	1532	1532	1532	1532	1525	1525	1525	1525	1525	1519	1519	1519	1512	1512	1512	1506	1506	1506	1506	1506	1506	1499	1499	1499	1499	1499	1499	1499	1492	1492	1492	1492	1486	1486	1480	1480	1480	1473	1473	1473	1473	1473	1473	1473	1473	1473	1467	1467	1461	1461	1455	1455	1449	1449	1449	1449	1449	1449	1449	1443	1443	1443	1443	1272	1272	1272	1263	1263	1259	1259	1259	1254	1254	1254	1254	1157	1157	1157	1157	1157	1157	1157	1157	1153	1153	1153	1153	1153	1153	1153	1153	1150	1150	1150	1150	1146	1146	1142	1142	1138	1138	1138	1138	1138	1138	1138	1138	1138	1134	1134	1131	1131	1131	1127	1127	1127	1127	1127	1127	1123	1123	1123	1123	1120	1120	1120	1116	1116	1116	1113	1113	1113	1113	1109	1109	1109	1109	1105	1105	1105	1105	1105	1105	1102	1102	1098	1098	1098	1095	1095	1095	1095	1091	1091	1091	1088	1088	1088	1085	1085	1085	1081	1081	1081	1081	1081	1078	1078	1078	1078	1078	1078	1074	1074	1071	1071	1068	1068	1068	1068	1068	1068	1064	1064	1064	1064	1064	1064	1061	1061	1061	1058	1058	1055	1055	1055	1055	1052	1052	1052	1052	1052	1052	1052	1052	1052	1052	1048	1045	1045	1045	1042	1042	1042	1042	1039	1039	1039	1039	1039	1036	1036	1033	1026	1026	1026	1026	1026	1023	1023	1023	1020	1020	1020	1020	1017	1017	1017	1017	1014	1014	1014	1014	1014	1011	1011	1011	1014	1011	1011	1011	1011	1011	1008	1006	1006	1003	1003	1003	1000	1000	1000	1000	1000	1000	997	997	997	997	997	997	994	994	994	991	991	991	991	988	988	988	988	988	988	988	985	985	985	983	980	980	980	977	977	977	977	977	977	977	977	977	974	972	972	972	969	969	969	966	963	963	963	963	963	963	961	961	961	961	961	961	958	958	955	955	955	953	953	953	953	953	953	950	950	950	948	948	948	945	945	945	945	942	942	942	942	942	940	940	940	940	940	940	937	937	937	935	935	935	935	932	932	932	932	932	930	927	927	925	925	925	925	922	922	922	922	922	920	920	920	920	920	917	915	915	915	913	913	913	913	913	915	915	917	915	915	922	1113	1109	1109	1109	1109	1109	1109	1109	1109	1109	1109	1109	1109	1105	1105	1098	1098	1098	1098	1098	1098	1098	1095	1095	1095	1095	1095	1095	1095	1095	1095	1091	1091	1091	1088	1088	1088	1088	1088	1088	1085	1085	1085	1085	1085	1081	1081	1081	1081	1081	1081	1081	1081	1081	1078	1074	1074	1074	1071	1071	1071	1071	1071	1071	1068	1068	1068	1068	1068	1068	1068	1068	1064	1064	1064	1064	1064	1061	1061	1061	1061	1055	1055	1055	1055	1055	1055	1052	1052	1052	1052	1052	1052	1052	1048	1048	1048	1045	1045	1045	1045	1042	1042	1042	1042	1042	1045	1045	1042	1042	1042	1042	1042	1042	1039	1039	1039	1039	1039	1039	1039	1039	1036	1036	1033	1033	1033	0	0	0	0	0	0	0	0	0	0	0	0	0	0	0	0	0
0	0	0	0	0	0	0	0	0	0	0	0	0	0	0	0	0	0	0	0	0	0	0	0	0	1634	1634	1634	1634	1626	1626	1626	1626	1626	1626	1626	1626	1626	1626	1626	1618	1618	1618	1611	1611	1611	1611	1611	1611	1611	1611	1611	1611	1611	1603	1603	1603	1596	1596	1596	1596	1589	1589	1589	1589	1581	1581	1581	1581	1581	1581	1581	1574	1567	1567	1560	1560	1560	1560	1560	1560	1560	1560	1560	1560	1553	1553	1553	1553	1546	1546	1546	1539	1539	1539	1539	1532	1532	1532	1532	1532	1532	1532	1525	1525	1525	1525	1525	1519	1519	1519	1512	1512	1506	1506	1506	1506	1506	1506	1506	1499	1499	1499	1499	1499	1499	1499	1499	1492	1492	1492	1492	1486	1480	1480	1480	1473	1473	1473	1473	1473	1473	1473	1473	1473	1467	1467	1467	1461	1455	1455	1449	1449	1449	1449	1449	1449	1449	1449	1449	1443	1443	1277	1272	1272	1272	1263	1259	1259	1259	1254	1254	1254	1254	1157	1157	1157	1157	1157	1157	1157	1157	1153	1153	1153	1153	1153	1153	1153	1153	1150	1150	1150	1150	1150	1146	1142	1142	1142	1142	1138	1138	1138	1138	1138	1138	1138	1134	1134	1131	1131	1131	1127	1127	1127	1127	1127	1127	1123	1123	1123	1123	1120	1120	1120	1116	1116	1116	1113	1113	1113	1113	1109	1109	1109	1109	1105	1105	1105	1105	1105	1105	1102	1102	1098	1098	1098	1095	1095	1095	1095	1091	1091	1091	1088	1088	1088	1085	1085	1085	1081	1081	1081	1081	1081	1078	1078	1078	1078	1078	1078	1074	1074	1074	1071	1071	1071	1071	1071	1068	1068	1068	1064	1064	1064	1064	1064	1064	1061	1061	1058	1055	1055	1055	1055	1055	1055	1052	1052	1052	1052	1052	1052	1052	1052	1052	1048	1045	1045	1045	1042	1042	1042	1042	1042	1042	1039	1039	1039	1039	1039	1033	1026	1026	1026	1026	1026	1026	1023	1023	1023	1020	1020	1020	1020	1020	1017	1017	1014	1014	1014	1014	1014	1011	1011	1011	1014	1011	1011	1011	1011	1011	1008	1008	1006	1006	1003	1003	1003	1003	1003	1000	1000	1000	1000	997	997	997	997	997	994	994	994	994	991	991	991	991	988	988	988	988	988	988	985	985	983	983	983	980	980	977	977	977	977	977	977	977	977	977	974	974	972	972	969	969	969	966	963	963	963	963	961	961	961	961	961	961	961	961	958	955	955	955	955	953	953	953	953	953	953	950	950	950	948	948	948	945	945	945	945	945	942	942	942	942	940	940	940	940	940	940	940	937	937	935	935	935	935	932	932	932	932	930	930	927	927	925	925	922	922	922	922	922	922	922	920	920	920	920	920	917	917	915	915	915	915	915	915	915	915	915	917	920	920	922	922	1113	1109	1109	1109	1109	1109	1109	1109	1105	1105	1105	1109	1105	1102	1102	1102	1098	1098	1098	1098	1098	1095	1095	1095	1095	1095	1095	1095	1095	1095	1091	1091	1091	1091	1088	1088	1088	1088	1088	1085	1085	1085	1085	1085	1081	1081	1081	1081	1081	1081	1081	1081	1081	1078	1074	1074	1074	1071	1071	1071	1071	1071	1071	1071	1071	1068	1068	1068	1068	1068	1068	1064	1064	1064	1064	1064	1061	1061	1061	1061	1055	1055	1055	1055	1055	1055	1055	1052	1052	1052	1052	1052	1052	1052	1048	1048	1045	1045	1045	1045	1042	1042	1042	1042	1042	1042	1042	1042	1042	1042	1042	1042	1042	1042	1039	1039	1039	1039	1039	1039	1039	1039	1036	1036	1036	1036	0	0	0	0	0	0	0	0	0	0	0	0	0	0	0	0	0
0	0	0	0	0	0	0	0	0	0	0	0	0	0	0	0	0	0	0	0	0	0	0	0	0	1634	1634	1634	1634	1626	1626	1626	1626	1626	1626	1626	1626	1626	1626	1626	1618	1618	1618	1611	1611	1611	1611	1611	1611	1611	1611	1611	1611	1611	1603	1603	1603	1603	1596	1596	1596	1589	1589	1589	1589	1581	1581	1581	1581	1581	1581	1581	1581	1574	1567	1560	1560	1560	1560	1560	1560	1560	1560	1560	1560	1560	1553	1553	1553	1546	1546	1546	1546	1546	1539	1539	1532	1532	1532	1532	1532	1532	1532	1525	1525	1525	1525	1525	1525	1525	1525	1519	1512	1506	1506	1506	1506	1506	1506	1506	1506	1499	1499	1499	1499	1499	1499	1499	1492	1492	1492	1492	1486	1480	1480	1480	1480	1480	1480	1473	1473	1473	1473	1473	1473	1473	1467	1467	1461	1455	1455	1455	1449	1449	1449	1449	1449	1449	1449	1449	1449	1443	1443	1272	1272	1268	1263	1263	1259	1259	1259	1259	1254	1254	1157	1157	1157	1157	1157	1157	1157	1157	1153	1153	1153	1153	1153	1153	1153	1153	1150	1150	1150	1150	1150	1146	1142	1142	1142	1142	1138	1138	1138	1138	1138	1138	1138	1134	1134	1131	1131	1131	1127	1127	1127	1127	1127	1127	1127	1123	1123	1123	1123	1120	1120	1120	1116	1116	1116	1113	1113	1113	1109	1109	1109	1109	1105	1105	1105	1105	1105	1105	1102	1102	1102	1102	1098	1098	1095	1095	1095	1091	1091	1091	1088	1088	1088	1085	1085	1085	1081	1081	1081	1081	1081	1081	1078	1078	1078	1078	1078	1074	1074	1074	1074	1074	1071	1071	1071	1068	1068	1068	1064	1064	1064	1064	1064	1064	1061	1061	1058	1058	1058	1058	1055	1055	1055	1055	1052	1052	1052	1052	1052	1052	1052	1052	1048	1045	1045	1042	1042	1042	1042	1042	1042	1039	1039	1039	1039	1036	1036	1033	1030	1030	1026	1026	1026	1026	1026	1023	1023	1023	1023	1020	1020	1020	1017	1017	1017	1014	1014	1014	1014	1014	1011	1011	1011	1011	1011	1011	1011	1011	1011	1008	1008	1006	1003	1003	1003	1003	1003	1000	1000	1000	1000	1000	997	997	997	997	994	994	994	994	991	991	991	991	991	988	988	988	988	988	988	985	983	983	983	980	980	980	980	977	977	977	977	977	977	977	974	974	972	972	969	969	969	963	963	963	963	961	961	961	961	961	961	961	961	961	958	955	955	955	955	953	953	953	953	953	953	950	950	950	948	948	948	948	945	945	945	945	942	942	942	942	940	940	940	940	940	940	937	937	937	935	935	935	935	932	932	932	932	930	930	927	927	925	925	925	925	922	922	922	922	922	920	920	920	920	920	917	917	915	915	915	915	915	915	915	915	917	917	920	920	920	1109	1109	1109	1109	1109	1109	1109	1109	1109	1105	1105	1102	1102	1102	1102	1102	1102	1098	1098	1098	1098	1098	1095	1095	1095	1095	1095	1095	1095	1095	1095	1095	1091	1091	1091	1088	1088	1088	1088	1088	1085	1085	1085	1085	1085	1085	1085	1085	1081	1081	1081	1081	1081	1081	1078	1074	1074	1074	1074	1074	1071	1071	1071	1071	1071	1071	1071	1071	1068	1068	1068	1068	1064	1064	1064	1064	1064	1061	1061	1061	1061	1055	1055	1055	1055	1055	1055	1055	1052	1052	1052	1052	1052	1052	1052	1048	1048	1048	1045	1045	1045	1045	1045	1045	1045	1045	1045	1045	1045	1045	1042	1042	1042	1042	1042	1039	1039	1039	1039	1039	1036	1036	1039	1039	1036	1036	1036	0	0	0	0	0	0	0	0	0	0	0	0	0	0	0	0	0
0	0	0	0	0	0	0	0	0	0	0	0	0	0	0	0	0	0	0	0	0	0	0	0	0	1634	1634	1634	1634	1626	1626	1626	1626	1626	1626	1626	1626	1626	1626	1626	1618	1618	1618	1618	1611	1611	1611	1611	1611	1611	1611	1611	1611	1611	1611	1611	1603	1603	1603	1596	1596	1589	1589	1589	1589	1581	1581	1581	1581	1581	1581	1581	1567	1567	1567	1560	1560	1560	1560	1560	1560	1560	1560	1560	1560	1560	1560	1553	1553	1553	1553	1546	1546	1546	1539	1539	1532	1532	1532	1532	1532	1532	1532	1525	1525	1525	1525	1525	1525	1525	1525	1525	1512	1506	1506	1506	1506	1506	1506	1506	1506	1499	1499	1499	1499	1499	1499	1499	1499	1492	1492	1492	1486	1480	1480	1480	1480	1480	1480	1473	1473	1473	1473	1473	1473	1473	1467	1467	1461	1455	1455	1449	1449	1449	1449	1449	1449	1449	1449	1449	1449	1443	1443	1272	1268	1268	1263	1263	1259	1259	1259	1259	1254	1254	1157	1157	1157	1161	1161	1161	1157	1157	1153	1153	1153	1153	1153	1153	1153	1153	1150	1150	1150	1150	1150	1146	1146	1142	1142	1142	1142	1138	1138	1138	1138	1138	1138	1138	1134	1134	1131	1131	1131	1127	1127	1127	1127	1127	1127	1123	1123	1123	1123	1120	1120	1120	1116	1116	1116	1113	1113	1113	1113	1109	1109	1109	1109	1105	1105	1105	1105	1105	1102	1102	1102	1102	1098	1098	1095	1095	1095	1095	1091	1091	1091	1088	1088	1085	1085	1085	1081	1081	1081	1081	1081	1081	1078	1078	1078	1078	1078	1078	1078	1074	1074	1074	1074	1071	1071	1071	1068	1068	1068	1068	1064	1064	1064	1064	1061	1061	1058	1058	1058	1058	1055	1055	1055	1055	1055	1052	1052	1052	1052	1052	1052	1052	1048	1045	1045	1042	1042	1042	1042	1042	1042	1042	1039	1039	1039	1039	1036	1033	1030	1030	1030	1030	1030	1026	1026	1026	1026	1023	1023	1023	1023	1020	1020	1020	1017	1017	1017	1017	1017	1014	1014	1014	1011	1011	1011	1011	1011	1011	1011	1008	1008	1008	1006	1006	1003	1003	1003	1000	1000	1000	1000	1000	997	997	997	997	994	994	994	994	991	991	991	991	991	988	988	988	988	988	988	985	985	983	983	980	980	980	980	980	977	977	977	977	977	977	974	974	972	972	969	969	969	963	963	963	963	961	961	961	961	961	961	961	961	961	958	955	955	955	955	953	953	953	953	953	950	950	950	950	948	948	948	948	945	945	945	945	945	942	942	942	940	940	942	940	940	940	940	940	937	935	935	935	935	932	935	932	932	930	930	927	927	925	925	925	925	922	922	922	922	922	922	920	920	920	917	917	915	915	915	915	915	915	915	915	915	917	917	920	920	1109	1109	1109	1109	1109	1109	1109	1109	1109	1109	1105	1105	1102	1102	1102	1102	1102	1102	1098	1098	1098	1098	1098	1098	1098	1095	1095	1095	1095	1095	1095	1095	1095	1095	1095	1091	1088	1088	1088	1088	1088	1085	1085	1085	1085	1085	1085	1085	1085	1081	1081	1081	1081	1081	1081	1078	1074	1074	1074	1074	1074	1074	1071	1071	1071	1071	1071	1071	1071	1068	1068	1068	1068	1064	1064	1064	1061	1061	1061	1061	1061	1061	1055	1055	1055	1055	1055	1055	1055	1052	1052	1052	1052	1052	1052	1052	1052	1052	1048	1048	1048	1048	1045	1045	1045	1045	1045	1048	1045	1045	1045	1042	1042	1042	1042	1042	1039	1039	1039	1039	1039	1036	1036	1039	1039	1036	1036	1036	0	0	0	0	0	0	0	0	0	0	0	0	0	0	0	0	0
0	0	0	0	0	0	0	0	0	0	0	0	0	0	0	0	0	0	0	0	0	0	0	0	0	1634	1634	1641	1641	1641	1626	1626	1634	1626	1626	1626	1626	1626	1626	1626	1618	1618	1618	1618	1611	1611	1611	1611	1611	1611	1611	1611	1611	1611	1611	1611	1603	1603	1603	1596	1596	1589	1589	1589	1589	1581	1581	1581	1581	1581	1581	1581	1567	1567	1567	1567	1560	1560	1560	1560	1560	1560	1560	1560	1560	1560	1560	1560	1553	1553	1553	1546	1546	1546	1546	1546	1539	1539	1532	1532	1532	1532	1532	1525	1525	1525	1525	1525	1525	1525	1525	1519	1512	1506	1506	1506	1506	1506	1506	1506	1506	1506	1499	1499	1499	1499	1499	1499	1499	1499	1492	1492	1486	1480	1480	1480	1480	1480	1480	1473	1473	1473	1473	1473	1473	1473	1467	1467	1461	1455	1455	1449	1449	1449	1449	1449	1449	1449	1449	1449	1449	1449	1272	1272	1268	1268	1263	1263	1259	1259	1259	1259	1254	1254	1161	1161	1161	1161	1161	1157	1157	1157	1153	1153	1153	1153	1153	1153	1153	1153	1150	1150	1150	1150	1150	1146	1146	1142	1142	1142	1142	1142	1142	1142	1138	1138	1138	1138	1134	1134	1131	1131	1131	1127	1127	1127	1127	1127	1127	1123	1123	1123	1123	1123	1123	1120	1120	1120	1116	1113	1113	1113	1113	1113	1113	1109	1109	1105	1105	1105	1105	1105	1102	1102	1102	1102	1098	1098	1095	1095	1095	1095	1091	1091	1091	1088	1088	1085	1085	1085	1081	1081	1081	1081	1081	1081	1081	1081	1078	1078	1078	1078	1078	1074	1074	1074	1074	1071	1071	1071	1068	1068	1068	1068	1064	1064	1064	1064	1061	1061	1058	1058	1058	1058	1055	1055	1055	1055	1055	1052	1052	1052	1052	1052	1052	1048	1048	1045	1045	1042	1042	1042	1042	1042	1042	1042	1039	1039	1039	1039	1036	1036	1033	1030	1030	1030	1030	1026	1026	1026	1026	1023	1023	1023	1023	1023	1020	1020	1020	1020	1020	1020	1017	1017	1017	1014	1011	1011	1011	1011	1011	1011	1011	1011	1011	1008	1006	1006	1003	1003	1003	1000	1000	1000	1000	1000	1000	997	997	997	997	994	994	994	994	991	991	991	991	991	988	988	988	988	988	985	985	983	983	983	980	980	980	980	980	980	977	977	977	977	974	974	974	974	972	969	969	966	966	963	963	963	963	963	961	961	961	961	961	961	961	958	955	955	955	953	953	953	953	953	953	950	950	948	948	948	948	948	945	945	945	945	945	942	942	942	942	942	942	940	940	942	940	940	937	937	935	935	935	935	935	932	932	930	930	927	927	925	925	925	925	925	922	922	922	922	922	920	920	920	917	917	915	915	915	915	915	915	915	915	917	917	920	925	925	927	1109	1113	1113	1109	1109	1109	1109	1109	1109	1105	1105	1102	1102	1102	1102	1102	1102	1098	1098	1098	1098	1098	1098	1098	1095	1095	1095	1095	1095	1095	1095	1095	1095	1095	1091	1088	1088	1085	1085	1085	1085	1085	1085	1085	1085	1085	1085	1085	1085	1081	1081	1081	1081	1081	1081	1078	1074	1074	1074	1074	1074	1074	1074	1071	1071	1071	1071	1071	1068	1068	1068	1064	1064	1064	1064	1061	1061	1058	1058	1061	1064	1058	1058	1055	1055	1055	1055	1055	1055	1055	1052	1052	1052	1052	1052	1052	1052	1048	1048	1048	1048	1045	1045	1045	1045	1045	1045	1045	1045	1045	1042	1042	1042	1042	1042	1039	1039	1039	1039	1039	1036	1036	1039	1039	1033	1033	1033	0	0	0	0	0	0	0	0	0	0	0	0	0	0	0	0	0
0	0	0	0	0	0	0	0	0	0	0	0	0	0	0	0	0	0	0	0	0	0	0	0	0	1641	1641	1641	1641	1634	1634	1634	1634	1626	1626	1626	1626	1626	1618	1618	1618	1618	1618	1618	1618	1611	1611	1611	1611	1611	1611	1611	1618	1618	1611	1611	1603	1603	1603	1596	1596	1589	1589	1589	1589	1589	1581	1581	1581	1581	1581	1581	1581	1581	1581	1567	1560	1560	1560	1560	1560	1560	1560	1560	1560	1560	1560	1560	1553	1553	1553	1553	1553	1546	1546	1546	1539	1539	1532	1532	1532	1532	1532	1525	1525	1525	1525	1525	1525	1525	1525	1519	1512	1512	1512	1512	1512	1506	1506	1506	1506	1506	1506	1499	1499	1499	1499	1499	1499	1499	1492	1492	1492	1486	1486	1480	1480	1480	1480	1480	1480	1480	1473	1473	1473	1473	1467	1467	1461	1455	1455	1455	1449	1449	1449	1449	1449	1449	1449	1449	1449	1449	1268	1268	1268	1268	1263	1263	1259	1259	1259	1259	1259	1254	1254	1161	1161	1161	1161	1157	1157	1157	1153	1153	1153	1153	1153	1153	1153	1153	1153	1150	1153	1153	1150	1146	1146	1142	1142	1142	1142	1142	1142	1142	1138	1138	1138	1138	1138	1134	1134	1131	1131	1131	1131	1127	1127	1127	1127	1123	1123	1123	1123	1123	1123	1120	1120	1120	1120	1116	1113	1113	1113	1113	1113	1109	1109	1105	1105	1105	1105	1105	1102	1102	1102	1102	1098	1098	1095	1095	1095	1095	1091	1091	1091	1091	1088	1088	1088	1085	1085	1081	1081	1081	1081	1081	1081	1081	1081	1078	1078	1078	1078	1078	1078	1074	1074	1074	1071	1071	1068	1068	1068	1068	1064	1064	1064	1064	1064	1061	1061	1058	1058	1058	1055	1055	1055	1055	1055	1052	1052	1052	1052	1052	1052	1048	1048	1045	1045	1042	1042	1042	1042	1042	1042	1042	1039	1039	1039	1039	1036	1036	1033	1033	1030	1030	1030	1030	1026	1026	1026	1023	1023	1023	1023	1020	1020	1020	1020	1020	1020	1020	1017	1017	1017	1014	1011	1011	1011	1011	1011	1011	1011	1011	1011	1008	1008	1006	1006	1006	1003	1003	1000	1000	1000	1000	1000	1000	997	997	997	994	994	994	991	991	991	991	991	991	988	988	988	988	988	985	983	983	983	980	980	980	980	980	980	980	977	977	977	977	974	974	974	974	972	969	969	966	966	963	963	963	963	963	963	963	963	961	961	961	961	958	955	955	955	953	953	953	953	953	950	950	950	948	948	948	948	948	945	945	945	945	945	945	942	942	942	942	942	942	942	942	940	937	937	935	935	935	935	932	932	932	932	930	930	930	930	927	925	925	925	925	922	922	922	922	922	922	922	920	920	917	917	915	915	915	915	915	915	915	917	920	922	925	927	1109	1109	1113	1113	1113	1113	1113	1109	1109	1109	1109	1105	1102	1102	1102	1102	1102	1102	1098	1098	1098	1098	1098	1098	1098	1095	1095	1095	1095	1095	1095	1095	1095	1095	1091	1091	1091	1088	1085	1085	1085	1085	1085	1085	1085	1085	1085	1085	1085	1085	1085	1085	1081	1081	1081	1081	1078	1078	1078	1078	1078	1074	1074	1071	1071	1071	1071	1071	1068	1068	1068	1068	1064	1064	1064	1064	1061	1061	1058	1058	1061	1061	1058	1058	1055	1055	1052	1052	1052	1055	1055	1052	1052	1052	1052	1052	1052	1052	1052	1048	1048	1048	1045	1045	1045	1045	1045	1045	1045	1045	1045	1045	1042	1042	1042	1042	1039	1039	1039	1039	1039	1039	1039	1039	1039	1030	1030	1030	0	0	0	0	0	0	0	0	0	0	0	0	0	0	0	0	0
0	0	0	0	0	0	0	0	0	0	0	0	0	0	0	0	0	0	0	0	0	0	0	0	0	1641	1641	1649	1641	1634	1634	1634	1634	1626	1626	1626	1626	1626	1618	1618	1618	1618	1618	1618	1618	1618	1618	1611	1611	1611	1611	1611	1618	1618	1611	1611	1603	1603	1603	1596	1596	1589	1589	1589	1589	1589	1581	1581	1581	1581	1581	1581	1581	1581	1581	1567	1567	1560	1560	1560	1560	1560	1560	1560	1560	1560	1560	1560	1553	1553	1553	1553	1553	1553	1546	1546	1546	1539	1539	1539	1532	1532	1532	1532	1532	1532	1532	1532	1525	1525	1525	1519	1512	1512	1512	1512	1512	1506	1506	1506	1506	1506	1506	1499	1499	1499	1499	1499	1499	1492	1492	1492	1492	1486	1486	1486	1480	1480	1480	1480	1480	1480	1473	1473	1473	1473	1467	1467	1467	1455	1455	1455	1449	1449	1449	1449	1449	1449	1449	1443	1443	1443	1268	1268	1272	1268	1268	1263	1263	1259	1259	1259	1259	1254	1254	1161	1161	1161	1161	1161	1157	1157	1153	1153	1153	1153	1153	1153	1153	1153	1153	1153	1153	1150	1150	1146	1146	1142	1142	1142	1142	1142	1142	1142	1142	1138	1138	1138	1138	1134	1134	1131	1131	1131	1131	1127	1127	1127	1127	1127	1123	1123	1123	1123	1123	1123	1120	1120	1120	1116	1116	1116	1113	1113	1113	1113	1109	1105	1105	1105	1105	1105	1102	1102	1102	1102	1098	1098	1095	1095	1095	1095	1091	1091	1091	1091	1088	1088	1088	1085	1085	1081	1081	1081	1081	1081	1081	1081	1081	1078	1078	1078	1078	1078	1078	1078	1078	1074	1071	1071	1068	1068	1068	1068	1068	1064	1064	1064	1064	1061	1061	1061	1058	1058	1055	1055	1055	1055	1055	1055	1052	1052	1052	1052	1052	1052	1048	1045	1045	1042	1042	1042	1042	1042	1042	1042	1039	1039	1039	1039	1039	1036	1033	1033	1033	1030	1030	1030	1026	1026	1026	1026	1023	1023	1023	1020	1020	1020	1020	1020	1020	1020	1017	1017	1014	1014	1011	1011	1011	1011	1011	1011	1011	1011	1011	1011	1008	1008	1006	1006	1006	1003	1003	1003	1000	1000	1000	1000	997	997	997	994	994	994	991	991	991	991	991	991	988	988	988	988	985	985	983	983	983	980	980	980	980	980	980	980	977	977	977	977	974	974	974	974	972	969	969	966	966	963	963	963	963	963	963	963	961	961	961	961	961	958	955	955	955	953	953	953	953	953	950	950	950	948	948	948	948	948	945	945	945	945	945	945	942	942	942	942	942	942	942	942	940	937	937	935	935	935	935	932	932	932	932	932	930	930	930	927	927	925	925	925	922	922	922	922	922	922	922	920	920	920	917	917	915	915	915	915	915	915	917	920	922	925	927	927	1113	1113	1113	1113	1113	1113	1113	1109	1109	1105	1105	1102	1102	1102	1102	1102	1102	1098	1098	1098	1098	1098	1098	1098	1095	1095	1095	1095	1095	1095	1095	1095	1095	1091	1091	1091	1091	1085	1085	1085	1085	1085	1085	1085	1085	1085	1085	1085	1085	1085	1085	1081	1081	1081	1081	1078	1078	1078	1078	1078	1074	1074	1071	1071	1071	1071	1068	1068	1068	1068	1068	1064	1064	1064	1064	1061	1061	1061	1061	1064	1064	1058	1058	1055	1055	1052	1052	1052	1055	1055	1055	1052	1052	1052	1052	1052	1052	1052	1052	1048	1048	1048	1045	1045	1045	1045	1045	1045	1045	1045	1045	1042	1042	1042	1042	1042	1042	1039	1039	1039	1039	1039	1039	1039	1030	1030	1030	0	0	0	0	0	0	0	0	0	0	0	0	0	0	0	0	0
0	0	0	0	0	0	0	0	0	0	0	0	0	0	0	0	0	0	0	0	0	0	0	0	0	1641	1641	1649	1641	1641	1634	1634	1634	1634	1626	1626	1626	1626	1626	1626	1618	1618	1618	1618	1618	1618	1618	1611	1611	1611	1611	1618	1618	1611	1611	1611	1603	1603	1603	1603	1603	1589	1589	1589	1589	1589	1581	1581	1581	1581	1581	1581	1581	1581	1581	1567	1567	1560	1560	1560	1560	1560	1560	1560	1560	1560	1560	1560	1553	1553	1553	1553	1553	1553	1553	1546	1546	1539	1539	1539	1539	1532	1532	1532	1532	1532	1532	1525	1525	1525	1525	1525	1519	1512	1512	1512	1512	1506	1506	1506	1506	1506	1506	1499	1499	1499	1499	1499	1499	1492	1492	1492	1492	1486	1486	1486	1480	1480	1480	1480	1480	1480	1480	1473	1473	1473	1467	1467	1467	1455	1455	1455	1455	1449	1449	1449	1449	1449	1449	1443	1443	1443	1272	1272	1272	1272	1268	1263	1263	1259	1259	1259	1254	1254	1254	1161	1161	1165	1165	1161	1157	1157	1153	1153	1153	1153	1153	1153	1153	1153	1153	1153	1150	1150	1150	1146	1146	1146	1142	1142	1142	1142	1142	1142	1142	1142	1138	1138	1138	1134	1134	1134	1134	1134	1131	1131	1127	1127	1127	1127	1123	1123	1123	1123	1123	1120	1120	1120	1116	1116	1116	1116	1113	1113	1113	1113	1113	1109	1105	1105	1105	1105	1102	1102	1102	1102	1102	1098	1098	1095	1095	1095	1091	1091	1091	1091	1091	1091	1091	1088	1085	1081	1081	1085	1085	1081	1081	1081	1081	1081	1078	1078	1078	1078	1078	1078	1078	1074	1074	1074	1071	1071	1068	1068	1068	1064	1064	1064	1064	1061	1061	1061	1058	1058	1055	1055	1055	1055	1055	1055	1052	1052	1052	1052	1052	1052	1048	1048	1045	1042	1042	1042	1042	1042	1042	1042	1042	1039	1039	1039	1039	1036	1033	1033	1033	1030	1030	1030	1026	1026	1026	1026	1026	1023	1023	1023	1023	1023	1023	1020	1020	1020	1020	1017	1014	1014	1011	1011	1011	1011	1011	1011	1011	1011	1011	1011	1011	1008	1008	1006	1006	1003	1003	1003	1000	1000	1000	1000	1000	1000	997	997	994	994	991	991	991	991	991	991	988	988	988	985	985	985	983	983	983	983	980	980	980	980	980	980	980	977	977	977	974	974	974	972	969	969	969	966	966	963	963	963	963	963	963	963	961	961	961	961	961	958	958	955	955	955	953	953	953	953	953	950	950	950	950	950	950	948	948	945	945	945	945	945	942	942	942	942	942	942	942	942	940	937	935	935	935	935	935	935	935	932	932	932	932	930	930	927	927	927	927	925	925	925	925	922	922	922	922	920	920	920	917	917	915	915	915	915	915	915	920	922	925	925	925	1113	1113	1113	1113	1113	1113	1113	1113	1109	1109	1109	1109	1105	1102	1102	1102	1102	1102	1098	1098	1098	1098	1098	1098	1098	1095	1095	1095	1095	1095	1095	1095	1095	1095	1091	1091	1091	1091	1085	1085	1085	1085	1085	1085	1085	1085	1085	1085	1085	1085	1085	1085	1081	1081	1081	1081	1081	1078	1078	1078	1078	1078	1074	1071	1071	1071	1071	1068	1068	1068	1068	1068	1064	1064	1064	1064	1064	1064	1064	1064	1064	1064	1058	1058	1055	1055	1055	1055	1055	1055	1052	1052	1052	1052	1052	1052	1052	1052	1052	1052	1048	1048	1048	1048	1048	1048	1048	1045	1045	1045	1045	1045	1045	1045	1045	1042	1042	1042	1042	1042	1039	1039	1039	1039	1039	1036	1036	1036	0	0	0	0	0	0	0	0	0	0	0	0	0	0	0	0	0
0	0	0	0	0	0	0	0	0	0	0	0	0	0	0	0	0	0	0	0	0	0	0	0	0	1649	1649	1649	1649	1641	1641	1634	1634	1634	1634	1634	1626	1626	1626	1626	1626	1626	1618	1618	1618	1618	1618	1611	1611	1611	1611	1611	1611	1611	1611	1611	1611	1611	1603	1603	1603	1596	1596	1596	1589	1589	1589	1581	1581	1581	1581	1581	1574	1574	1574	1567	1567	1560	1560	1560	1560	1560	1560	1560	1560	1560	1560	1560	1553	1553	1553	1553	1553	1553	1553	1546	1546	1539	1539	1532	1532	1532	1532	1532	1532	1532	1532	1525	1525	1525	1525	1525	1519	1519	1519	1519	1519	1506	1506	1506	1506	1506	1506	1499	1499	1499	1499	1499	1499	1492	1492	1492	1492	1486	1486	1486	1480	1480	1480	1480	1480	1480	1480	1473	1473	1473	1473	1467	1467	1455	1455	1455	1455	1449	1449	1449	1449	1449	1449	1443	1443	1443	1272	1272	1272	1272	1268	1268	1263	1259	1259	1259	1254	1254	1169	1165	1165	1165	1165	1161	1161	1157	1157	1157	1153	1153	1153	1153	1153	1153	1153	1153	1150	1150	1150	1146	1146	1146	1142	1142	1142	1142	1142	1142	1142	1142	1138	1138	1138	1134	1134	1134	1134	1134	1134	1131	1131	1127	1127	1127	1123	1123	1123	1123	1123	1120	1120	1120	1116	1116	1116	1116	1113	1113	1113	1113	1113	1109	1105	1105	1105	1105	1102	1102	1102	1102	1102	1098	1098	1095	1095	1095	1091	1091	1091	1091	1091	1091	1091	1088	1085	1085	1085	1085	1085	1085	1081	1081	1081	1081	1081	1078	1078	1078	1078	1078	1078	1074	1074	1074	1071	1071	1068	1068	1068	1064	1064	1064	1064	1064	1061	1061	1058	1058	1055	1055	1055	1055	1055	1055	1055	1052	1052	1052	1052	1052	1048	1045	1045	1045	1042	1042	1042	1042	1042	1042	1042	1042	1039	1039	1039	1036	1033	1033	1033	1030	1030	1030	1026	1026	1026	1026	1023	1023	1023	1023	1023	1023	1023	1023	1023	1020	1020	1017	1014	1014	1011	1011	1011	1014	1011	1011	1011	1011	1011	1011	1011	1011	1008	1006	1006	1003	1003	1003	1000	1000	1000	1000	1000	1000	997	997	994	994	991	991	991	991	991	991	988	988	985	985	985	985	983	983	983	983	983	983	983	980	980	980	980	977	977	977	977	974	974	972	969	969	969	966	966	963	963	963	963	963	963	963	963	961	961	961	961	961	958	955	955	955	955	955	953	953	953	950	950	950	948	948	950	950	948	948	945	945	945	945	942	942	942	942	942	942	942	942	940	937	935	935	935	935	932	932	935	932	932	932	932	930	930	927	927	927	927	925	925	925	925	922	922	922	922	922	920	920	920	917	915	915	915	915	915	915	920	922	925	925	925	1113	1113	1113	1113	1113	1113	1113	1113	1113	1109	1109	1109	1105	1102	1102	1102	1102	1102	1102	1098	1098	1102	1098	1098	1098	1095	1095	1098	1098	1095	1095	1095	1095	1095	1095	1091	1091	1091	1088	1088	1088	1088	1088	1088	1085	1085	1085	1085	1085	1085	1085	1085	1081	1081	1081	1081	1081	1078	1078	1078	1078	1078	1074	1074	1071	1071	1071	1068	1068	1068	1068	1068	1064	1064	1064	1064	1064	1064	1064	1064	1064	1064	1058	1055	1055	1055	1055	1055	1055	1055	1052	1052	1052	1052	1052	1052	1052	1052	1052	1052	1052	1052	1048	1048	1048	1045	1045	1045	1045	1045	1045	1045	1045	1045	1045	1045	1042	1042	1042	1039	1039	1039	1039	1039	1039	1039	1039	1039	0	0	0	0	0	0	0	0	0	0	0	0	0	0	0	0	0
0	0	0	0	0	0	0	0	0	0	0	0	0	0	0	0	0	0	0	0	0	0	0	0	0	1649	1649	1649	1649	1649	1641	1641	1641	1634	1634	1634	1626	1626	1626	1626	1626	1626	1626	1626	1618	1618	1618	1618	1611	1611	1611	1611	1611	1611	1611	1611	1611	1611	1603	1603	1603	1596	1596	1596	1589	1589	1589	1589	1581	1581	1581	1581	1574	1574	1574	1567	1567	1567	1567	1560	1560	1560	1560	1560	1560	1560	1560	1560	1560	1553	1553	1553	1553	1553	1553	1546	1539	1539	1532	1532	1532	1532	1532	1532	1532	1532	1532	1532	1532	1525	1525	1525	1519	1519	1519	1519	1512	1512	1512	1512	1506	1506	1506	1506	1499	1499	1499	1499	1499	1492	1492	1492	1492	1492	1486	1486	1486	1480	1480	1480	1480	1480	1480	1473	1473	1473	1467	1467	1467	1455	1455	1455	1455	1449	1449	1449	1449	1449	1449	1449	1449	1449	1272	1272	1268	1268	1268	1263	1259	1259	1259	1259	1259	1259	1169	1165	1165	1165	1165	1165	1161	1157	1157	1157	1157	1157	1157	1157	1157	1157	1153	1153	1150	1150	1150	1146	1146	1146	1146	1142	1142	1142	1142	1142	1142	1142	1138	1138	1138	1138	1138	1134	1134	1134	1134	1131	1131	1127	1127	1127	1123	1123	1123	1123	1123	1123	1120	1120	1120	1116	1116	1116	1113	1113	1113	1113	1113	1109	1105	1105	1105	1105	1102	1102	1102	1102	1102	1098	1098	1095	1095	1095	1095	1095	1095	1091	1091	1091	1091	1088	1088	1085	1085	1088	1088	1085	1081	1081	1081	1081	1078	1078	1078	1078	1078	1078	1078	1078	1074	1074	1071	1071	1068	1068	1068	1064	1064	1064	1064	1064	1064	1061	1058	1058	1058	1055	1055	1055	1055	1055	1055	1052	1052	1052	1052	1052	1048	1045	1045	1045	1042	1042	1042	1042	1042	1042	1042	1042	1042	1039	1039	1036	1033	1033	1033	1030	1030	1030	1026	1026	1026	1023	1023	1023	1023	1023	1023	1023	1023	1023	1020	1020	1020	1017	1017	1014	1014	1014	1014	1014	1011	1011	1011	1011	1011	1011	1008	1008	1008	1006	1006	1003	1003	1003	1000	1000	1000	1000	1000	1000	1000	997	997	997	994	994	991	991	991	991	988	988	985	985	985	985	983	983	983	983	983	983	983	980	980	980	980	977	977	977	977	974	974	974	972	972	969	966	966	966	966	966	966	963	963	963	963	961	961	961	961	961	958	955	955	955	955	955	953	953	953	953	950	950	948	948	950	950	950	948	948	945	945	945	945	945	942	942	942	942	942	942	940	940	937	935	935	935	932	932	935	932	932	932	932	930	930	927	927	927	927	927	925	925	925	925	922	922	922	922	922	920	920	920	917	915	915	917	917	917	920	922	922	925	0	1113	1113	1113	1113	1113	1113	1113	1113	1113	1109	1109	1109	1105	1102	1102	1102	1102	1102	1102	1098	1098	1102	1098	1098	1098	1098	1095	1098	1095	1095	1098	1095	1091	1091	1091	1091	1091	1091	1088	1088	1088	1088	1088	1085	1085	1085	1085	1085	1085	1085	1085	1085	1085	1081	1081	1081	1081	1078	1078	1078	1078	1078	1071	1071	1071	1071	1068	1068	1068	1068	1068	1064	1064	1064	1064	1064	1064	1064	1064	1064	1064	1064	1058	1055	1055	1055	1055	1052	1052	1055	1055	1055	1055	1055	1055	1055	1052	1052	1052	1052	1052	1052	1048	1048	1048	1045	1045	1045	1045	1045	1045	1045	1045	1045	1042	1042	1042	1042	1042	1039	1039	1039	1039	1036	1036	1036	1036	1036	0	0	0	0	0	0	0	0	0	0	0	0	0	0	0	0	0
0	0	0	0	0	0	0	0	0	0	0	0	0	0	0	0	0	0	0	0	0	0	0	0	0	1649	1649	1649	1649	1649	1641	1634	1634	1634	1634	1634	1626	1626	1626	1626	1626	1626	1626	1626	1618	1618	1618	1611	1611	1611	1611	1611	1611	1611	1611	1611	1611	1611	1603	1603	1603	1596	1596	1596	1596	1589	1589	1589	1581	1581	1581	1581	1581	1574	1574	1574	1574	1567	1567	1567	1567	1567	1560	1560	1560	1560	1560	1560	1560	1553	1553	1553	1553	1553	1553	1546	1539	1539	1532	1532	1532	1532	1532	1532	1532	1532	1532	1532	1532	1525	1525	1525	1519	1519	1519	1519	1512	1512	1512	1512	1512	1506	1506	1506	1506	1499	1499	1499	1499	1492	1492	1492	1492	1492	1492	1486	1486	1480	1480	1480	1480	1480	1480	1473	1473	1473	1467	1467	1461	1455	1455	1455	1455	1449	1449	1449	1449	1449	1449	1449	1449	1449	1272	1272	1268	1268	1263	1263	1259	1259	1259	1254	1254	1254	1169	1165	1165	1165	1169	1165	1161	1161	1157	1157	1157	1157	1157	1157	1157	1157	1153	1153	1150	1150	1150	1146	1146	1146	1146	1142	1142	1142	1142	1142	1142	1142	1142	1138	1138	1138	1138	1134	1134	1134	1134	1131	1131	1127	1127	1127	1123	1123	1123	1123	1123	1123	1123	1123	1120	1120	1116	1116	1116	1116	1116	1113	1113	1109	1109	1105	1105	1105	1102	1102	1102	1102	1102	1102	1098	1095	1095	1095	1095	1095	1095	1091	1091	1091	1091	1091	1091	1088	1088	1088	1088	1085	1081	1081	1081	1081	1078	1078	1078	1078	1078	1078	1078	1074	1074	1074	1071	1071	1068	1068	1068	1068	1068	1064	1064	1064	1064	1061	1058	1058	1058	1058	1055	1055	1055	1055	1055	1055	1055	1052	1052	1052	1048	1048	1045	1045	1042	1042	1042	1042	1042	1042	1042	1042	1042	1042	1039	1036	1033	1033	1033	1030	1030	1030	1026	1026	1026	1023	1023	1023	1023	1023	1023	1023	1023	1020	1020	1020	1020	1017	1017	1014	1014	1014	1014	1014	1014	1011	1011	1011	1011	1011	1008	1008	1008	1006	1006	1003	1003	1003	1003	1003	1003	1003	1000	1000	1000	997	997	997	994	994	991	991	991	991	988	988	985	985	985	985	983	983	983	983	983	983	983	980	980	980	980	977	977	977	977	977	974	974	972	972	972	969	966	966	966	966	966	966	963	963	963	961	961	961	961	961	958	955	955	955	955	955	955	953	953	953	950	950	950	950	950	950	950	948	948	948	945	945	945	945	945	942	942	942	942	942	942	940	937	937	937	935	935	935	935	935	935	932	932	932	930	930	930	930	930	927	927	925	925	925	922	922	922	922	922	920	920	920	920	917	917	917	917	917	920	922	922	0	0	1113	1113	1116	1113	1113	1113	1113	1113	1113	1109	1109	1109	1109	1105	1105	1105	1105	1105	1105	1102	1102	1102	1102	1102	1098	1098	1098	1098	1095	1095	1095	1095	1091	1091	1091	1091	1091	1091	1091	1088	1091	1091	1091	1085	1085	1085	1085	1085	1085	1085	1081	1081	1081	1081	1081	1081	1081	1078	1078	1078	1078	1078	1071	1071	1071	1071	1068	1068	1068	1068	1068	1064	1064	1068	1064	1064	1064	1064	1064	1064	1064	1064	1058	1055	1055	1055	1055	1052	1052	1055	1055	1055	1055	1055	1055	1052	1052	1052	1052	1052	1052	1052	1048	1048	1048	1045	1045	1045	1045	1045	1045	1045	1045	1045	1042	1042	1042	1042	1042	1042	1039	1039	1039	1036	1036	1036	1036	1036	0	0	0	0	0	0	0	0	0	0	0	0	0	0	0	0	0
0	0	0	0	0	0	0	0	0	0	0	0	0	0	0	0	0	0	0	0	0	0	0	0	0	1649	1649	1649	1649	1649	1641	1634	1634	1634	1634	1634	1626	1626	1626	1626	1626	1626	1626	1618	1618	1618	1618	1618	1618	1611	1611	1618	1611	1611	1611	1611	1611	1611	1603	1603	1603	1596	1596	1596	1596	1596	1589	1589	1581	1581	1581	1581	1581	1581	1581	1574	1574	1567	1567	1567	1567	1567	1560	1560	1560	1560	1560	1560	1560	1553	1553	1553	1553	1553	1553	1546	1539	1539	1532	1532	1532	1532	1532	1532	1532	1532	1532	1532	1532	1525	1525	1525	1525	1519	1519	1519	1519	1512	1512	1512	1512	1506	1506	1499	1499	1499	1499	1499	1499	1499	1499	1492	1492	1492	1492	1492	1486	1486	1480	1480	1480	1480	1480	1473	1473	1473	1467	1467	1461	1455	1455	1455	1455	1449	1449	1449	1449	1449	1449	1449	1449	1449	1272	1272	1268	1268	1263	1263	1259	1259	1259	1254	1254	1254	1169	1165	1165	1165	1169	1165	1161	1161	1157	1157	1157	1157	1157	1157	1157	1157	1153	1153	1150	1150	1150	1146	1146	1146	1146	1146	1146	1142	1142	1142	1142	1142	1142	1138	1138	1138	1138	1134	1134	1134	1134	1131	1131	1127	1127	1127	1123	1123	1123	1123	1123	1123	1123	1123	1120	1120	1120	1120	1116	1116	1116	1116	1113	1109	1105	1105	1105	1105	1102	1102	1102	1102	1102	1102	1098	1095	1095	1095	1091	1091	1091	1095	1095	1091	1091	1091	1091	1091	1088	1088	1088	1085	1085	1081	1081	1081	1078	1078	1078	1078	1078	1078	1078	1074	1074	1074	1071	1071	1068	1068	1068	1068	1068	1068	1064	1064	1064	1064	1058	1058	1058	1058	1058	1055	1055	1055	1055	1055	1055	1052	1052	1052	1048	1048	1045	1045	1045	1045	1042	1042	1042	1042	1042	1042	1042	1042	1039	1039	1033	1033	1033	1030	1030	1030	1030	1026	1026	1026	1023	1023	1020	1020	1023	1023	1020	1020	1020	1020	1020	1020	1017	1017	1014	1014	1014	1014	1014	1011	1011	1011	1011	1011	1008	1008	1008	1006	1006	1003	1003	1003	1003	1003	1003	1003	1000	1000	1000	997	997	997	994	994	991	991	991	991	988	988	985	985	985	985	983	983	983	983	983	983	983	983	980	980	980	977	977	977	977	977	977	977	974	974	972	969	966	966	966	966	966	966	963	963	963	963	961	961	961	961	958	955	955	955	955	955	955	953	953	953	953	950	950	950	950	950	950	948	948	948	945	945	945	945	945	942	942	942	942	942	942	940	937	937	937	935	935	935	935	935	935	935	932	932	930	930	930	930	930	927	927	927	925	925	922	922	925	922	922	922	922	920	920	917	917	917	917	917	920	920	922	0	0	1116	1116	1116	1116	1116	1113	1113	1113	1113	1109	1109	1109	1109	1109	1105	1105	1105	1105	1105	1102	1102	1102	1102	1102	1102	1098	1098	1098	1095	1095	1095	1095	1095	1095	1095	1091	1091	1091	1091	1091	1091	1091	1091	1088	1088	1088	1088	1085	1085	1081	1081	1081	1081	1081	1081	1078	1078	1074	1074	1074	1074	1074	1071	1071	1071	1071	1071	1071	1068	1068	1068	1068	1068	1068	1068	1068	1068	1068	1068	1068	1064	1064	1058	1055	1055	1055	1055	1055	1055	1055	1055	1055	1055	1055	1055	1052	1052	1052	1052	1052	1052	1052	1048	1048	1045	1045	1045	1045	1045	1045	1045	1045	1045	1045	1042	1042	1042	1042	1042	1042	1039	1039	1039	1036	1036	1036	1036	1036	0	0	0	0	0	0	0	0	0	0	0	0	0	0	0	0	0
0	0	0	0	0	0	0	0	0	0	0	0	0	0	0	0	0	0	0	0	0	0	0	0	0	1649	1649	1649	1649	1649	1641	1641	1641	1641	1641	1641	1634	1634	1634	1634	1626	1626	1626	1618	1618	1618	1618	1618	1618	1618	1618	1618	1618	1618	1611	1611	1611	1611	1611	1611	1611	1596	1589	1589	1589	1596	1589	1589	1589	1589	1581	1581	1581	1581	1581	1574	1574	1567	1567	1567	1567	1567	1560	1560	1560	1560	1560	1560	1553	1553	1553	1553	1553	1553	1546	1546	1539	1539	1532	1532	1532	1532	1532	1532	1532	1532	1532	1532	1532	1532	1532	1532	1525	1525	1519	1519	1519	1519	1512	1512	1512	1506	1506	1499	1499	1499	1499	1499	1499	1499	1499	1492	1492	1492	1486	1486	1486	1480	1480	1480	1480	1480	1480	1473	1473	1473	1467	1467	1461	1455	1455	1455	1455	1455	1455	1455	1449	1449	1449	1449	1443	1443	1277	1277	1268	1268	1263	1263	1259	1259	1254	1254	1254	1254	1169	1165	1165	1169	1169	1165	1165	1161	1161	1157	1157	1157	1157	1157	1157	1157	1157	1153	1153	1150	1150	1150	1153	1150	1150	1146	1146	1146	1142	1142	1142	1142	1142	1138	1138	1138	1138	1138	1138	1134	1134	1131	1131	1127	1127	1127	1127	1123	1123	1123	1123	1123	1123	1123	1120	1120	1120	1120	1120	1120	1116	1116	1116	1109	1109	1105	1105	1105	1102	1102	1102	1105	1102	1102	1102	1098	1098	1095	1095	1095	1095	1095	1095	1091	1091	1091	1091	1088	1088	1088	1088	1085	1085	1081	1081	1081	1078	1078	1078	1078	1078	1078	1078	1078	1074	1074	1071	1071	1068	1068	1068	1068	1068	1068	1064	1064	1064	1064	1061	1061	1058	1058	1058	1055	1055	1055	1055	1055	1055	1052	1052	1052	1052	1052	1048	1048	1045	1045	1045	1045	1045	1042	1042	1042	1042	1042	1039	1039	1033	1033	1033	1030	1030	1030	1030	1030	1030	1026	1026	1023	1020	1020	1020	1020	1020	1020	1020	1020	1020	1020	1017	1017	1014	1014	1014	1014	1014	1011	1011	1011	1011	1011	1011	1008	1008	1006	1006	1006	1003	1003	1003	1003	1003	1003	1000	1000	1000	997	997	997	994	994	994	991	991	991	991	988	988	985	985	985	985	983	983	983	983	983	983	983	980	980	980	980	980	980	977	977	977	977	974	974	972	969	966	966	966	963	963	966	963	963	963	963	961	961	961	961	958	955	955	955	955	955	955	953	953	953	953	950	950	950	950	950	950	948	948	948	945	945	945	945	945	945	942	942	942	942	942	940	937	937	937	935	935	935	935	935	935	935	935	932	932	930	930	930	930	927	927	927	925	925	922	922	925	922	922	922	922	922	922	917	917	920	917	917	920	920	0	0	0	1116	1116	1116	1116	1116	1113	1113	1113	1113	1109	1109	1109	1109	1109	1105	1105	1109	1109	1109	1105	1105	1105	1102	1102	1102	1102	1098	1098	1098	1095	1095	1095	1095	1095	1095	1091	1091	1091	1091	1091	1091	1091	1091	1088	1088	1088	1088	1085	1085	1081	1081	1081	1081	1081	1081	1078	1078	1074	1074	1074	1074	1074	1074	1074	1071	1071	1071	1071	1068	1068	1068	1068	1068	1068	1071	1068	1068	1068	1068	1068	1064	1064	1058	1055	1055	1055	1055	1055	1055	1055	1055	1055	1055	1055	1055	1052	1052	1052	1052	1052	1052	1052	1052	1048	1048	1045	1045	1045	1045	1045	1045	1045	1045	1045	1042	1042	1042	1042	1042	1042	1039	1039	1039	1036	1036	1039	1039	1039	0	0	0	0	0	0	0	0	0	0	0	0	0	0	0	0	0
0	0	0	0	0	0	0	0	0	0	0	0	0	0	0	0	0	0	0	0	0	0	0	0	0	1649	1649	1649	1649	1649	1649	1641	1641	1641	1641	1641	1641	1641	1641	1641	1634	1626	1626	1626	1626	1626	1626	1618	1618	1618	1618	1618	1618	1618	1618	1618	1618	1611	1611	1611	1611	1603	1589	1589	1589	1589	1589	1589	1581	1581	1581	1581	1581	1581	1581	1581	1574	1574	1567	1567	1567	1567	1560	1560	1560	1560	1560	1560	1553	1553	1553	1553	1553	1546	1546	1546	1539	1539	1532	1532	1532	1532	1532	1532	1532	1532	1532	1532	1532	1525	1525	1525	1525	1519	1519	1519	1512	1512	1512	1506	1506	1506	1506	1506	1499	1499	1499	1499	1499	1499	1499	1499	1492	1492	1486	1486	1486	1480	1480	1480	1480	1480	1480	1480	1473	1473	1473	1473	1467	1455	1455	1455	1455	1449	1449	1449	1449	1449	1449	1449	1443	1443	1277	1277	1272	1268	1263	1263	1259	1259	1254	1254	1254	1254	1254	1165	1165	1165	1165	1165	1161	1161	1161	1157	1157	1157	1157	1157	1157	1157	1157	1153	1153	1153	1153	1153	1153	1150	1150	1150	1146	1146	1142	1142	1142	1142	1142	1138	1138	1138	1138	1138	1138	1134	1134	1134	1131	1127	1127	1127	1127	1123	1123	1123	1123	1123	1123	1123	1120	1120	1120	1120	1120	1120	1120	1116	1113	1109	1109	1105	1105	1105	1105	1102	1102	1105	1102	1102	1102	1098	1098	1095	1095	1095	1095	1095	1095	1091	1091	1091	1091	1091	1088	1088	1088	1085	1081	1081	1081	1081	1078	1078	1078	1078	1078	1078	1078	1078	1074	1074	1071	1071	1068	1068	1068	1068	1068	1068	1064	1064	1064	1064	1061	1061	1058	1058	1058	1058	1058	1058	1055	1055	1055	1055	1052	1052	1052	1052	1048	1048	1048	1048	1048	1045	1045	1045	1045	1042	1042	1042	1039	1039	1033	1033	1033	1033	1033	1033	1030	1030	1030	1026	1026	1026	1023	1023	1020	1020	1020	1020	1020	1020	1020	1020	1020	1017	1014	1014	1014	1014	1014	1011	1011	1011	1011	1011	1011	1008	1008	1008	1006	1006	1003	1003	1003	1003	1003	1003	1000	1000	1000	997	997	997	994	994	994	994	994	991	991	988	988	985	985	985	985	983	983	983	983	983	983	983	983	980	980	980	980	980	977	977	977	977	974	974	972	969	966	966	966	963	963	963	963	963	963	963	963	961	961	961	958	955	955	955	955	955	955	955	953	953	953	950	950	950	950	950	950	948	948	948	945	945	945	945	942	942	942	942	942	940	940	940	940	937	937	937	935	935	935	935	935	935	932	932	930	930	930	930	930	930	930	927	925	925	925	925	925	925	922	922	922	922	922	920	920	920	917	917	917	920	0	0	0	1116	1116	1116	1116	1116	1113	1113	1116	1113	1109	1109	1109	1109	1109	1109	1109	1109	1109	1109	1105	1105	1105	1105	1102	1102	1102	1098	1098	1098	1098	1098	1095	1095	1095	1095	1095	1095	1091	1091	1091	1091	1091	1091	1088	1088	1088	1088	1085	1085	1085	1085	1085	1085	1081	1081	1078	1078	1074	1074	1074	1074	1074	1074	1074	1074	1071	1071	1071	1071	1068	1068	1068	1068	1071	1071	1068	1068	1068	1068	1064	1064	1061	1058	1055	1055	1055	1055	1055	1055	1055	1055	1055	1055	1055	1055	1052	1052	1052	1052	1052	1052	1052	1052	1052	1048	1045	1045	1048	1048	1048	1045	1045	1045	1045	1042	1042	1042	1042	1042	1042	1039	1039	1039	1036	1036	1039	1039	1039	0	0	0	0	0	0	0	0	0	0	0	0	0	0	0	0	0
0	0	0	0	0	0	0	0	0	0	0	0	0	0	0	0	0	0	0	0	0	0	0	0	0	1649	1649	1649	1649	1649	1649	1641	1641	1649	1641	1641	1641	1641	1641	1641	1634	1634	1634	1626	1626	1626	1626	1618	1618	1618	1618	1618	1618	1618	1611	1611	1611	1611	1611	1611	1611	1603	1603	1589	1589	1589	1589	1589	1589	1581	1581	1581	1581	1581	1581	1581	1574	1574	1574	1560	1560	1567	1560	1560	1560	1560	1560	1560	1553	1553	1553	1553	1546	1546	1546	1546	1539	1539	1539	1532	1532	1532	1539	1532	1532	1539	1532	1532	1532	1525	1525	1525	1525	1519	1519	1519	1512	1512	1512	1506	1506	1506	1506	1506	1506	1499	1499	1499	1499	1499	1499	1499	1499	1492	1492	1486	1486	1480	1480	1480	1480	1480	1480	1480	1473	1473	1473	1473	1473	1467	1461	1461	1461	1449	1449	1449	1449	1449	1449	1449	1443	1443	1277	1277	1272	1268	1263	1263	1259	1259	1254	1254	1254	1254	1254	1165	1165	1165	1165	1165	1161	1161	1161	1161	1157	1157	1157	1157	1157	1157	1157	1153	1153	1153	1153	1153	1153	1153	1150	1150	1150	1146	1142	1142	1142	1142	1142	1138	1138	1138	1138	1138	1138	1138	1134	1134	1131	1131	1131	1127	1127	1127	1123	1123	1123	1123	1123	1123	1120	1120	1120	1120	1120	1116	1116	1116	1113	1109	1109	1109	1105	1105	1105	1102	1102	1102	1102	1102	1098	1098	1098	1095	1095	1095	1095	1095	1095	1091	1091	1091	1091	1091	1088	1088	1088	1088	1085	1081	1081	1081	1078	1078	1078	1078	1078	1078	1078	1078	1074	1074	1071	1071	1071	1068	1068	1068	1068	1068	1068	1068	1068	1068	1064	1064	1058	1058	1058	1058	1058	1058	1055	1055	1055	1055	1052	1052	1052	1052	1048	1048	1048	1048	1045	1045	1042	1042	1042	1042	1042	1039	1039	1039	1036	1033	1033	1033	1033	1033	1030	1030	1030	1026	1026	1026	1023	1023	1023	1020	1020	1023	1023	1023	1020	1020	1020	1014	1014	1014	1014	1014	1014	1011	1011	1011	1011	1011	1011	1011	1008	1008	1006	1006	1003	1003	1003	1003	1003	1003	1003	1000	1000	1000	1000	997	994	994	994	994	994	991	991	991	991	988	988	988	985	983	983	983	985	983	983	983	983	980	980	980	980	977	977	977	977	977	974	974	974	969	966	966	966	966	963	963	963	963	963	963	963	963	961	961	958	958	955	955	955	955	955	955	955	955	953	953	950	950	950	950	950	950	950	948	945	945	945	945	942	942	942	942	942	940	940	940	940	937	937	937	935	935	935	935	935	935	932	932	930	930	930	930	930	930	930	927	927	925	925	925	925	925	925	922	922	920	920	920	920	920	920	920	920	925	925	0	0	1116	1116	1116	1113	1113	1113	1113	1116	1113	1109	1109	1109	1109	1109	1109	1109	1109	1109	1109	1109	1109	1109	1109	1105	1102	1102	1098	1098	1098	1095	1095	1098	1095	1095	1095	1095	1095	1091	1091	1091	1091	1091	1091	1091	1088	1088	1088	1088	1085	1085	1085	1085	1085	1081	1078	1078	1078	1074	1074	1074	1074	1074	1074	1074	1074	1071	1071	1071	1071	1068	1068	1068	1068	1068	1068	1068	1068	1068	1068	1064	1064	1061	1058	1055	1055	1055	1055	1055	1055	1055	1055	1055	1055	1055	1055	1052	1052	1052	1052	1052	1052	1052	1052	1052	1048	1045	1045	1048	1048	1048	1045	1045	1045	1045	1042	1042	1042	1042	1042	1042	1042	1039	1039	1036	1036	1036	1036	1036	0	0	0	0	0	0	0	0	0	0	0	0	0	0	0	0	0
0	0	0	0	0	0	0	0	0	0	0	0	0	0	0	0	0	0	0	0	0	0	0	0	0	1649	1641	1641	1649	1649	1649	1641	1641	1649	1641	1641	1641	1641	1641	1641	1634	1626	1626	1626	1626	1626	1626	1618	1618	1626	1618	1618	1618	1618	1611	1611	1611	1603	1603	1611	1611	1603	1603	1589	1589	1589	1589	1589	1589	1589	1581	1581	1581	1581	1581	1581	1574	1574	1574	1560	1560	1560	1560	1560	1560	1560	1560	1560	1553	1553	1553	1553	1546	1546	1546	1546	1539	1539	1539	1532	1532	1532	1539	1532	1532	1532	1532	1532	1532	1525	1525	1525	1525	1519	1519	1519	1512	1512	1512	1506	1506	1506	1506	1506	1506	1499	1499	1499	1499	1499	1499	1492	1492	1492	1492	1492	1486	1486	1486	1480	1480	1480	1480	1480	1480	1473	1473	1473	1473	1467	1461	1461	1455	1455	1455	1449	1449	1449	1449	1449	1443	1443	1277	1277	1272	1272	1268	1263	1259	1259	1254	1254	1254	1254	1254	1165	1165	1165	1165	1165	1165	1165	1161	1161	1161	1157	1157	1157	1157	1157	1157	1153	1153	1153	1153	1153	1153	1153	1150	1150	1150	1146	1142	1142	1142	1142	1142	1138	1138	1138	1138	1138	1138	1138	1134	1134	1131	1131	1131	1127	1127	1127	1127	1123	1123	1123	1123	1123	1123	1120	1120	1120	1120	1116	1116	1116	1113	1109	1109	1109	1105	1105	1105	1102	1102	1102	1102	1102	1098	1098	1098	1095	1095	1095	1095	1095	1095	1091	1091	1091	1091	1091	1088	1088	1088	1088	1088	1085	1085	1081	1081	1078	1078	1078	1078	1078	1078	1078	1074	1074	1074	1071	1071	1068	1068	1068	1068	1068	1068	1068	1068	1068	1064	1061	1061	1061	1061	1061	1061	1058	1055	1055	1055	1055	1052	1052	1052	1052	1048	1048	1048	1045	1045	1045	1045	1042	1042	1042	1042	1039	1039	1039	1036	1036	1033	1033	1033	1033	1033	1030	1030	1026	1026	1026	1023	1023	1023	1023	1023	1023	1023	1023	1020	1020	1020	1014	1014	1014	1014	1014	1014	1011	1011	1011	1011	1011	1011	1011	1008	1008	1006	1006	1006	1003	1003	1003	1003	1003	1003	1000	1000	1000	1000	997	997	997	994	994	994	994	991	991	991	988	988	988	985	983	983	983	983	983	983	983	980	980	980	980	980	977	977	977	977	977	977	974	974	969	969	966	966	966	963	963	963	963	963	963	963	963	963	961	961	958	955	955	955	955	955	955	955	955	953	953	950	950	950	950	950	950	950	948	948	945	945	945	945	945	942	942	942	942	942	940	940	940	937	937	937	935	935	935	935	935	932	932	932	930	930	930	930	930	930	927	927	927	925	925	925	925	925	925	922	920	920	920	920	920	922	922	922	925	925	0	0	1116	1116	1116	1113	1113	1113	1113	1116	1113	1113	1113	1109	1109	1109	1109	1109	1109	1109	1109	1109	1109	1109	1109	1105	1102	1102	1098	1098	1095	1095	1095	1095	1095	1095	1095	1095	1095	1095	1091	1091	1091	1091	1091	1091	1088	1088	1088	1088	1085	1085	1085	1085	1081	1081	1078	1078	1078	1078	1078	1074	1074	1078	1078	1078	1074	1074	1071	1071	1071	1068	1068	1068	1068	1068	1068	1068	1068	1068	1068	1064	1064	1061	1058	1058	1058	1055	1055	1055	1055	1055	1055	1055	1055	1055	1055	1055	1052	1052	1055	1052	1052	1052	1052	1052	1048	1045	1045	1048	1045	1045	1042	1042	1042	1042	1042	1042	1042	1042	1042	1042	1042	1042	1042	1036	1036	1036	1036	1036	0	0	0	0	0	0	0	0	0	0	0	0	0	0	0	0	0
0	0	0	0	0	0	0	0	0	0	0	0	0	0	0	0	0	0	0	0	0	0	0	0	0	1641	1641	1641	1649	1649	1649	1641	1641	1649	1641	1641	1641	1641	1641	1641	1634	1626	1626	1626	1626	1618	1618	1618	1618	1626	1618	1618	1618	1618	1611	1611	1611	1603	1603	1611	1611	1603	1603	1603	1589	1589	1589	1589	1589	1581	1581	1581	1581	1581	1581	1581	1581	1581	1581	1567	1567	1560	1560	1560	1560	1560	1560	1553	1553	1553	1553	1546	1546	1539	1539	1546	1539	1539	1539	1532	1532	1532	1539	1532	1532	1532	1532	1532	1532	1525	1525	1525	1525	1519	1519	1519	1512	1512	1512	1506	1506	1506	1506	1506	1506	1499	1499	1499	1499	1499	1499	1492	1492	1492	1492	1492	1486	1486	1486	1486	1480	1480	1480	1480	1480	1473	1473	1473	1473	1467	1461	1461	1455	1455	1455	1449	1449	1449	1449	1449	1449	1449	1277	1277	1272	1272	1272	1268	1268	1259	1259	1254	1254	1254	1254	1165	1165	1165	1165	1165	1165	1165	1161	1161	1161	1157	1157	1157	1157	1157	1157	1153	1153	1153	1153	1153	1153	1153	1153	1150	1150	1150	1146	1142	1142	1142	1142	1138	1138	1138	1138	1138	1138	1138	1134	1134	1134	1131	1131	1127	1127	1127	1127	1123	1123	1123	1123	1123	1123	1120	1120	1120	1120	1120	1120	1116	1113	1109	1109	1109	1109	1105	1105	1105	1105	1105	1102	1102	1102	1098	1098	1095	1095	1095	1095	1095	1095	1095	1095	1091	1091	1091	1088	1088	1088	1088	1088	1088	1088	1081	1081	1078	1078	1078	1078	1078	1078	1078	1078	1078	1074	1074	1071	1071	1068	1068	1068	1068	1068	1068	1064	1064	1061	1061	1061	1061	1061	1058	1058	1058	1055	1055	1055	1055	1052	1052	1052	1052	1052	1048	1048	1045	1045	1045	1045	1042	1042	1042	1042	1042	1039	1039	1036	1036	1036	1033	1033	1033	1033	1030	1030	1026	1026	1026	1023	1023	1023	1023	1023	1023	1023	1023	1020	1020	1020	1020	1014	1014	1014	1014	1014	1014	1011	1011	1011	1011	1011	1011	1008	1008	1006	1006	1006	1003	1003	1003	1003	1003	1003	1000	1000	1000	1000	1000	997	997	997	997	994	994	991	991	991	988	988	988	985	983	983	983	983	983	983	983	980	980	980	980	980	977	977	977	977	977	977	974	974	972	969	969	966	966	966	963	963	963	963	963	963	963	963	961	961	958	958	955	955	955	955	955	955	955	953	953	953	953	953	950	950	950	950	950	948	945	945	945	945	945	945	942	942	942	942	942	940	940	940	937	937	937	935	935	935	935	932	932	932	932	930	930	930	930	930	927	927	927	925	925	925	925	922	922	922	920	920	920	920	920	922	922	922	925	927	927	0	0	1116	1120	1116	1116	1116	1116	1116	1113	1113	1113	1109	1109	1109	1109	1109	1109	1109	1109	1109	1109	1109	1105	1105	1102	1098	1098	1098	1095	1095	1095	1095	1095	1095	1091	1091	1095	1095	1095	1091	1091	1091	1091	1091	1088	1088	1088	1088	1085	1085	1085	1085	1081	1081	1081	1081	1078	1078	1078	1074	1074	1078	1078	1078	1078	1074	1074	1074	1071	1071	1068	1068	1068	1068	1068	1068	1068	1068	1068	1064	1064	1061	1058	1058	1058	1058	1055	1055	1055	1055	1055	1055	1055	1055	1055	1055	1055	1055	1055	1052	1052	1052	1052	1052	1048	1045	1045	1048	1045	1045	1042	1042	1042	1042	1045	1042	1042	1042	1042	1045	1042	1042	1042	1036	1036	1036	1036	1036	0	0	0	0	0	0	0	0	0	0	0	0	0	0	0	0	0
0	0	0	0	0	0	0	0	0	0	0	0	0	0	0	0	0	0	0	0	0	0	0	0	0	1641	1641	1641	1641	1641	1641	1641	1641	1649	1641	1641	1641	1641	1641	1641	1634	1634	1626	1626	1626	1618	1618	1618	1618	1626	1618	1618	1618	1618	1618	1611	1611	1611	1611	1611	1611	1603	1603	1603	1589	1589	1589	1589	1589	1581	1581	1581	1581	1581	1581	1581	1581	1567	1567	1567	1567	1560	1560	1560	1560	1560	1567	1553	1553	1553	1553	1546	1546	1539	1539	1546	1539	1539	1546	1539	1532	1532	1539	1532	1532	1532	1532	1532	1532	1525	1525	1525	1525	1519	1519	1519	1519	1519	1512	1512	1512	1506	1506	1506	1506	1506	1499	1499	1499	1499	1499	1492	1492	1492	1492	1492	1486	1486	1486	1486	1480	1480	1480	1480	1480	1473	1473	1473	1473	1467	1461	1461	1461	1455	1455	1455	1449	1449	1449	1449	1449	1449	1277	1277	1272	1272	1272	1268	1263	1263	1259	1259	1259	1254	1254	1169	1169	1169	1169	1165	1165	1165	1165	1161	1161	1157	1157	1157	1157	1157	1157	1153	1153	1153	1153	1153	1153	1153	1153	1150	1150	1150	1146	1146	1142	1142	1142	1138	1138	1138	1138	1138	1138	1138	1134	1134	1134	1134	1131	1131	1127	1127	1127	1127	1127	1123	1123	1123	1123	1120	1120	1123	1120	1120	1120	1116	1113	1109	1109	1109	1109	1105	1105	1105	1105	1105	1102	1102	1102	1098	1098	1095	1095	1095	1095	1095	1095	1095	1091	1091	1091	1091	1091	1091	1091	1088	1088	1088	1088	1085	1081	1081	1078	1078	1078	1078	1078	1078	1078	1078	1074	1074	1071	1071	1068	1068	1068	1068	1068	1068	1064	1064	1061	1061	1061	1061	1061	1058	1058	1058	1055	1055	1055	1055	1052	1052	1052	1052	1052	1052	1048	1048	1045	1045	1045	1045	1042	1042	1042	1042	1039	1039	1036	1036	1036	1036	1036	1033	1033	1030	1030	1026	1026	1026	1026	1026	1026	1026	1026	1023	1023	1023	1020	1020	1020	1020	1017	1017	1017	1014	1014	1014	1014	1011	1011	1011	1011	1011	1008	1008	1006	1006	1003	1003	1003	1003	1003	1003	1003	1003	1000	1000	1000	1000	1000	997	997	997	997	997	994	991	991	988	988	988	985	983	983	983	983	983	983	983	980	980	980	980	980	977	977	977	977	977	977	974	974	972	969	969	969	966	966	966	966	963	963	963	963	961	961	961	961	958	958	958	958	958	955	955	955	955	953	953	953	953	950	950	950	950	950	950	948	945	945	945	945	945	945	945	945	942	942	942	942	940	940	937	937	937	937	935	935	935	932	932	932	932	930	930	930	930	930	927	927	927	925	925	925	925	922	922	922	920	920	920	920	920	922	922	922	925	927	927	0	0	0	1120	1116	1116	1116	1116	1116	1113	1113	1113	1109	1109	1109	1109	1109	1109	1109	1109	1109	1109	1109	1105	1105	1102	1098	1098	1098	1095	1095	1095	1095	1095	1095	1091	1091	1091	1095	1095	1091	1091	1091	1091	1091	1088	1088	1088	1085	1085	1081	1081	1081	1081	1081	1081	1081	1081	1081	1078	1078	1081	1078	1078	1078	1078	1074	1074	1074	1071	1071	1068	1068	1068	1068	1068	1068	1068	1068	1068	1064	1064	1061	1058	1058	1058	1058	1055	1055	1055	1055	1055	1055	1055	1055	1055	1055	1055	1055	1055	1052	1052	1052	1052	1052	1048	1048	1048	1048	1048	1045	1045	1045	1045	1045	1045	1045	1045	1045	1045	1042	1042	1042	1042	1039	1039	1039	1039	1036	0	0	0	0	0	0	0	0	0	0	0	0	0	0	0	0	0
0	0	0	0	0	0	0	0	0	0	0	0	0	0	0	0	0	0	0	0	0	0	0	0	0	1641	1641	1641	1641	1641	1641	1641	1641	1641	1641	1641	1641	1641	1641	1641	1634	1634	1634	1634	1626	1626	1626	1626	1626	1626	1626	1618	1618	1618	1618	1611	1611	1611	1611	1611	1611	1603	1603	1603	1589	1589	1589	1589	1589	1589	1581	1581	1581	1581	1581	1581	1581	1567	1567	1567	1567	1567	1567	1567	1567	1567	1560	1560	1560	1560	1560	1546	1546	1546	1546	1546	1539	1539	1546	1539	1532	1532	1539	1532	1532	1532	1532	1532	1532	1525	1525	1525	1525	1519	1519	1519	1519	1519	1512	1512	1506	1506	1512	1506	1506	1506	1506	1499	1499	1499	1499	1499	1492	1492	1492	1492	1486	1486	1486	1486	1486	1480	1480	1480	1480	1473	1473	1473	1473	1467	1467	1467	1461	1461	1455	1455	1449	1449	1449	1449	1449	1449	1277	1272	1272	1272	1272	1272	1268	1263	1259	1259	1259	1259	1169	1169	1169	1169	1169	1169	1165	1165	1165	1161	1161	1161	1157	1157	1157	1157	1157	1153	1153	1153	1153	1153	1153	1153	1153	1150	1150	1150	1150	1146	1142	1142	1142	1138	1138	1138	1138	1138	1138	1138	1138	1134	1134	1134	1131	1131	1131	1127	1127	1127	1127	1127	1123	1123	1123	1123	1123	1123	1120	1120	1120	1116	1113	1109	1109	1109	1109	1105	1105	1105	1105	1105	1102	1102	1102	1098	1098	1095	1095	1095	1095	1095	1095	1095	1091	1091	1091	1091	1091	1091	1091	1091	1088	1088	1088	1085	1081	1081	1078	1078	1081	1078	1078	1078	1078	1078	1074	1074	1074	1071	1071	1068	1068	1068	1068	1068	1064	1064	1064	1064	1064	1061	1061	1058	1058	1058	1055	1055	1055	1055	1052	1052	1052	1052	1052	1052	1052	1052	1045	1045	1045	1042	1042	1042	1042	1042	1039	1039	1036	1036	1036	1033	1033	1033	1033	1030	1030	1026	1026	1026	1026	1026	1026	1026	1026	1023	1023	1023	1023	1020	1020	1020	1017	1017	1017	1014	1014	1014	1014	1011	1011	1011	1011	1011	1008	1008	1006	1006	1003	1003	1003	1003	1003	1003	1003	1003	1003	1000	1000	1000	1000	1000	997	997	997	997	994	994	991	988	988	988	985	985	985	985	983	983	983	983	980	980	980	980	980	980	977	977	977	977	977	974	974	972	969	969	969	966	966	966	966	963	963	963	963	961	961	961	961	961	958	958	958	958	958	955	955	955	953	953	953	953	950	950	950	950	950	950	948	948	945	945	945	945	945	945	945	942	942	942	940	940	940	940	937	937	937	935	935	935	935	935	935	932	932	930	930	930	930	930	927	927	927	927	925	925	922	922	922	922	922	922	920	920	922	922	922	925	927	927	0	0	0	1116	1116	1116	1116	1116	1116	1113	1113	1113	1113	1113	1109	1109	1113	1109	1109	1109	1109	1109	1105	1105	1102	1102	1098	1098	1098	1095	1095	1098	1098	1095	1095	1095	1091	1091	1095	1095	1091	1091	1091	1091	1091	1088	1088	1088	1085	1085	1081	1081	1081	1081	1081	1081	1081	1081	1081	1078	1078	1081	1081	1078	1078	1078	1078	1078	1074	1074	1071	1071	1071	1071	1071	1068	1068	1068	1068	1068	1064	1064	1064	1061	1061	1058	1058	1055	1055	1055	1055	1055	1055	1055	1055	1055	1055	1055	1055	1055	1052	1052	1052	1052	1052	1048	1048	1048	1048	1048	1045	1045	1045	1045	1045	1045	1045	1045	1045	1045	1042	1042	1042	1042	1042	1039	1039	1039	0	0	0	0	0	0	0	0	0	0	0	0	0	0	0	0	0	0
0	0	0	0	0	0	0	0	0	0	0	0	0	0	0	0	0	0	0	0	0	0	0	0	0	1649	1641	1641	1649	1641	1641	1634	1634	1641	1634	1634	1634	1634	1634	1641	1634	1634	1634	1634	1626	1626	1626	1618	1618	1626	1618	1618	1618	1618	1618	1618	1611	1611	1611	1611	1611	1603	1603	1603	1603	1589	1589	1589	1589	1581	1581	1581	1581	1581	1581	1581	1581	1581	1574	1567	1567	1567	1567	1567	1567	1567	1567	1567	1567	1560	1560	1560	1553	1553	1546	1546	1539	1539	1539	1539	1539	1539	1539	1539	1539	1532	1532	1532	1532	1525	1525	1525	1525	1519	1519	1519	1519	1512	1512	1512	1506	1506	1506	1506	1506	1506	1506	1499	1499	1499	1499	1499	1499	1492	1492	1492	1492	1492	1492	1492	1486	1486	1480	1480	1480	1473	1473	1473	1473	1467	1467	1467	1461	1461	1455	1455	1449	1449	1449	1449	1449	1449	1272	1272	1272	1272	1272	1272	1268	1263	1263	1259	1259	1259	1169	1169	1169	1169	1169	1169	1165	1165	1165	1161	1161	1161	1161	1157	1157	1157	1157	1157	1157	1157	1153	1153	1153	1153	1153	1150	1150	1150	1150	1146	1142	1142	1142	1138	1138	1138	1138	1138	1138	1138	1138	1134	1134	1134	1131	1131	1131	1127	1127	1127	1127	1127	1123	1123	1123	1123	1123	1123	1123	1120	1120	1116	1113	1109	1109	1109	1109	1109	1109	1105	1105	1105	1102	1102	1102	1098	1098	1098	1098	1095	1095	1095	1095	1095	1091	1091	1091	1091	1091	1091	1091	1091	1088	1088	1088	1085	1081	1081	1081	1081	1081	1078	1078	1078	1078	1078	1074	1074	1074	1074	1071	1071	1071	1071	1068	1068	1064	1064	1061	1061	1064	1064	1061	1061	1061	1061	1055	1055	1055	1055	1055	1052	1052	1052	1052	1052	1052	1052	1052	1052	1045	1042	1042	1042	1042	1042	1042	1042	1036	1036	1036	1033	1033	1033	1033	1030	1030	1026	1026	1026	1026	1023	1023	1023	1023	1023	1023	1023	1023	1023	1023	1020	1020	1020	1017	1014	1014	1014	1014	1014	1011	1011	1011	1011	1011	1008	1008	1006	1003	1003	1003	1003	1003	1003	1003	1003	1003	1000	1000	1000	1000	1000	1000	1000	997	997	994	994	991	988	988	988	985	985	985	985	983	983	983	983	980	980	980	980	980	980	980	977	977	977	977	977	977	972	972	972	972	966	966	966	966	966	963	963	963	963	963	961	961	961	961	958	958	958	958	958	955	955	953	953	953	953	950	950	950	950	950	950	948	948	945	945	945	945	945	942	942	942	942	942	940	940	940	940	937	937	937	935	935	935	935	935	935	935	932	932	932	930	930	930	927	927	927	927	925	925	922	922	922	922	922	922	922	922	922	922	922	925	925	925	0	0	1113	1113	1116	1116	1116	1116	1116	1113	1113	1113	1113	1113	1109	1109	1113	1113	1109	1109	1109	1109	1105	1105	1102	1098	1098	1098	1098	1095	1095	1098	1098	1095	1095	1095	1095	1095	1095	1095	1095	1095	1091	1091	1091	1091	1088	1088	1088	1085	1085	1085	1085	1081	1081	1081	1081	1081	1081	1081	1081	1081	1081	1078	1078	1078	1078	1078	1074	1074	1071	1071	1071	1071	1071	1068	1068	1068	1068	1068	1064	1064	1064	1061	1061	1058	1058	1058	1058	1055	1055	1055	1055	1055	1055	1055	1055	1055	1055	1052	1052	1052	1052	1052	1052	1048	1048	1048	1048	1048	1045	1045	1045	1045	1045	1045	1045	1045	1045	1045	1045	1042	1042	1042	1042	1039	1039	1039	0	0	0	0	0	0	0	0	0	0	0	0	0	0	0	0	0	0
0	0	0	0	0	0	0	0	0	0	0	0	0	0	0	0	0	0	0	0	0	0	0	0	0	1649	1649	1649	1649	1649	1641	1634	1634	1641	1634	1634	1634	1634	1634	1641	1634	1634	1634	1634	1626	1626	1626	1618	1618	1626	1618	1618	1618	1618	1618	1618	1611	1611	1611	1611	1611	1603	1603	1603	1603	1589	1589	1589	1589	1581	1581	1581	1581	1581	1581	1581	1581	1581	1581	1574	1574	1574	1574	1567	1567	1567	1567	1567	1567	1560	1560	1560	1553	1553	1546	1546	1539	1539	1539	1539	1539	1539	1539	1532	1532	1532	1532	1532	1532	1525	1525	1525	1525	1519	1519	1519	1519	1512	1512	1512	1506	1506	1506	1506	1506	1506	1506	1499	1499	1499	1499	1499	1499	1492	1492	1492	1492	1492	1492	1492	1486	1486	1486	1480	1480	1480	1473	1473	1473	1467	1467	1467	1467	1461	1461	1455	1455	1455	1455	1455	1455	1455	1272	1272	1272	1272	1272	1272	1268	1268	1263	1259	1259	1259	1169	1169	1169	1169	1169	1169	1169	1165	1165	1161	1161	1161	1161	1157	1157	1157	1157	1157	1157	1153	1153	1153	1153	1153	1153	1153	1150	1150	1146	1146	1146	1142	1142	1138	1138	1138	1138	1138	1138	1138	1138	1134	1134	1134	1134	1131	1131	1127	1127	1127	1127	1127	1127	1123	1123	1123	1123	1123	1123	1120	1120	1116	1113	1109	1109	1109	1109	1109	1105	1105	1105	1105	1105	1102	1102	1102	1102	1098	1098	1098	1095	1095	1095	1095	1095	1091	1091	1091	1091	1091	1091	1091	1088	1088	1088	1085	1081	1081	1081	1081	1081	1081	1078	1078	1078	1078	1078	1074	1074	1074	1074	1071	1071	1071	1068	1068	1064	1064	1061	1061	1064	1064	1061	1061	1061	1061	1058	1055	1055	1055	1055	1052	1052	1052	1052	1052	1052	1052	1052	1052	1045	1045	1042	1042	1042	1042	1042	1042	1036	1036	1036	1036	1033	1033	1033	1030	1030	1026	1026	1026	1026	1023	1023	1023	1023	1023	1023	1023	1023	1023	1023	1020	1020	1020	1017	1017	1014	1014	1014	1014	1011	1011	1011	1011	1011	1008	1008	1006	1006	1003	1003	1003	1003	1003	1003	1003	1003	1003	1000	1000	1000	1000	1000	1000	997	997	994	994	991	988	988	988	988	985	985	985	983	983	983	983	980	980	980	980	980	980	980	980	980	977	977	977	977	974	972	972	972	966	966	966	966	966	963	963	963	963	961	961	961	961	961	961	961	958	958	958	958	955	955	953	953	953	953	953	950	950	950	950	950	948	948	945	945	945	945	942	942	942	942	942	942	940	940	940	940	937	937	937	937	937	935	935	935	935	932	932	932	930	930	930	927	927	927	927	925	925	925	925	925	922	922	922	922	922	922	925	925	925	925	932	932	0	1113	1113	1120	1120	1120	1120	1116	1113	1113	1113	1113	1113	1113	1113	1113	1113	1109	1109	1109	1109	1105	1105	1102	1098	1098	1098	1098	1098	1098	1098	1098	1095	1095	1095	1095	1095	1095	1095	1095	1095	1091	1091	1091	1091	1088	1088	1088	1085	1085	1085	1085	1085	1081	1081	1081	1081	1081	1081	1081	1081	1081	1078	1078	1078	1078	1078	1074	1074	1071	1071	1071	1071	1071	1068	1068	1068	1068	1068	1068	1068	1064	1061	1061	1058	1058	1058	1058	1058	1058	1058	1058	1058	1058	1058	1055	1055	1055	1052	1052	1052	1052	1052	1052	1048	1048	1048	1048	1048	1045	1045	1045	1045	1045	1045	1045	1045	1048	1048	1045	1045	1042	1042	1042	1039	1039	1039	0	0	0	0	0	0	0	0	0	0	0	0	0	0	0	0	0	0
0	0	0	0	0	0	0	0	0	0	0	0	0	0	0	0	0	0	0	0	0	0	0	0	0	1649	1649	1649	1649	1649	1649	1641	1641	1641	1641	1641	1634	1634	1634	1634	1634	1626	1626	1626	1626	1626	1626	1626	1626	1626	1626	1618	1618	1618	1618	1618	1618	1611	1611	1611	1611	1603	1603	1603	1603	1603	1589	1589	1589	1589	1581	1581	1581	1581	1581	1581	1581	1581	1581	1574	1574	1574	1574	1567	1567	1567	1567	1567	1560	1560	1560	1560	1553	1553	1553	1546	1546	1546	1539	1539	1539	1539	1539	1539	1539	1532	1532	1532	1532	1525	1525	1525	1525	1525	1525	1519	1519	1519	1512	1512	1506	1506	1506	1506	1506	1506	1506	1499	1499	1499	1499	1499	1499	1492	1492	1492	1492	1492	1492	1492	1486	1486	1486	1480	1480	1480	1473	1473	1473	1467	1467	1467	1467	1461	1461	1455	1455	1455	1455	1455	1455	1455	1272	1272	1272	1272	1272	1272	1272	1268	1263	1263	1259	1259	1169	1169	1169	1169	1169	1169	1169	1165	1165	1165	1161	1161	1161	1161	1157	1157	1157	1157	1157	1157	1157	1153	1153	1153	1153	1153	1150	1150	1146	1146	1146	1146	1142	1142	1142	1142	1138	1138	1138	1138	1138	1138	1134	1134	1134	1131	1131	1127	1127	1127	1127	1127	1127	1127	1123	1123	1123	1123	1123	1123	1120	1116	1116	1113	1113	1109	1109	1109	1105	1105	1105	1105	1105	1102	1102	1102	1102	1098	1098	1098	1098	1095	1095	1095	1095	1091	1091	1091	1091	1091	1091	1091	1091	1088	1088	1088	1085	1081	1081	1081	1081	1081	1078	1078	1078	1078	1078	1074	1074	1074	1074	1071	1071	1068	1068	1068	1064	1064	1064	1061	1064	1064	1064	1061	1061	1061	1058	1058	1055	1055	1055	1055	1055	1055	1052	1052	1052	1052	1052	1052	1048	1048	1042	1042	1042	1042	1042	1042	1036	1036	1036	1036	1036	1033	1033	1030	1030	1026	1026	1026	1026	1026	1023	1023	1023	1023	1023	1023	1023	1023	1023	1020	1020	1020	1020	1017	1014	1014	1014	1014	1014	1011	1011	1011	1011	1011	1008	1006	1006	1003	1003	1003	1003	1003	1003	1003	1003	1003	1000	1000	1000	1000	1000	1000	997	997	994	994	991	988	988	988	988	985	985	985	985	983	983	983	980	980	980	980	980	980	980	980	980	977	977	977	977	974	972	972	972	969	969	966	966	966	963	963	963	963	961	961	961	961	961	961	961	958	958	958	958	955	955	955	953	953	953	953	950	950	950	950	950	948	948	945	945	945	945	942	942	945	942	942	942	942	942	940	940	937	937	937	937	937	935	935	937	935	932	932	932	932	930	930	927	927	927	927	925	925	925	925	925	925	922	922	922	922	922	925	925	925	927	932	940	940	1116	1116	1120	1120	1120	1120	1116	1113	1113	1113	1113	1113	1113	1113	1113	1113	1109	1109	1109	1109	1105	1102	1102	1098	1098	1102	1102	1098	1098	1098	1098	1098	1098	1095	1095	1098	1098	1098	1095	1095	1091	1091	1091	1091	1088	1088	1088	1085	1085	1085	1085	1085	1081	1081	1081	1081	1081	1081	1081	1081	1081	1078	1078	1078	1078	1078	1074	1074	1071	1071	1071	1071	1071	1071	1068	1068	1068	1068	1068	1068	1064	1064	1064	1061	1058	1058	1058	1058	1058	1058	1058	1058	1058	1058	1055	1055	1055	1052	1052	1052	1052	1052	1052	1048	1048	1048	1048	1048	1045	1045	1045	1045	1048	1048	1048	1048	1048	1048	1045	1045	1042	1042	1042	1039	1039	1039	0	0	0	0	0	0	0	0	0	0	0	0	0	0	0	0	0	0
0	0	0	0	0	0	0	0	0	0	0	0	0	0	0	0	0	0	0	0	0	0	0	0	0	1649	1649	1649	1649	1649	1641	1641	1641	1634	1634	1634	1634	1634	1634	1634	1634	1626	1626	1626	1626	1626	1626	1626	1626	1626	1626	1618	1618	1618	1618	1618	1618	1618	1611	1611	1611	1603	1603	1603	1603	1603	1603	1603	1603	1589	1581	1581	1581	1581	1581	1581	1581	1581	1581	1581	1581	1574	1574	1574	1567	1567	1567	1567	1560	1560	1560	1560	1553	1553	1553	1546	1546	1546	1546	1539	1539	1539	1539	1539	1539	1539	1532	1532	1532	1532	1532	1525	1525	1525	1525	1525	1525	1519	1512	1512	1519	1512	1506	1506	1506	1506	1506	1506	1506	1499	1499	1499	1499	1499	1492	1492	1492	1492	1492	1492	1486	1486	1486	1480	1480	1480	1473	1473	1473	1467	1467	1467	1467	1461	1461	1461	1455	1455	1455	1455	1455	1455	1272	1272	1272	1272	1272	1272	1268	1268	1263	1263	1263	1263	1169	1169	1169	1169	1169	1169	1169	1169	1165	1165	1161	1161	1161	1161	1157	1157	1157	1157	1157	1157	1157	1153	1153	1153	1153	1153	1153	1150	1150	1150	1146	1146	1142	1142	1142	1142	1138	1138	1138	1138	1138	1138	1134	1134	1134	1134	1134	1131	1131	1131	1127	1127	1127	1127	1123	1123	1123	1123	1123	1123	1123	1120	1116	1116	1113	1109	1109	1109	1109	1105	1105	1105	1105	1102	1102	1102	1102	1098	1098	1098	1098	1095	1095	1095	1095	1095	1095	1091	1091	1091	1091	1091	1088	1088	1088	1088	1085	1081	1081	1081	1081	1078	1078	1078	1078	1078	1078	1074	1074	1074	1074	1071	1071	1068	1068	1068	1068	1064	1064	1064	1064	1064	1064	1061	1061	1061	1061	1058	1055	1055	1055	1055	1055	1055	1055	1055	1052	1052	1052	1052	1048	1048	1045	1045	1042	1042	1042	1042	1039	1039	1036	1036	1036	1036	1036	1030	1030	1030	1030	1030	1030	1030	1023	1023	1023	1023	1023	1023	1023	1023	1020	1020	1020	1020	1020	1017	1014	1014	1014	1014	1014	1014	1011	1011	1011	1011	1008	1006	1006	1003	1003	1003	1003	1003	1003	1003	1003	1000	1000	1000	1000	1000	1000	1000	997	997	994	994	991	991	988	988	988	988	985	985	985	983	983	983	980	980	980	980	980	980	980	980	980	977	977	977	977	974	972	972	972	972	969	969	966	966	963	963	963	963	961	961	961	961	961	961	961	958	958	958	958	955	955	955	955	953	953	953	950	950	950	950	950	948	948	945	945	945	945	945	945	945	942	942	942	942	942	940	937	937	937	937	937	937	935	935	937	935	932	932	932	932	930	930	930	927	927	927	927	925	925	925	925	925	922	922	922	922	922	925	925	925	927	937	937	940	1116	1116	1120	1120	1120	1120	1116	1116	1113	1113	1113	1113	1113	1113	1113	1113	1109	1109	1109	1109	1105	1102	1102	1098	1098	1102	1102	1102	1102	1102	1102	1102	1098	1095	1095	1098	1098	1098	1095	1095	1095	1091	1091	1091	1088	1088	1088	1088	1085	1085	1085	1085	1085	1081	1081	1085	1085	1081	1081	1081	1081	1078	1078	1078	1078	1078	1078	1078	1074	1074	1074	1074	1071	1071	1071	1071	1068	1068	1068	1068	1064	1064	1064	1061	1061	1061	1061	1061	1058	1058	1058	1058	1058	1055	1055	1055	1055	1055	1052	1052	1052	1052	1052	1048	1048	1048	1048	1048	1048	1045	1045	1045	1048	1048	1048	1045	1045	1048	1045	1045	1042	1042	1039	1039	1039	1039	0	0	0	0	0	0	0	0	0	0	0	0	0	0	0	0	0	0
0	0	0	0	0	0	0	0	0	0	0	0	0	0	0	0	0	0	0	0	0	0	0	0	0	1657	1649	1649	1649	1649	1641	1641	1641	1634	1634	1634	1641	1634	1634	1634	1634	1634	1634	1626	1626	1626	1626	1626	1626	1626	1626	1626	1626	1626	1626	1618	1618	1618	1611	1611	1611	1603	1603	1603	1603	1603	1596	1596	1589	1589	1581	1581	1581	1581	1581	1581	1581	1581	1581	1581	1581	1574	1574	1574	1567	1567	1567	1567	1560	1560	1553	1553	1553	1553	1553	1546	1546	1546	1546	1539	1532	1532	1539	1539	1539	1539	1532	1532	1532	1532	1532	1532	1525	1525	1525	1525	1525	1525	1525	1512	1506	1506	1506	1506	1506	1506	1506	1506	1506	1499	1499	1499	1499	1499	1499	1492	1492	1492	1492	1492	1486	1486	1486	1486	1480	1480	1480	1473	1473	1467	1467	1467	1467	1461	1461	1461	1455	1455	1455	1455	1455	1455	1455	1272	1272	1272	1272	1272	1268	1268	1263	1263	1259	1259	1259	1169	1169	1169	1169	1169	1169	1169	1165	1165	1165	1161	1161	1161	1157	1157	1157	1157	1157	1157	1157	1153	1153	1153	1153	1153	1153	1150	1150	1150	1146	1146	1142	1142	1142	1142	1138	1138	1138	1138	1138	1138	1134	1134	1138	1134	1134	1131	1131	1131	1127	1127	1127	1127	1127	1127	1123	1123	1123	1123	1123	1120	1120	1116	1116	1113	1109	1109	1109	1109	1105	1105	1105	1105	1105	1102	1102	1098	1098	1098	1098	1095	1095	1095	1095	1095	1095	1091	1091	1091	1091	1091	1088	1088	1091	1088	1085	1081	1081	1081	1081	1078	1078	1078	1078	1078	1078	1074	1074	1074	1074	1071	1071	1068	1068	1068	1068	1064	1064	1064	1064	1064	1064	1064	1064	1064	1061	1058	1058	1058	1055	1055	1055	1055	1052	1052	1052	1052	1052	1052	1048	1048	1048	1045	1042	1042	1042	1042	1039	1036	1036	1036	1036	1036	1036	1033	1033	1030	1030	1030	1030	1030	1026	1026	1026	1026	1023	1023	1023	1023	1020	1020	1020	1020	1020	1017	1014	1014	1014	1014	1014	1014	1011	1011	1011	1011	1008	1006	1006	1006	1003	1003	1003	1003	1003	1003	1003	1000	1000	1000	1000	1000	1000	997	997	997	994	994	994	991	991	991	988	988	985	985	985	985	983	983	980	980	980	980	983	980	980	980	980	977	977	977	977	974	972	972	972	972	969	969	966	966	963	963	963	963	963	963	961	961	961	961	961	958	958	958	958	955	955	955	955	953	953	953	953	953	950	950	950	948	948	945	945	945	945	945	945	945	945	942	942	942	942	940	937	937	937	937	937	937	937	937	937	935	935	932	932	932	932	930	927	927	927	927	927	925	925	925	925	925	925	922	922	922	925	925	925	925	927	937	937	937	1116	1120	1120	1123	1120	1120	1120	1113	1113	1113	1113	1113	1113	1113	1113	1113	1109	1109	1109	1109	1109	1105	1102	1102	1102	1102	1102	1102	1102	1105	1102	1102	1098	1098	1098	1098	1098	1095	1095	1095	1095	1091	1091	1091	1088	1088	1091	1088	1088	1088	1085	1085	1085	1085	1085	1085	1085	1081	1081	1081	1081	1078	1078	1078	1078	1078	1078	1078	1074	1074	1074	1074	1071	1071	1071	1071	1068	1068	1068	1068	1064	1064	1064	1064	1061	1061	1061	1061	1058	1058	1058	1058	1058	1055	1055	1055	1055	1055	1052	1052	1052	1052	1052	1048	1048	1048	1048	1048	1048	1045	1045	1048	1048	1048	1048	1045	1045	1045	1042	1042	1042	1042	1039	1039	1039	1039	0	0	0	0	0	0	0	0	0	0	0	0	0	0	0	0	0	0
0	0	0	0	0	0	0	0	0	0	0	0	0	0	0	0	0	0	0	0	0	0	0	0	0	1657	1657	1657	1649	1649	1649	1641	1641	1641	1649	1649	1641	1641	1641	1641	1634	1634	1634	1634	1626	1626	1626	1626	1626	1626	1626	1626	1626	1626	1626	1618	1618	1618	1618	1611	1611	1603	1603	1603	1603	1603	1596	1596	1589	1589	1589	1589	1589	1581	1581	1581	1581	1581	1581	1581	1581	1574	1574	1574	1574	1567	1567	1567	1560	1560	1553	1553	1553	1553	1553	1546	1546	1546	1539	1532	1532	1532	1539	1539	1539	1539	1539	1532	1532	1532	1532	1532	1525	1525	1525	1525	1525	1525	1525	1525	1512	1506	1506	1506	1506	1506	1506	1506	1506	1499	1499	1499	1499	1499	1499	1492	1492	1492	1492	1492	1486	1486	1486	1486	1480	1480	1480	1473	1473	1467	1467	1467	1467	1461	1461	1461	1455	1455	1455	1455	1455	1455	1455	1272	1272	1272	1272	1272	1272	1268	1263	1263	1259	1259	1259	1169	1169	1169	1169	1169	1169	1169	1165	1165	1165	1161	1161	1161	1161	1161	1157	1157	1157	1157	1157	1153	1153	1153	1153	1153	1153	1153	1150	1150	1150	1146	1146	1142	1142	1142	1138	1138	1138	1138	1138	1138	1138	1138	1138	1134	1134	1131	1131	1131	1127	1127	1127	1127	1127	1127	1123	1123	1123	1123	1123	1123	1120	1116	1116	1113	1109	1109	1109	1109	1109	1109	1105	1105	1105	1105	1102	1102	1098	1098	1098	1095	1095	1095	1095	1095	1095	1091	1091	1091	1091	1091	1091	1091	1091	1088	1085	1081	1081	1081	1081	1081	1078	1078	1078	1078	1078	1078	1074	1074	1074	1071	1071	1068	1068	1068	1068	1068	1064	1064	1064	1064	1064	1064	1064	1064	1061	1061	1058	1058	1058	1055	1055	1055	1052	1052	1052	1052	1052	1052	1048	1048	1048	1045	1045	1042	1042	1042	1039	1036	1036	1036	1036	1036	1036	1036	1033	1033	1030	1030	1030	1030	1026	1026	1026	1026	1023	1023	1023	1023	1020	1020	1020	1020	1020	1017	1014	1014	1014	1014	1014	1014	1011	1011	1011	1011	1008	1008	1006	1006	1003	1003	1003	1003	1003	1003	1003	1003	1000	1000	1000	1000	1000	997	997	997	994	994	994	991	991	991	991	988	988	985	985	985	983	983	980	980	980	983	983	980	980	980	980	980	977	977	974	974	972	972	972	972	969	969	966	966	963	963	963	963	963	963	963	961	961	961	961	961	958	958	958	955	955	955	955	953	953	953	953	953	953	950	950	948	948	948	945	945	945	945	945	945	945	942	942	942	942	940	937	937	940	940	940	937	937	937	937	935	935	935	932	932	932	930	927	927	927	927	927	925	925	925	925	925	925	922	922	922	925	925	925	925	925	940	940	940	0	1120	1120	1123	1123	1123	1113	1113	1113	1113	1113	1113	1113	1113	1113	1113	1113	1109	1109	1105	1105	1105	1102	1102	1102	1105	1105	1102	1102	1105	1105	1102	1098	1098	1098	1098	1098	1095	1095	1095	1095	1095	1095	1091	1091	1091	1091	1091	1088	1088	1088	1088	1088	1085	1085	1085	1085	1081	1081	1081	1081	1078	1078	1078	1078	1078	1078	1074	1074	1074	1074	1074	1071	1071	1071	1071	1071	1071	1068	1068	1064	1064	1064	1061	1061	1061	1061	1061	1061	1058	1058	1058	1058	1055	1055	1055	1055	1055	1052	1052	1052	1052	1052	1048	1048	1048	1048	1048	1048	1045	1045	1048	1048	1048	1048	1048	1048	1045	1042	1042	1042	1042	1042	1042	1042	1042	0	0	0	0	0	0	0	0	0	0	0	0	0	0	0	0	0	0
0	0	0	0	0	0	0	0	0	0	0	0	0	0	0	0	0	0	0	0	0	0	0	0	0	1657	1657	1657	1649	1649	1649	1649	1649	1649	1649	1649	1641	1641	1641	1641	1641	1641	1634	1634	1626	1626	1626	1626	1626	1626	1626	1626	1626	1626	1618	1618	1618	1618	1618	1611	1611	1603	1603	1603	1603	1603	1603	1603	1589	1589	1589	1589	1589	1581	1581	1581	1581	1581	1581	1581	1581	1574	1574	1574	1574	1574	1567	1567	1560	1560	1560	1560	1553	1553	1553	1546	1546	1546	1539	1532	1532	1539	1539	1539	1539	1539	1539	1539	1532	1532	1532	1532	1525	1525	1525	1525	1525	1525	1525	1525	1512	1512	1512	1512	1506	1506	1506	1512	1506	1506	1506	1499	1499	1499	1499	1492	1492	1492	1492	1492	1486	1486	1480	1480	1480	1480	1480	1473	1473	1467	1467	1467	1467	1467	1461	1461	1455	1455	1455	1455	1455	1455	1455	1272	1272	1272	1272	1272	1272	1268	1268	1263	1259	1259	1259	1169	1169	1169	1169	1169	1169	1169	1169	1165	1165	1165	1161	1161	1161	1161	1157	1157	1157	1157	1157	1153	1153	1153	1153	1153	1153	1153	1150	1150	1150	1146	1146	1142	1142	1142	1142	1142	1142	1138	1138	1138	1138	1138	1138	1134	1134	1131	1131	1131	1131	1127	1127	1127	1127	1127	1123	1123	1123	1123	1123	1123	1120	1116	1116	1113	1109	1109	1109	1109	1109	1109	1105	1105	1105	1105	1102	1102	1102	1098	1098	1098	1095	1095	1095	1095	1095	1091	1091	1091	1091	1091	1091	1091	1091	1088	1085	1085	1081	1081	1081	1081	1081	1078	1078	1078	1078	1078	1074	1074	1074	1074	1071	1068	1068	1068	1068	1068	1064	1064	1064	1064	1064	1064	1064	1064	1064	1061	1061	1058	1058	1055	1055	1055	1052	1052	1052	1052	1052	1052	1048	1048	1048	1045	1045	1042	1042	1042	1039	1036	1036	1036	1036	1036	1036	1036	1033	1033	1030	1030	1030	1030	1026	1026	1026	1026	1023	1023	1023	1023	1023	1020	1020	1020	1020	1020	1014	1014	1014	1014	1014	1014	1011	1011	1011	1011	1011	1008	1006	1006	1006	1006	1003	1003	1003	1003	1003	1003	1000	1000	1000	1000	1000	1000	997	997	994	994	994	991	991	991	991	991	988	988	985	985	985	985	983	980	980	983	983	980	980	980	980	977	977	977	974	974	972	972	972	972	969	969	966	966	966	966	966	963	963	963	963	961	961	961	961	961	958	958	958	955	955	955	955	953	953	953	953	953	953	950	950	948	948	948	945	945	945	945	945	945	942	942	942	942	942	940	937	937	940	940	940	937	937	937	937	935	935	935	932	932	932	932	930	927	927	927	927	925	925	927	927	925	925	922	922	922	925	925	925	925	925	935	935	940	0	1123	1123	1123	1123	1123	1116	1116	1113	1113	1113	1113	1113	1113	1113	1113	1113	1113	1109	1105	1105	1105	1102	1102	1105	1105	1105	1105	1105	1105	1105	1105	1102	1098	1098	1098	1098	1095	1095	1095	1095	1095	1095	1091	1091	1091	1091	1091	1091	1091	1088	1088	1088	1088	1085	1085	1085	1081	1081	1081	1081	1081	1081	1081	1078	1078	1078	1074	1074	1074	1071	1071	1071	1071	1071	1071	1071	1071	1071	1068	1064	1064	1064	1061	1061	1061	1061	1061	1061	1058	1058	1058	1058	1058	1058	1055	1055	1055	1052	1052	1052	1052	1052	1052	1048	1048	1052	1052	1048	1048	1048	1048	1048	1048	1048	1048	1048	1048	1045	1045	1045	1042	1042	1042	1042	1042	0	0	0	0	0	0	0	0	0	0	0	0	0	0	0	0	0	0
0	0	0	0	0	0	0	0	0	0	0	0	0	0	0	0	0	0	0	0	0	0	0	0	0	1657	1657	1657	1649	1649	1649	1649	1649	1649	1649	1649	1641	1641	1641	1641	1641	1641	1634	1634	1634	1626	1626	1626	1626	1626	1626	1626	1626	1626	1618	1618	1618	1618	1618	1618	1611	1611	1603	1603	1603	1603	1603	1603	1589	1589	1589	1589	1589	1581	1581	1581	1581	1581	1581	1581	1581	1574	1574	1574	1574	1574	1567	1567	1567	1560	1560	1560	1553	1553	1553	1546	1546	1546	1546	1539	1539	1539	1539	1539	1539	1539	1539	1539	1532	1532	1532	1532	1532	1525	1525	1525	1525	1525	1525	1525	1519	1512	1512	1512	1512	1512	1512	1512	1506	1506	1506	1506	1499	1499	1499	1499	1499	1492	1492	1492	1486	1486	1480	1480	1480	1480	1480	1473	1473	1467	1467	1467	1467	1467	1461	1461	1455	1455	1455	1455	1455	1455	1455	1272	1272	1272	1272	1272	1272	1268	1268	1263	1259	1259	1259	1169	1169	1169	1169	1169	1169	1169	1169	1169	1169	1165	1165	1165	1161	1161	1157	1157	1157	1157	1157	1153	1153	1153	1153	1153	1153	1153	1150	1150	1150	1146	1146	1146	1146	1142	1142	1142	1142	1142	1142	1138	1138	1138	1138	1138	1134	1131	1131	1131	1131	1127	1127	1127	1127	1127	1123	1123	1123	1123	1123	1120	1116	1116	1116	1113	1113	1109	1109	1109	1109	1109	1105	1105	1105	1105	1102	1102	1102	1098	1098	1098	1098	1098	1095	1095	1095	1091	1091	1091	1091	1091	1091	1091	1088	1088	1085	1085	1081	1081	1081	1081	1081	1081	1078	1078	1078	1078	1078	1074	1074	1074	1071	1068	1068	1068	1068	1068	1064	1064	1064	1064	1064	1064	1064	1064	1064	1061	1058	1058	1058	1055	1055	1055	1052	1052	1052	1052	1052	1052	1048	1048	1048	1045	1045	1042	1042	1042	1036	1036	1036	1036	1036	1036	1036	1036	1033	1033	1033	1030	1030	1026	1026	1026	1026	1026	1023	1023	1023	1023	1023	1020	1020	1020	1020	1020	1014	1014	1014	1014	1014	1014	1011	1011	1011	1011	1011	1008	1006	1006	1006	1006	1003	1003	1003	1003	1003	1003	1000	1000	1000	1000	1000	1000	997	997	997	994	994	991	991	991	991	991	988	988	985	985	985	985	983	983	983	983	983	980	980	980	980	977	977	977	977	974	972	972	972	972	969	969	966	966	966	966	966	966	963	963	963	963	963	961	961	961	958	958	958	955	955	955	955	953	953	953	953	953	953	950	950	948	948	948	945	945	945	945	945	945	942	942	942	942	942	942	940	940	937	937	937	937	937	937	937	935	935	935	932	932	932	932	930	927	927	927	927	927	927	927	927	925	925	922	922	922	925	925	925	930	932	935	935	1127	1123	1123	1120	1120	1120	1123	1116	1116	1116	1116	1116	1116	1113	1113	1113	1113	1113	1113	1109	1109	1109	1109	1105	1105	1105	1105	1105	1105	1105	1105	1105	1102	1102	1098	1098	1098	1098	1095	1095	1095	1095	1095	1095	1095	1095	1095	1095	1095	1091	1091	1091	1091	1088	1088	1085	1085	1085	1085	1081	1081	1081	1081	1081	1081	1078	1078	1078	1074	1074	1074	1071	1071	1071	1071	1071	1071	1071	1071	1071	1071	1064	1064	1064	1064	1061	1061	1061	1061	1061	1058	1058	1058	1058	1058	1058	1058	1055	1055	1055	1052	1052	1052	1052	1052	1052	1052	1052	1052	1052	1048	1048	1052	1052	1052	1048	1048	1048	1048	1045	1045	1045	1042	1042	1042	1042	1042	0	0	0	0	0	0	0	0	0	0	0	0	0	0	0	0	0	0
0	0	0	0	0	0	0	0	0	0	0	0	0	0	0	0	0	0	0	0	0	0	0	0	0	1657	1657	1657	1657	1649	1649	1657	1649	1649	1649	1649	1649	1649	1649	1641	1641	1641	1641	1634	1634	1626	1626	1626	1626	1626	1634	1634	1626	1626	1618	1618	1618	1618	1618	1618	1611	1611	1611	1603	1603	1603	1603	1603	1603	1603	1596	1596	1589	1589	1581	1581	1581	1581	1581	1581	1581	1574	1574	1574	1574	1574	1567	1567	1567	1560	1560	1560	1560	1553	1553	1553	1546	1546	1546	1546	1546	1546	1539	1539	1539	1539	1539	1539	1532	1532	1532	1532	1532	1532	1525	1525	1525	1525	1525	1525	1525	1512	1512	1512	1512	1512	1506	1506	1506	1499	1499	1506	1499	1499	1499	1499	1499	1492	1492	1492	1486	1486	1480	1480	1480	1480	1480	1480	1473	1467	1467	1467	1467	1467	1461	1461	1455	1455	1455	1455	1455	1455	1455	1277	1277	1272	1272	1272	1272	1268	1268	1263	1259	1259	1259	1169	1169	1169	1169	1169	1169	1169	1169	1169	1169	1165	1165	1165	1161	1161	1157	1157	1157	1157	1153	1153	1153	1153	1153	1153	1153	1153	1150	1150	1150	1146	1146	1146	1146	1142	1142	1142	1142	1142	1142	1138	1138	1138	1138	1138	1138	1134	1134	1134	1131	1127	1127	1127	1127	1123	1123	1123	1123	1123	1123	1120	1116	1116	1116	1113	1113	1109	1109	1109	1109	1109	1109	1105	1105	1105	1102	1102	1105	1102	1102	1098	1098	1098	1095	1095	1095	1091	1091	1091	1091	1091	1091	1091	1088	1088	1088	1085	1085	1081	1081	1081	1081	1081	1078	1078	1074	1074	1074	1074	1074	1074	1071	1068	1068	1068	1068	1068	1064	1064	1064	1064	1064	1064	1064	1064	1064	1061	1058	1058	1058	1055	1055	1055	1052	1052	1052	1052	1052	1052	1048	1048	1048	1045	1045	1042	1042	1042	1036	1036	1036	1039	1036	1036	1036	1036	1033	1033	1033	1033	1030	1026	1026	1026	1026	1026	1026	1023	1023	1023	1023	1023	1020	1020	1020	1020	1017	1017	1014	1014	1014	1014	1011	1011	1011	1011	1011	1011	1008	1006	1006	1006	1003	1003	1003	1003	1003	1003	1003	1003	1003	1003	1000	1000	997	997	997	997	994	994	994	991	991	988	988	988	985	985	985	985	983	983	983	983	983	980	980	980	980	977	977	977	977	974	972	972	972	972	969	969	966	966	966	966	966	966	963	963	963	963	963	961	961	961	958	958	958	955	955	955	955	955	955	953	953	953	953	950	950	948	948	948	945	945	945	945	945	945	945	945	945	942	942	942	940	940	937	937	937	937	937	937	937	935	935	935	932	932	932	932	930	927	927	927	927	927	927	927	927	925	925	925	925	925	922	922	925	930	932	932	1127	1127	1123	1123	1120	1120	1120	1123	1116	1116	1116	1116	1116	1116	1116	1113	1113	1113	1113	1113	1109	1109	1109	1109	1105	1105	1105	1105	1105	1102	1102	1105	1105	1102	1098	1098	1098	1098	1098	1095	1095	1095	1095	1095	1095	1095	1095	1095	1095	1091	1091	1091	1091	1091	1088	1088	1085	1085	1085	1085	1081	1081	1081	1081	1081	1081	1081	1078	1078	1074	1074	1074	1071	1071	1071	1071	1071	1071	1071	1071	1071	1071	1064	1064	1064	1064	1064	1064	1064	1064	1061	1061	1058	1058	1058	1058	1058	1058	1058	1055	1055	1052	1052	1052	1052	1052	1052	1052	1052	1052	1052	1048	1048	1052	1052	1052	1048	1048	1048	1048	1045	1042	1042	1042	1042	1042	1042	1042	0	0	0	0	0	0	0	0	0	0	0	0	0	0	0	0	0	0
0	0	0	0	0	0	0	0	0	0	0	0	0	0	0	0	0	0	0	0	0	0	0	0	0	1657	1657	1657	1657	1657	1657	1657	1649	1649	1649	1649	1649	1649	1649	1641	1641	1641	1641	1641	1641	1634	1634	1641	1641	1641	1634	1634	1626	1626	1618	1618	1618	1618	1618	1618	1611	1611	1611	1603	1603	1603	1603	1596	1596	1596	1596	1596	1589	1589	1589	1581	1581	1581	1581	1581	1581	1574	1574	1574	1574	1574	1574	1567	1560	1560	1560	1560	1553	1553	1553	1553	1553	1553	1546	1546	1546	1546	1546	1546	1539	1539	1539	1532	1532	1532	1532	1532	1532	1532	1525	1525	1525	1525	1525	1525	1525	1512	1512	1512	1512	1512	1506	1506	1499	1499	1499	1506	1506	1499	1499	1499	1499	1492	1492	1492	1486	1486	1480	1480	1480	1480	1480	1480	1473	1467	1467	1467	1467	1467	1461	1461	1455	1455	1455	1455	1455	1455	1455	1277	1277	1277	1272	1272	1272	1268	1268	1263	1263	1259	1259	1173	1173	1173	1173	1169	1169	1169	1169	1169	1169	1165	1165	1165	1161	1161	1157	1157	1157	1157	1153	1153	1153	1153	1153	1153	1153	1153	1150	1150	1150	1146	1146	1146	1146	1142	1142	1142	1142	1142	1142	1138	1138	1138	1138	1138	1138	1134	1134	1134	1131	1131	1127	1127	1127	1123	1123	1123	1123	1123	1123	1120	1116	1116	1116	1113	1113	1109	1109	1109	1109	1109	1109	1109	1105	1105	1102	1102	1102	1102	1102	1102	1102	1098	1095	1095	1095	1091	1091	1091	1091	1091	1091	1091	1091	1088	1088	1088	1085	1081	1081	1081	1081	1081	1078	1078	1074	1074	1074	1074	1074	1074	1071	1071	1071	1068	1068	1068	1064	1064	1064	1064	1064	1064	1064	1064	1064	1061	1058	1058	1058	1055	1055	1055	1055	1055	1052	1052	1052	1052	1052	1052	1048	1048	1048	1042	1042	1042	1042	1039	1039	1039	1036	1036	1036	1036	1033	1033	1033	1033	1026	1026	1026	1026	1026	1026	1026	1023	1023	1023	1023	1023	1023	1023	1023	1020	1017	1017	1017	1017	1014	1014	1011	1011	1011	1011	1011	1011	1008	1008	1006	1006	1003	1003	1003	1003	1003	1003	1003	1003	1003	1003	1000	1000	1000	997	997	997	997	994	994	991	991	988	988	988	985	985	985	985	983	983	983	983	983	980	980	980	980	977	977	977	977	974	972	972	972	972	969	969	966	966	966	966	966	966	963	963	963	963	963	961	961	961	958	958	958	955	955	955	955	955	953	953	953	953	953	950	950	950	948	948	945	945	945	945	945	945	942	942	942	942	942	942	942	942	940	940	940	937	937	937	937	935	935	935	932	932	932	932	932	930	930	930	930	927	927	927	927	927	925	925	925	925	922	922	925	932	932	932	1127	1127	1123	1123	1123	1123	1123	1123	1123	1123	1116	1116	1116	1116	1116	1113	1113	1113	1113	1113	1109	1109	1109	1109	1105	1105	1105	1105	1105	1102	1102	1105	1105	1102	1098	1098	1102	1098	1098	1098	1095	1095	1095	1095	1095	1095	1095	1095	1095	1091	1091	1091	1088	1088	1088	1088	1085	1085	1085	1085	1081	1081	1081	1081	1081	1081	1081	1078	1078	1074	1074	1074	1071	1071	1071	1071	1071	1071	1071	1071	1071	1071	1064	1064	1064	1064	1064	1064	1064	1064	1061	1061	1058	1058	1058	1058	1058	1058	1058	1055	1055	1052	1052	1052	1052	1052	1052	1052	1052	1052	1052	1052	1052	1052	1048	1048	1048	1045	1045	1045	1045	1042	1042	1042	1042	1042	1042	1042	0	0	0	0	0	0	0	0	0	0	0	0	0	0	0	0	0	0
0	0	0	0	0	0	0	0	0	0	0	0	0	0	0	0	0	0	0	0	0	0	0	0	0	1657	1657	1657	1657	1657	1657	1657	1657	1649	1649	1649	1649	1649	1649	1641	1641	1641	1641	1641	1641	1634	1634	1641	1641	1641	1634	1626	1626	1626	1618	1618	1618	1618	1618	1618	1618	1611	1611	1611	1603	1603	1596	1596	1596	1589	1589	1589	1589	1589	1589	1581	1581	1581	1581	1581	1581	1574	1574	1574	1574	1574	1574	1567	1560	1560	1560	1560	1553	1553	1553	1553	1553	1553	1553	1546	1546	1546	1546	1546	1539	1539	1532	1532	1532	1532	1532	1532	1532	1532	1525	1525	1525	1525	1525	1525	1525	1519	1519	1519	1519	1512	1506	1506	1499	1499	1499	1506	1506	1499	1499	1499	1499	1492	1492	1492	1486	1486	1480	1480	1480	1480	1480	1480	1480	1473	1473	1467	1467	1467	1467	1461	1461	1461	1461	1461	1455	1455	1455	1277	1277	1277	1272	1272	1272	1268	1268	1263	1263	1263	1259	1259	1173	1173	1173	1169	1169	1169	1169	1169	1165	1165	1165	1165	1161	1161	1157	1157	1157	1157	1157	1153	1153	1153	1153	1153	1153	1153	1150	1150	1150	1146	1146	1146	1146	1142	1142	1142	1142	1142	1142	1142	1138	1138	1138	1138	1138	1134	1134	1134	1131	1131	1127	1127	1127	1127	1123	1123	1123	1123	1123	1123	1116	1116	1116	1113	1113	1109	1109	1109	1109	1109	1109	1109	1105	1105	1105	1102	1102	1102	1102	1102	1102	1098	1098	1095	1095	1095	1095	1091	1091	1091	1091	1091	1091	1088	1088	1088	1085	1081	1081	1081	1081	1081	1078	1078	1078	1078	1074	1074	1074	1074	1074	1071	1071	1068	1068	1068	1064	1064	1064	1064	1064	1064	1064	1064	1064	1061	1061	1058	1058	1055	1055	1055	1055	1055	1052	1052	1052	1052	1052	1052	1048	1048	1048	1042	1042	1042	1039	1039	1039	1039	1036	1036	1036	1033	1033	1033	1033	1033	1026	1026	1026	1026	1026	1026	1023	1023	1023	1023	1023	1023	1023	1023	1023	1020	1020	1020	1017	1017	1014	1014	1014	1011	1011	1011	1011	1011	1008	1006	1006	1006	1003	1003	1003	1003	1003	1003	1003	1003	1003	1003	1000	1000	1000	1000	997	997	997	994	994	991	991	988	988	988	985	985	985	985	983	983	983	983	983	980	980	980	980	977	977	977	977	974	972	972	972	972	969	969	966	966	966	966	966	966	966	963	963	963	963	961	961	961	961	961	958	958	958	955	955	955	953	953	953	953	953	950	950	950	950	948	948	945	945	945	945	945	945	945	945	945	945	945	942	942	940	940	940	937	937	937	937	935	935	935	932	932	932	932	932	930	930	930	930	927	927	927	927	925	925	925	925	925	925	925	925	932	932	935	935	1127	1123	1123	1123	1123	1123	1120	1120	1123	1116	1116	1116	1116	1116	1113	1113	1113	1113	1113	1109	1109	1109	1109	1109	1109	1109	1109	1105	1105	1105	1102	1102	1102	1102	1102	1102	1098	1098	1098	1098	1098	1098	1098	1098	1095	1095	1095	1095	1091	1091	1091	1088	1088	1088	1088	1085	1085	1085	1085	1081	1081	1081	1081	1081	1081	1081	1078	1078	1078	1074	1074	1071	1071	1071	1071	1071	1071	1071	1071	1071	1071	1064	1064	1064	1064	1064	1064	1064	1064	1064	1061	1061	1058	1058	1058	1058	1058	1058	1055	1055	1055	1055	1052	1052	1052	1052	1052	1052	1052	1048	1048	1048	1048	1048	1048	1048	1045	1045	1045	1042	1042	1042	1042	1042	1042	1042	1042	0	0	0	0	0	0	0	0	0	0	0	0	0	0	0	0	0	0
