0	0	0	0	0	0	0	0	0	0	0	0	0	0	0	0	0	0	0	0	0	0	0	1681	1681	1681	1681	1681	1681	1681	1681	1681	1681	1681	1681	1690	1690	1698	1698	1698	1698	1706	1706	1706	1706	1706	1706	1706	1706	0	0	0	0	0	0	0	0	0	0	0	0	0	0	0	0	0	0	0	0	0	0	0	0	0	0	0	0	0	0	0	0	0	0	0	0	0	0	0	0	0	0	0	0	0	0	0	0	0	0	0	0	0	0	0	0	0	0	0	0	0	0	0	0	0	0	0	0	0	0	0	0	0	0	0	0	0	0	0	0	0	0	0	0	0	0	0	0	0	0	0	0	0	0	0	0	0	0	0	0	0	0	0	0	0	0	0	0	0	0	0	0	0	0	0	0	0	0	0	0	0	0	0	0	0	0	0	0	0	0	0	0	0	0	0	0	0	0	0	0	0	0	0	0	0	0	0	0	0	0	0	0	0	0	0	0	0	0	0	0	0	0	0	0	0	0	0	0	0	0	0	0	0	0	0	0	0	0	0	0	0	0	0	0	0	0	0	0	0	0	0	0	0	0	0	0	0	0	0	0	0	0	0	0	0	0	0	0	0	0	0	0	0	0	0	0	0	0	0	0	0	0	0	0	0	0	0	0	0	0	0	0	0	0	0	0	0	0	0	0	0	0	0	0	0	0	0	0	0	0	0	0	0	0	0	0	0	0	0	0	0	0	0	0	0	0	0	0	0	0	0	0	0	0	0	0	0	0	0	0	0	0	0	0	0	0	0	0	0	0	0	0	0	0	0	0	0	0	0	0	0	0	0	0	0	0	0	0	0	0	0	0	0	0	0	0	0	0	0	0	0	0	0	0	0	0	0	0	0	0	0	0	0	0	0	0	0	0	0	0	0	0	0	0	0	0	0	0	0	0	0	0	0	0	0	0	0	0	0	0	0	0	0	0	0	0	0	0	0	0	0	0	0	0	0	0	0	0	0	0	0	0	0	0	0	0	0	0	0	0	0	0	0	0	0	0	0	0	0	0	0	0	0	0	0	0	0	0	0	0	0	0	0	0	0	0	0	0	0	0	0	0	0	0	0	0	0	0	0	0	0	0	0	0	0	0	0	0	0	0	0	0	0	0	0	0	0	0	0	0	0	0	0	0	0	0	0	0	0	0	0	0	0	0	0	0	0	0	0	0	0	0	0	0	0	0	0	0	0	0	0	0	0	0	0	0	0	0	0	0	0	0	0	0	0	0	0	0	0	0	0	0	0	0	0	0	0	0	0	0	0	0	0	0	0	0	0	0	0	0	0	0	0	0	0	0	0	0	0	0	0	0	0	0	0	0	0	0	0	0	0	0	0	0	0	0	0	0	0	0	0	0	0	0	0	0	0	0	0	0	0	0	0	0	0	0	0	0	0	0	0	0	0	0	0	0	0	0	0	0	0	0	0	0	0	0	0	0	0	0	0
0	0	0	0	0	0	0	0	0	0	0	0	0	0	0	0	0	0	0	0	0	0	0	1681	1681	1681	1681	1681	1681	1681	1681	1681	1681	1681	1681	1690	1690	1690	1698	1698	1698	1698	1698	1706	1706	1706	1706	1706	1706	1706	1715	1715	1715	1715	1715	1715	1723	1723	1723	1732	1741	1741	1741	1741	1750	1741	1741	1750	1750	1750	1759	1759	1759	1759	1768	1768	1768	1768	1768	1777	1777	1786	1786	1786	1795	1795	1795	1795	1795	0	0	0	0	0	0	0	0	0	0	0	0	0	0	0	0	0	0	0	0	0	0	0	0	0	0	0	0	0	0	0	0	0	0	0	0	0	0	0	0	0	0	0	0	0	0	0	0	0	0	0	0	0	0	0	0	0	0	0	0	0	0	0	0	0	0	0	0	0	0	0	0	0	0	0	0	0	0	0	0	0	0	0	0	0	0	0	0	0	0	0	0	0	0	0	0	0	0	0	0	0	0	0	0	0	0	0	0	0	0	0	0	0	0	0	0	0	0	0	0	0	0	0	0	0	0	0	0	0	0	0	0	0	0	0	0	0	0	0	0	0	0	0	0	0	0	0	0	0	0	0	0	0	0	0	0	0	0	0	0	0	0	0	0	0	0	0	0	0	0	0	0	0	0	0	0	0	0	0	0	0	0	0	0	0	0	0	0	0	0	0	0	0	0	0	0	0	0	0	0	0	0	0	0	0	0	0	0	0	0	0	0	0	0	0	0	0	0	0	0	0	0	0	0	0	0	0	0	0	0	0	0	0	0	0	0	0	0	0	0	0	0	0	0	0	0	0	0	0	0	0	0	0	0	0	0	0	0	0	0	0	0	0	0	0	0	0	0	0	0	0	0	0	0	0	0	0	0	0	0	0	0	0	0	0	0	0	0	0	0	0	0	0	0	0	0	0	0	0	0	0	0	0	0	0	0	0	0	0	0	0	0	0	0	0	0	0	0	0	0	0	0	0	0	0	0	0	0	0	0	0	0	0	0	0	0	0	0	0	0	0	0	0	0	0	0	0	0	0	0	0	0	0	0	0	0	0	0	0	0	0	0	0	0	0	0	0	0	0	0	0	0	0	0	0	0	0	0	0	0	0	0	0	0	0	0	0	0	0	0	0	0	0	0	0	0	0	0	0	0	0	0	0	0	0	0	0	0	0	0	0	0	0	0	0	0	0	0	0	0	0	0	0	0	0	0	0	0	0	0	0	0	0	0	0	0	0	0	0	0	0	0	0	0	0	0	0	0	0	0	0	0	0	0	0	0	0	0	0	0	0	0	0	0	0	0	0	0	0	0	0	0	0	0	0	0	0	0	0	0	0	0	0	0	0	0	0	0	0	0	0	0	0	0	0	0	0	0	0	0	0	0	0	0	0	0	0	0	0	0	0	0	0	0	0	0	0	0	0	0	0	0	0	0	0	0	0	0	0	0	0	0	0	0	0	0	0	0	0	0	0	0	0	0	0	0	0	0	0	0	0
0	0	0	0	0	0	0	0	0	0	0	0	0	0	0	0	0	0	0	0	0	0	0	1681	1681	1681	1681	1681	1681	1681	1681	1681	1681	1681	1681	1681	1690	1690	1698	1698	1698	1698	1698	1706	1706	1706	1706	1706	1706	1706	1706	1715	1715	1715	1715	1715	1715	1723	1723	1732	1741	1741	1741	1741	1750	1741	1741	1750	1750	1750	1759	1759	1759	1759	1768	1768	1768	1768	1768	1777	1777	1786	1786	1786	1795	1795	1795	1795	1795	1795	1804	1814	1814	1814	1814	1824	1824	1824	1833	1833	1843	1853	1853	1853	1853	1853	1853	1863	1863	1863	1873	1873	1873	1873	1873	1873	1883	1883	1883	1894	1894	1894	1894	1904	1904	1904	1904	1904	1904	1915	1925	1925	1925	1925	0	0	0	0	0	0	0	0	0	0	0	0	0	0	0	0	0	0	0	0	0	0	0	0	0	0	0	0	0	0	0	0	0	0	0	0	0	0	0	0	0	0	0	0	0	0	0	0	0	0	0	0	0	0	0	0	0	0	0	0	0	0	0	0	0	0	0	0	0	0	0	0	0	0	0	0	0	0	0	0	0	0	0	0	0	0	0	0	0	0	0	0	0	0	0	0	0	0	0	0	0	0	0	0	0	0	0	0	0	0	0	0	0	0	0	0	0	0	0	0	0	0	0	0	0	0	0	0	0	0	0	0	0	0	0	0	0	0	0	0	0	0	0	0	0	0	0	0	0	0	0	0	0	0	0	0	0	0	0	0	0	0	0	0	0	0	0	0	0	0	0	0	0	0	0	0	0	0	0	0	0	0	0	0	0	0	0	0	0	0	0	0	0	0	0	0	0	0	0	0	0	0	0	0	0	0	0	0	0	0	0	0	0	0	0	0	0	0	0	0	0	0	0	0	0	0	0	0	0	0	0	0	0	0	0	0	0	0	0	0	0	0	0	0	0	0	0	0	0	0	0	0	0	0	0	0	0	0	0	0	0	0	0	0	0	0	0	0	0	0	0	0	0	0	0	0	0	0	0	0	0	0	0	0	0	0	0	0	0	0	0	0	0	0	0	0	0	0	0	0	0	0	0	0	0	0	0	0	0	0	0	0	0	0	0	0	0	0	0	0	0	0	0	0	0	0	0	0	0	0	0	0	0	0	0	0	0	0	0	0	0	0	0	0	0	0	0	0	0	0	0	0	0	0	0	0	0	0	0	0	0	0	0	0	0	0	0	0	0	0	0	0	0	0	0	0	0	0	0	0	0	0	0	0	0	0	0	0	0	0	0	0	0	0	0	0	0	0	0	0	0	0	0	0	0	0	0	0	0	0	0	0	0	0	0	0	0	0	0	0	0	0	0	0	0	0	0	0	0	0	0	0	0	0	0	0	0	0	0	0	0	0	0	0	0	0	0	0	0	0	0	0	0	0	0	0	0	0	0	0	0	0	0	0	0	0	0	0	0	0	0	0	0	0	0	0	0	0	0	0	0	0	0	0	0	1157	1157	1157	0	0	0	0	0	0	0	0	0	0	0	0	0	0	0	0	0	0
0	0	0	0	0	0	0	0	0	0	0	0	0	0	0	0	0	0	0	0	0	0	0	1681	1681	1681	1690	1681	1681	1681	1681	1681	1681	1681	1681	1681	1681	1690	1698	1698	1698	1698	1698	1706	1706	1706	1706	1706	1706	1706	1706	1715	1715	1715	1715	1715	1715	1723	1723	1723	1732	1741	1741	1741	1750	1750	1750	1750	1750	1759	1759	1759	1759	1759	1768	1768	1768	1768	1768	1777	1777	1786	1786	1786	1795	1804	1804	1804	1804	1804	1804	1814	1814	1814	1814	1814	1824	1824	1833	1833	1843	1853	1853	1853	1853	1853	1853	1863	1863	1863	1873	1873	1873	1873	1873	1873	1883	1883	1883	1894	1894	1894	1894	1904	1904	1904	1904	1904	1904	1915	1925	1925	1925	1925	1936	1936	1947	1958	1947	1947	1969	1969	1969	1969	1980	1980	1980	1980	1980	1980	1992	1992	2003	2003	2003	2003	2003	2003	2003	2015	2015	2015	2027	2027	2027	2039	2039	2039	2039	2051	2063	2063	2063	2076	2076	2076	2076	2076	2076	2076	2076	2088	2088	2088	2101	2101	2101	2114	2114	2114	2114	0	0	0	0	0	0	0	0	0	0	0	0	0	0	0	0	0	0	0	0	0	0	0	0	0	0	0	0	0	0	0	0	0	0	0	0	0	0	0	0	0	0	0	0	0	0	0	0	0	0	0	0	0	0	0	0	0	0	0	0	0	0	0	0	0	0	0	0	0	0	0	0	0	0	0	0	0	0	0	0	0	0	0	0	0	0	0	0	0	0	0	0	0	0	0	0	0	0	0	0	0	0	0	0	0	0	0	0	0	0	0	0	0	0	0	0	0	0	0	0	0	0	0	0	0	0	0	0	0	0	0	0	0	0	0	0	0	0	0	0	0	0	0	0	0	0	0	0	0	0	0	0	0	0	0	0	0	0	0	0	0	0	0	0	0	0	0	0	0	0	0	0	0	0	0	0	0	0	0	0	0	0	0	0	0	0	0	0	0	0	0	0	0	0	0	0	0	0	0	0	0	0	0	0	0	0	0	0	0	0	0	0	0	0	0	0	0	0	0	0	0	0	0	0	0	0	0	0	0	0	0	0	0	0	0	0	0	0	0	0	0	0	0	0	0	0	0	0	0	0	0	0	0	0	0	0	0	0	0	0	0	0	0	0	0	0	0	0	0	0	0	0	0	0	0	0	0	0	0	0	0	0	0	0	0	0	0	0	0	0	0	0	0	0	0	0	0	0	0	0	0	0	0	0	0	0	0	0	0	0	0	0	0	0	0	0	0	0	0	0	0	0	0	0	0	0	0	0	0	0	0	0	0	0	0	0	0	0	0	0	0	0	0	0	0	0	0	0	0	0	0	0	0	0	0	0	0	0	0	0	0	0	0	0	0	0	0	0	0	1277	1272	1272	1272	1272	1268	1268	1263	1263	1263	1263	1259	1259	1254	1254	1254	1249	1249	1254	1249	1249	1249	1245	1240	1240	1232	1227	1227	1227	1227	1227	1227	1227	1223	1219	1219	1214	1202	1202	1202	1202	1197	1197	1197	1197	1197	1193	1189	1189	1181	1177	1177	1177	1173	1173	1169	1169	1169	1161	1157	1157	1161	1161	0	0	0	0	0	0	0	0	0	0	0	0	0	0	0	0	0
0	0	0	0	0	0	0	0	0	0	0	0	0	0	0	0	0	0	0	0	0	0	0	1681	1681	1681	1681	1681	1681	1681	1681	1681	1681	1681	1681	1681	1681	1690	1690	1690	1698	1698	1698	1706	1706	1706	1706	1706	1706	1706	1706	1715	1715	1715	1715	1715	1715	1723	1723	1723	1732	1741	1741	1741	1750	1750	1750	1750	1750	1759	1759	1759	1768	1768	1768	1768	1768	1768	1768	1777	1777	1786	1786	1795	1795	1804	1804	1804	1804	1804	1804	1814	1814	1814	1814	1814	1824	1824	1833	1833	1833	1853	1853	1853	1853	1853	1853	1863	1863	1863	1873	1873	1873	1873	1873	1873	1883	1883	1894	1894	1894	1894	1894	1894	1904	1904	1904	1904	1904	1915	1925	1925	1925	1936	1936	1936	1936	1936	1947	1947	1958	1958	1958	1958	1969	1969	1980	1980	1980	1980	1980	1980	1980	2003	2003	2003	2003	2003	2003	2015	2015	2015	2027	2027	2027	2039	2039	2039	2039	2051	2063	2063	2063	2063	2063	2076	2076	2076	2076	2076	2076	2076	2088	2088	2101	2101	2101	2114	2114	2114	2114	2114	2114	2114	2114	2114	2101	2101	2101	2101	2088	2076	2076	2063	2063	2063	2063	2063	2063	2039	2039	2027	2027	2027	2003	2003	2003	2003	2003	2003	2003	1992	1992	1980	1980	1980	1980	1969	1969	1969	1969	1958	1958	1947	1947	1925	1915	1904	1883	1883	1873	1873	1863	1863	1853	1843	1843	1843	1843	1843	1843	0	0	0	0	0	0	0	1759	1750	1750	1759	1750	1750	1750	1750	1741	1732	1723	1723	1723	1732	1732	1732	1732	1732	1732	1732	0	0	0	0	0	0	0	0	0	0	0	0	0	0	0	0	0	0	0	0	0	0	0	0	0	0	0	0	0	0	0	0	0	0	0	0	0	0	0	0	0	0	0	0	0	0	0	0	0	0	0	0	0	0	0	0	0	0	0	0	0	0	0	0	0	0	0	0	0	0	0	0	0	0	0	0	0	0	0	0	0	0	0	0	0	0	0	0	0	0	0	0	0	0	0	0	0	0	0	0	0	0	0	0	0	0	0	0	0	0	0	0	0	0	0	0	0	0	0	0	0	0	0	0	0	0	0	0	0	0	0	0	0	0	0	0	0	0	0	0	0	0	0	0	0	0	0	0	0	0	0	0	0	0	0	0	0	0	0	0	0	0	0	0	0	0	0	0	0	0	0	0	0	0	0	0	0	0	0	0	0	0	0	0	0	0	0	0	0	0	0	0	0	0	1402	1402	1396	1385	1385	1385	1385	1385	1385	1385	1385	1385	1385	1385	1379	1379	1379	1379	1379	1379	1379	1379	1379	1379	1379	1379	1374	1363	1363	1363	1363	1363	1363	1363	1363	1363	1358	1358	1358	1358	1358	1352	1347	1347	1347	1347	1347	1342	1342	1342	1342	1336	1331	1331	1336	1331	1331	1331	1331	1331	1311	1311	1311	1316	1316	1316	1316	1316	1311	1311	1311	1311	1311	1296	1296	1301	1296	1296	1296	1291	1291	1287	1287	1282	1282	1282	1282	1282	1277	1272	1272	1272	1272	1268	1268	1263	1263	1263	1263	1259	1259	1254	1254	1254	1249	1249	1249	1249	1249	1249	1245	1240	1240	1232	1227	1227	1227	1227	1227	1227	1227	1223	1219	1219	1214	1202	1202	1202	1202	1197	1197	1197	1197	1197	1189	1189	1185	1181	1177	1177	1177	1173	1173	1169	1169	1165	1161	1157	1157	1161	1161	0	0	0	0	0	0	0	0	0	0	0	0	0	0	0	0	0
0	0	0	0	0	0	0	0	0	0	0	0	0	0	0	0	0	0	0	0	0	0	0	1681	1681	1681	1681	1673	1673	1673	1673	1673	1673	1681	1681	1681	1681	1690	1690	1690	1698	1698	1698	1698	1698	1698	1706	1706	1706	1706	1715	1715	1715	1715	1715	1715	1715	1723	1723	1732	1741	1741	1741	1741	1750	1750	1750	1750	1750	1759	1768	1768	1768	1768	1768	1768	1777	1768	1768	1777	1777	1786	1786	1795	1795	1804	1804	1804	1804	1804	1814	1814	1814	1814	1814	1814	1814	1824	1824	1824	1833	1843	1853	1853	1853	1853	1853	1863	1863	1863	1873	1873	1863	1863	1873	1883	1883	1894	1894	1894	1894	1894	1894	1894	1904	1904	1904	1904	1904	1915	1925	1925	1925	1936	1936	1936	1936	1936	1947	1947	1947	1958	1958	1958	1969	1969	1969	1980	1980	1980	1980	1980	1980	2003	2003	2003	2003	2003	2003	2015	2015	2015	2027	2027	2027	2039	2039	2039	2051	2051	2063	2063	2063	2063	2063	2063	2076	2076	2076	2076	2076	2076	2076	2088	2101	2101	2101	2114	2114	2114	2114	2114	2114	2114	2114	2114	2101	2101	2101	2101	2088	2076	2076	2063	2063	2063	2051	2051	2039	2039	2027	2027	2027	2027	2003	2003	2003	2003	2003	2003	2003	1992	1992	1980	1980	1980	1980	1969	1969	1969	1958	1958	1958	1947	1947	1925	1904	1904	1883	1873	1873	1873	1873	1853	1843	1843	1843	1843	1843	1843	1843	0	0	0	0	0	0	1759	1750	1750	1750	1759	1750	1750	1750	1750	1741	1732	1723	1723	1723	1732	1732	1732	1732	1732	1732	1732	1732	1732	1732	1732	1732	1732	1732	1732	1723	1706	1690	1681	1673	1673	1673	1665	1665	1673	1673	1673	1681	1681	1690	1690	1690	1698	1698	1706	1706	1706	1715	1715	1715	1723	1723	1723	1732	1732	1732	1732	1741	1741	1750	1750	1750	1750	1750	1750	1759	1759	1759	1759	1750	1750	1768	1768	1768	1768	1768	1768	1768	1759	1759	1759	1759	1759	1759	1759	1750	1750	1750	1741	1732	1732	1723	1723	1723	1723	1723	1723	1715	1715	1715	1715	1715	1715	1706	1698	1698	1690	1690	1690	1681	1681	1681	1681	1681	1681	1673	1673	1665	1665	1657	1657	1657	1649	1649	1649	1649	1649	1641	1641	1641	1641	1626	1626	1626	1626	1626	1626	1618	1618	1603	1603	1596	1596	1596	1596	1596	1589	1589	1589	1589	1581	1581	1581	1574	1567	1567	1567	1553	1553	1553	1553	1546	1539	1539	1539	1532	1532	1532	1532	1532	1525	1525	1525	1525	1525	1519	1519	1506	1506	1512	1506	1499	1499	1499	1492	1492	1492	1486	1480	1480	1480	1473	1473	1473	1473	1467	1467	1467	1461	1461	1455	1455	1455	1455	1455	1443	1443	1413	1407	1407	1402	1402	1396	1396	1385	1385	1385	1385	1385	1385	1385	1385	1385	1379	1379	1379	1379	1379	1379	1379	1379	1379	1379	1379	1374	1374	1374	1374	1363	1363	1363	1363	1363	1363	1363	1363	1358	1358	1358	1358	1358	1352	1352	1347	1347	1347	1347	1347	1342	1342	1342	1342	1336	1331	1331	1331	1326	1326	1331	1326	1326	1311	1311	1311	1311	1306	1306	1311	1316	1311	1311	1311	1311	1311	1296	1296	1301	1296	1296	1296	1291	1291	1287	1287	1282	1282	1282	1282	1282	1277	1272	1272	1272	1272	1268	1268	1263	1263	1263	1263	1259	1254	1254	1254	1254	1249	1249	1249	1249	1249	1249	1245	1240	1236	1232	1227	1227	1227	1227	1227	1227	1227	1223	1219	1219	1210	1206	1202	1202	1202	1202	1197	1197	1197	1197	1189	1189	1189	1185	1181	1181	1173	1173	1169	1169	1169	1165	1161	1157	1157	1161	1161	0	0	0	0	0	0	0	0	0	0	0	0	0	0	0	0	0
0	0	0	0	0	0	0	0	0	0	0	0	0	0	0	0	0	0	0	0	0	0	0	1690	1690	1673	1673	1673	1673	1673	1673	1673	1673	1681	1681	1681	1690	1690	1690	1690	1698	1698	1698	1698	1698	1698	1706	1706	1706	1706	1715	1715	1715	1715	1715	1715	1723	1723	1723	1732	1732	1741	1741	1750	1750	1750	1750	1750	1759	1759	1768	1768	1768	1768	1768	1768	1777	1768	1768	1777	1777	1786	1786	1795	1804	1804	1804	1804	1814	1814	1814	1814	1814	1814	1814	1814	1814	1824	1824	1824	1833	1843	1843	1853	1853	1853	1853	1863	1863	1863	1873	1873	1863	1863	1873	1883	1883	1894	1894	1894	1894	1894	1894	1904	1904	1904	1904	1904	1915	1915	1925	1925	1925	1936	1936	1947	1947	1947	1947	1947	1947	1947	1958	1958	1969	1969	1969	1980	1980	1980	1992	1992	1992	2003	2003	2003	2003	2015	2015	2015	2015	2015	2027	2027	2027	2039	2039	2039	2051	2051	2063	2063	2063	2063	2063	2063	2063	2063	2063	2076	2076	2076	2076	2088	2101	2101	2101	2114	2114	2114	2114	2114	2127	2114	2114	2114	2114	2114	2101	2101	2088	2088	2076	2063	2063	2051	2051	2051	2039	2039	2027	2027	2027	2027	2003	2003	2003	2003	2003	2003	2003	1992	1992	1980	1980	1980	1980	1969	1969	1969	1958	1958	1947	1947	1947	1915	1904	1894	1883	1873	1863	1863	1863	1833	1833	1833	1833	1833	1843	1843	1843	0	0	0	0	0	0	1759	1750	1750	1750	1759	1750	1750	1750	1750	1750	1732	1732	1723	1723	1732	1732	1732	1732	1732	1741	1741	1741	1741	1741	1741	1732	1732	1732	1732	1723	1706	1690	1681	1673	1673	1673	1665	1665	1665	1665	1673	1681	1681	1690	1690	1690	1698	1698	1706	1706	1706	1715	1715	1715	1715	1723	1723	1732	1732	1732	1732	1741	1741	1750	1750	1750	1750	1750	1750	1759	1759	1759	1759	1750	1750	1759	1768	1768	1768	1768	1768	1768	1759	1759	1759	1759	1759	1759	1759	1750	1750	1750	1741	1732	1732	1723	1723	1723	1723	1723	1723	1715	1715	1715	1715	1706	1706	1706	1698	1698	1690	1690	1690	1681	1681	1681	1681	1681	1673	1673	1665	1665	1665	1657	1657	1657	1649	1649	1649	1641	1641	1641	1641	1641	1641	1626	1626	1626	1626	1626	1626	1611	1611	1603	1603	1596	1596	1596	1589	1589	1589	1589	1589	1589	1581	1581	1581	1574	1567	1567	1567	1553	1553	1553	1553	1539	1539	1539	1532	1532	1532	1532	1532	1532	1525	1525	1525	1525	1525	1519	1512	1506	1506	1506	1506	1499	1499	1499	1492	1492	1486	1486	1480	1480	1480	1473	1473	1473	1473	1467	1467	1467	1461	1455	1455	1455	1455	1455	1455	1443	1443	1425	1407	1402	1402	1402	1396	1390	1385	1385	1385	1385	1385	1385	1385	1385	1385	1379	1379	1379	1379	1379	1379	1379	1379	1379	1379	1379	1374	1374	1374	1374	1363	1363	1363	1363	1363	1363	1363	1363	1358	1358	1358	1358	1358	1352	1352	1347	1347	1347	1342	1342	1342	1342	1342	1342	1331	1331	1331	1331	1326	1326	1326	1326	1326	1311	1311	1311	1311	1306	1306	1311	1311	1311	1311	1306	1306	1311	1301	1301	1301	1296	1296	1296	1291	1291	1287	1287	1282	1282	1282	1282	1282	1282	1277	1272	1272	1268	1268	1263	1263	1263	1263	1259	1259	1254	1254	1254	1254	1249	1249	1249	1249	1249	1249	1245	1240	1236	1227	1227	1227	1227	1223	1223	1223	1223	1223	1219	1214	1210	1206	1202	1202	1202	1197	1197	1197	1197	1193	1189	1189	1189	1185	1181	1181	1173	1173	1169	1169	1165	1161	1157	1157	1157	1157	1157	0	0	0	0	0	0	0	0	0	0	0	0	0	0	0	0	0
0	0	0	0	0	0	0	0	0	0	0	0	0	0	0	0	0	0	0	0	0	0	0	1690	1681	1673	1673	1673	1673	1673	1673	1681	1681	1681	1681	1681	1690	1690	1690	1690	1698	1698	1698	1698	1698	1706	1706	1706	1706	1706	1715	1715	1715	1715	1715	1715	1723	1723	1723	1732	1732	1741	1741	1741	1750	1750	1750	1759	1759	1768	1768	1768	1768	1768	1768	1777	1777	1777	1777	1777	1777	1786	1786	1795	1804	1804	1804	1804	1814	1814	1814	1814	1814	1814	1814	1814	1814	1824	1824	1824	1833	1843	1843	1853	1853	1853	1853	1863	1863	1863	1873	1873	1873	1873	1873	1883	1883	1883	1894	1894	1894	1894	1894	1904	1904	1904	1904	1915	1925	1925	1925	1936	1936	1936	1936	1947	1947	1947	1947	1947	1947	1947	1958	1958	1969	1969	1969	1980	1980	1992	1992	1992	1992	2003	2003	2003	2003	2003	2015	2015	2015	2015	2027	2027	2027	2039	2039	2039	2051	2051	2063	2063	2063	2063	2063	2063	2063	2063	2063	2076	2076	2076	2076	2101	2101	2101	2101	2114	2114	2114	2127	2127	2127	2127	2114	2114	2114	2114	2101	2101	2088	2076	2076	2063	2063	2051	2051	2051	2039	2039	2039	2027	2027	2027	2003	2003	2003	2003	2003	2003	2003	1992	1992	1980	1980	1980	1980	1969	1969	1969	1958	1947	1947	1947	1947	1915	1904	1894	1883	1853	1843	1843	1843	1814	1814	1814	1833	1833	1833	1843	1843	0	0	0	0	0	0	1759	1759	1750	1750	1759	1759	1759	1759	1759	1759	1750	1750	1732	1732	1741	1741	1741	1741	1750	1750	1750	1750	1750	1750	1741	1741	1741	1741	1741	1741	1715	1698	1681	1673	1665	1665	1665	1665	1665	1665	1673	1673	1681	1690	1690	1690	1698	1698	1698	1698	1706	1706	1715	1706	1706	1723	1723	1723	1732	1732	1732	1741	1741	1750	1750	1750	1750	1759	1759	1759	1759	1759	1759	1759	1759	1759	1768	1768	1777	1777	1768	1759	1759	1759	1759	1759	1759	1759	1759	1759	1750	1750	1741	1741	1732	1732	1723	1723	1723	1723	1723	1715	1715	1715	1715	1706	1706	1706	1698	1698	1690	1690	1690	1681	1681	1681	1681	1681	1673	1673	1665	1665	1665	1657	1657	1657	1649	1649	1649	1641	1641	1641	1641	1641	1641	1626	1626	1626	1626	1626	1618	1611	1611	1603	1603	1596	1596	1589	1589	1589	1589	1589	1589	1589	1581	1581	1581	1574	1567	1567	1567	1560	1553	1553	1553	1539	1539	1539	1532	1532	1532	1532	1532	1532	1525	1525	1525	1525	1525	1519	1512	1512	1512	1506	1506	1499	1499	1499	1499	1492	1486	1486	1480	1480	1480	1473	1473	1473	1473	1467	1467	1467	1461	1455	1455	1455	1455	1455	1455	1449	1425	1425	1407	1402	1402	1402	1396	1390	1385	1385	1385	1385	1385	1385	1385	1385	1385	1385	1385	1379	1379	1379	1379	1379	1379	1379	1379	1379	1379	1374	1374	1374	1363	1363	1363	1363	1363	1363	1363	1363	1358	1358	1358	1358	1358	1352	1352	1352	1347	1342	1342	1342	1342	1342	1342	1336	1331	1331	1331	1326	1326	1321	1321	1326	1326	1316	1316	1316	1311	1311	1311	1311	1311	1311	1311	1306	1306	1306	1301	1296	1296	1296	1296	1291	1291	1287	1287	1282	1282	1282	1282	1282	1282	1282	1277	1272	1272	1268	1263	1263	1259	1259	1263	1259	1254	1254	1254	1254	1254	1249	1249	1254	1254	1249	1249	1240	1236	1236	1227	1227	1227	1227	1223	1223	1223	1223	1219	1214	1214	1210	1206	1202	1202	1202	1197	1197	1197	1197	1193	1189	1189	1189	1185	1185	1181	1181	1173	1169	1165	1161	1161	1157	1157	1157	1157	1157	0	0	0	0	0	0	0	0	0	0	0	0	0	0	0	0	0
0	0	0	0	0	0	0	0	0	0	0	0	0	0	0	0	0	0	0	0	0	0	0	1681	1681	1673	1673	1673	1673	1673	1673	1681	1681	1681	1681	1681	1690	1690	1698	1698	1698	1698	1698	1706	1706	1706	1706	1706	1706	1706	1715	1715	1715	1715	1715	1723	1723	1723	1732	1732	1732	1741	1741	1741	1750	1750	1750	1759	1759	1759	1768	1768	1768	1768	1768	1768	1777	1777	1777	1777	1777	1777	1786	1804	1804	1804	1804	1814	1814	1814	1814	1814	1814	1814	1814	1814	1814	1824	1824	1824	1833	1843	1843	1853	1853	1853	1853	1863	1863	1863	1873	1873	1873	1873	1873	1883	1883	1883	1894	1894	1894	1894	1894	1894	1904	1915	1915	1915	1925	1925	1925	1925	1936	1936	1936	1936	1947	1947	1947	1947	1947	1947	1958	1958	1969	1969	1980	1980	1980	1992	1992	1992	1992	2003	2003	2003	2003	2003	2015	2015	2015	2015	2027	2027	2039	2027	2027	2051	2051	2063	2063	2063	2063	2063	2063	2063	2063	2063	2063	2076	2076	2076	2076	2076	2101	2101	2101	2114	2114	2114	2127	2127	2127	2127	2114	2114	2114	2114	2114	2101	2101	2076	2076	2063	2063	2063	2063	2051	2051	2039	2039	2027	2027	2015	2003	2003	2003	2003	2003	2003	2003	2003	1992	1992	1992	1980	1980	1969	1969	1958	1958	1947	1947	1925	1925	1873	1863	1863	1863	1843	1824	1824	1843	1804	1804	1804	1804	1833	1833	0	0	0	0	0	0	0	0	1759	1759	1750	1750	1759	1759	1759	1759	1759	1759	1759	1759	1759	1759	1759	1759	1759	1759	1759	1759	1759	1759	1759	1759	1759	1750	1750	1750	1750	1750	1750	1698	1681	1673	1665	1665	1665	1665	1665	1665	1665	1665	1681	1681	1681	1690	1690	1698	1698	1698	1706	1706	1715	1706	1706	1723	1723	1723	1732	1741	1741	1741	1741	1750	1750	1750	1750	1759	1759	1759	1759	1759	1768	1759	1759	1777	1777	1777	1777	1777	1768	1759	1759	1759	1759	1759	1759	1759	1759	1750	1750	1750	1741	1741	1732	1732	1723	1723	1715	1715	1715	1715	1715	1715	1715	1715	1706	1706	1698	1698	1690	1690	1690	1681	1681	1681	1673	1673	1673	1665	1657	1657	1657	1657	1657	1657	1649	1649	1649	1649	1649	1641	1641	1641	1641	1626	1626	1626	1626	1618	1618	1611	1611	1596	1596	1589	1589	1589	1589	1589	1589	1589	1589	1589	1589	1581	1581	1574	1567	1567	1567	1560	1553	1553	1553	1539	1539	1539	1532	1532	1532	1532	1532	1532	1525	1525	1525	1525	1525	1519	1512	1512	1512	1506	1506	1499	1499	1499	1492	1486	1486	1486	1480	1480	1480	1473	1473	1473	1473	1467	1467	1467	1461	1461	1455	1455	1455	1455	1449	1449	1425	1425	1407	1402	1402	1402	1396	1390	1385	1385	1385	1385	1385	1385	1385	1385	1385	1379	1379	1379	1379	1379	1379	1379	1379	1379	1379	1379	1379	1379	1374	1368	1368	1368	1368	1363	1363	1363	1363	1363	1363	1358	1358	1358	1352	1352	1352	1347	1347	1342	1342	1342	1342	1342	1336	1336	1331	1331	1331	1326	1326	1321	1321	1321	1321	1316	1316	1316	1316	1311	1311	1311	1311	1311	1311	1306	1306	1301	1301	1296	1296	1296	1296	1291	1291	1287	1287	1282	1282	1282	1282	1282	1282	1282	1277	1272	1272	1268	1263	1263	1259	1259	1259	1259	1254	1254	1254	1254	1254	1249	1249	1254	1254	1249	1245	1240	1236	1232	1227	1227	1227	1227	1223	1223	1223	1223	1219	1214	1214	1210	1206	1206	1206	1202	1197	1197	1197	1193	1189	1189	1189	1189	1185	1185	1185	1177	1173	1169	1165	1161	1157	1157	1157	1157	1157	1157	0	0	0	0	0	0	0	0	0	0	0	0	0	0	0	0	0
0	0	0	0	0	0	0	0	0	0	0	0	0	0	0	0	0	0	0	0	0	0	0	1681	1681	1673	1673	1673	1673	1673	1673	1681	1681	1681	1681	1681	1690	1690	1698	1698	1698	1698	1706	1706	1706	1706	1706	1706	1715	1715	1715	1715	1715	1715	1723	1723	1723	1723	1723	1732	1732	1741	1741	1741	1750	1750	1750	1750	1759	1759	1759	1768	1768	1768	1768	1768	1777	1777	1777	1777	1777	1777	1786	1795	1804	1804	1804	1814	1814	1814	1814	1814	1814	1814	1814	1814	1814	1824	1824	1824	1833	1843	1843	1853	1853	1853	1853	1863	1863	1863	1873	1873	1873	1873	1873	1883	1883	1883	1894	1894	1894	1894	1894	1894	1904	1915	1915	1915	1925	1925	1925	1925	1936	1936	1936	1936	1947	1947	1958	1947	1947	1969	1969	1969	1969	1969	1980	1980	1980	1992	1992	1992	1992	2003	2003	2003	2003	2003	2003	2015	2015	2015	2027	2027	2039	2027	2027	2051	2051	2063	2063	2063	2063	2063	2063	2063	2063	2063	2076	2076	2076	2076	2076	2076	2101	2101	2114	2114	2114	2114	2114	2114	2127	2127	2127	2114	2114	2114	2114	2101	2101	2076	2076	2063	2063	2063	2051	2051	2039	2039	2039	2027	2027	2015	2003	2003	2003	2003	2003	2003	2003	2003	1992	1992	1992	1980	1980	1980	1958	1947	1883	1883	1915	1904	1853	1853	1853	1853	1843	1833	1824	1824	1824	1804	1804	1804	1804	0	0	0	0	0	0	0	0	0	1750	1750	1750	1750	1750	1759	1759	1759	1759	1759	1759	1768	1768	1759	1759	1759	1759	1768	1768	1768	1768	1768	1768	1759	1759	1759	1759	1759	1759	1759	1759	1759	1698	1681	1673	1665	1665	1665	1665	1665	1665	1665	1681	1681	1681	1681	1681	1690	1690	1698	1698	1706	1706	1715	1715	1715	1715	1723	1732	1732	1741	1741	1741	1750	1750	1750	1750	1750	1759	1759	1759	1759	1759	1768	1768	1768	1777	1777	1777	1777	1777	1768	1768	1759	1759	1759	1759	1759	1759	1759	1750	1750	1750	1741	1732	1732	1723	1723	1715	1715	1715	1715	1715	1715	1715	1706	1706	1706	1706	1698	1698	1690	1690	1690	1681	1681	1681	1673	1673	1673	1665	1657	1657	1657	1657	1657	1649	1649	1649	1649	1649	1641	1641	1641	1641	1641	1634	1626	1626	1618	1618	1618	1611	1611	1596	1596	1589	1589	1589	1589	1589	1589	1589	1589	1589	1581	1581	1581	1574	1567	1567	1567	1560	1553	1553	1553	1539	1539	1539	1532	1532	1532	1525	1525	1532	1525	1525	1525	1525	1525	1519	1512	1512	1512	1506	1506	1499	1499	1499	1492	1486	1486	1486	1486	1480	1480	1473	1473	1473	1473	1473	1473	1467	1467	1461	1461	1455	1455	1455	1455	1449	1437	1437	1413	1402	1396	1396	1396	1390	1385	1385	1385	1385	1385	1385	1385	1385	1385	1379	1379	1379	1379	1379	1379	1379	1379	1379	1379	1379	1379	1379	1374	1368	1368	1368	1368	1363	1363	1363	1363	1363	1363	1358	1358	1358	1352	1352	1352	1347	1347	1347	1342	1342	1342	1342	1336	1336	1331	1331	1331	1326	1321	1321	1321	1321	1321	1316	1316	1316	1316	1311	1311	1311	1311	1311	1311	1306	1306	1301	1301	1296	1296	1296	1296	1291	1291	1291	1291	1287	1282	1282	1282	1282	1282	1282	1277	1272	1268	1268	1263	1263	1259	1259	1259	1259	1259	1254	1254	1254	1254	1249	1249	1254	1254	1240	1240	1236	1236	1232	1232	1227	1227	1227	1223	1223	1223	1223	1219	1219	1214	1210	1210	1206	1206	1202	1197	1197	1197	1193	1189	1189	1189	1189	1189	1185	1185	1177	1173	1169	1165	1157	1157	1157	1157	1157	1157	1157	0	0	0	0	0	0	0	0	0	0	0	0	0	0	0	0	0
0	0	0	0	0	0	0	0	0	0	0	0	0	0	0	0	0	0	0	0	0	0	0	1681	1681	1673	1673	1681	1681	1681	1681	1681	1681	1681	1681	1681	1690	1690	1698	1698	1698	1698	1706	1706	1706	1706	1706	1706	1715	1715	1715	1715	1715	1715	1723	1723	1723	1723	1723	1732	1732	1732	1741	1741	1741	1750	1750	1750	1759	1759	1759	1768	1768	1768	1768	1768	1777	1777	1777	1777	1777	1777	1786	1795	1804	1804	1804	1814	1814	1814	1814	1814	1814	1814	1824	1824	1824	1824	1824	1824	1824	1843	1843	1853	1853	1853	1853	1863	1863	1863	1873	1873	1873	1873	1873	1883	1883	1894	1894	1894	1894	1894	1894	1904	1915	1915	1925	1925	1925	1925	1925	1936	1936	1936	1936	1947	1947	1947	1947	1947	1947	1969	1969	1969	1980	1980	1980	1980	1980	1992	1992	1992	1992	2003	2003	2003	2003	2003	2003	2015	2015	2027	2027	2027	2039	2039	2039	2051	2051	2063	2063	2063	2063	2063	2063	2063	2063	2063	2076	2076	2076	2076	2076	2088	2101	2101	2114	2114	2114	2114	2114	2114	2114	2114	2127	2114	2114	2114	2114	2114	2101	2088	2088	2076	2076	2063	2051	2051	2039	2039	2027	2027	2027	2015	2003	2003	2003	2003	2003	2003	2003	1992	1980	1980	1969	1969	1969	1969	1873	1873	1873	1883	1894	1853	1843	1843	1843	1843	1843	1833	1824	1824	1824	1804	1804	1804	1804	0	0	0	0	0	0	0	0	1750	1750	1750	1750	1750	1750	1750	1759	1759	1759	1759	1759	1768	1768	1768	1768	1768	1768	1768	1768	1768	1768	1768	1768	1768	1768	1768	1768	1768	1768	1768	1768	1732	1698	1673	1665	1665	1665	1665	1665	1665	1665	1665	1681	1681	1681	1681	1681	1690	1698	1698	1698	1698	1706	1706	1706	1706	1715	1723	1723	1732	1741	1741	1741	1750	1750	1750	1750	1750	1759	1759	1759	1759	1768	1777	1777	1777	1777	1777	1777	1777	1777	1768	1768	1759	1759	1759	1759	1759	1759	1759	1750	1750	1750	1741	1732	1732	1723	1723	1715	1715	1715	1715	1715	1715	1715	1706	1706	1706	1706	1698	1698	1690	1690	1690	1681	1681	1681	1673	1665	1665	1665	1657	1657	1657	1657	1649	1649	1649	1649	1649	1649	1641	1641	1634	1634	1641	1634	1626	1626	1618	1618	1618	1611	1611	1596	1596	1589	1589	1589	1589	1589	1589	1589	1589	1589	1581	1581	1581	1574	1567	1567	1567	1553	1553	1553	1546	1539	1539	1539	1532	1532	1532	1525	1525	1532	1525	1525	1525	1525	1519	1519	1512	1506	1506	1499	1499	1499	1499	1499	1499	1492	1492	1480	1480	1480	1480	1480	1480	1480	1473	1473	1467	1467	1467	1461	1461	1461	1461	1455	1455	1449	1443	1443	1413	1402	1396	1396	1396	1390	1385	1385	1390	1390	1385	1385	1385	1385	1385	1379	1379	1379	1379	1379	1379	1379	1379	1379	1379	1379	1379	1379	1379	1374	1374	1368	1368	1368	1363	1363	1363	1363	1363	1358	1358	1358	1352	1347	1347	1342	1342	1342	1342	1342	1342	1342	1342	1336	1331	1331	1331	1326	1321	1321	1321	1321	1316	1316	1316	1316	1316	1311	1311	1311	1311	1306	1306	1306	1306	1301	1296	1296	1296	1301	1301	1296	1296	1296	1282	1282	1282	1282	1282	1282	1282	1277	1272	1272	1268	1263	1259	1259	1259	1259	1259	1259	1259	1254	1254	1254	1254	1254	1254	1254	1254	1240	1240	1236	1236	1236	1232	1232	1227	1227	1227	1227	1223	1219	1219	1219	1219	1210	1210	1206	1206	1202	1202	1197	1193	1193	1189	1189	1189	1189	1189	1189	1185	1181	1173	1169	1165	1157	1157	1157	1157	1153	1153	1153	0	0	0	0	0	0	0	0	0	0	0	0	0	0	0	0	0
0	0	0	0	0	0	0	0	0	0	0	0	0	0	0	0	0	0	0	0	0	0	0	1681	1681	1673	1673	1681	1681	1681	1681	1681	1681	1681	1681	1681	1690	1690	1698	1698	1698	1706	1706	1706	1706	1706	1706	1706	1715	1715	1715	1715	1715	1715	1723	1723	1723	1723	1723	1732	1732	1732	1741	1741	1741	1750	1750	1750	1759	1759	1759	1768	1768	1768	1768	1768	1768	1768	1777	1777	1777	1777	1786	1795	1804	1804	1804	1814	1814	1814	1814	1814	1814	1814	1824	1824	1824	1824	1824	1824	1824	1833	1833	1853	1853	1853	1863	1863	1863	1863	1863	1863	1873	1873	1873	1883	1883	1894	1894	1894	1894	1894	1904	1904	1915	1915	1925	1925	1925	1925	1925	1936	1936	1936	1947	1947	1947	1947	1947	1958	1958	1969	1969	1969	1969	1969	1969	1980	1980	1980	1992	1992	1992	2003	2003	2003	2003	2003	2003	2015	2015	2027	2027	2027	2039	2027	2027	2051	2051	2063	2063	2063	2063	2063	2063	2063	2063	2063	2076	2076	2076	2076	2076	2088	2101	2101	2114	2114	2114	2114	2127	2127	2114	2114	2127	2114	2114	2114	2114	2114	2101	2088	2088	2076	2063	2063	2051	2051	2039	2039	2027	2027	2027	2015	2003	2003	2003	2003	2003	2003	1992	1992	1980	1980	1969	1969	1958	1958	1863	1853	1853	1853	1843	1843	1843	1843	1843	1843	1833	1833	1833	1824	1824	1824	1804	1804	1804	0	0	0	0	0	1759	1759	1759	1750	1750	1759	1759	1750	1750	1750	1759	1759	1759	1759	1759	1768	1768	1768	1768	1768	1768	1777	1777	1777	1768	1768	1768	1768	1768	1768	1777	1777	1777	1777	1777	1732	1665	1665	1665	1665	1665	1665	1665	1665	1665	1665	1681	1681	1681	1681	1690	1690	1698	1698	1698	1706	1706	1706	1706	1706	1715	1723	1723	1732	1732	1741	1741	1741	1750	1750	1750	1750	1750	1759	1759	1759	1759	1777	1777	1777	1786	1786	1786	1786	1777	1777	1768	1759	1759	1759	1759	1759	1759	1750	1750	1750	1750	1741	1732	1732	1723	1723	1715	1715	1715	1715	1715	1715	1715	1706	1706	1698	1698	1698	1690	1690	1690	1690	1681	1681	1681	1673	1665	1665	1665	1657	1657	1657	1657	1649	1649	1649	1649	1649	1649	1641	1641	1634	1634	1634	1626	1626	1626	1618	1618	1618	1611	1611	1596	1596	1589	1589	1589	1589	1589	1589	1589	1589	1589	1581	1581	1581	1574	1567	1567	1567	1553	1553	1553	1546	1539	1539	1539	1532	1532	1532	1532	1532	1532	1525	1525	1525	1525	1512	1512	1506	1506	1506	1499	1499	1499	1499	1499	1499	1492	1492	1480	1480	1480	1480	1480	1480	1480	1473	1473	1467	1467	1467	1461	1461	1455	1455	1455	1455	1449	1443	1443	1413	1396	1396	1396	1396	1396	1390	1390	1390	1390	1390	1385	1385	1379	1379	1379	1379	1379	1379	1379	1379	1379	1379	1379	1379	1379	1379	1379	1379	1374	1374	1368	1368	1368	1363	1363	1363	1363	1363	1358	1358	1358	1352	1347	1347	1342	1342	1342	1342	1342	1342	1342	1342	1331	1331	1331	1331	1331	1321	1316	1316	1316	1316	1316	1316	1316	1316	1311	1311	1311	1311	1306	1306	1301	1301	1301	1296	1296	1296	1296	1296	1296	1296	1291	1282	1282	1277	1277	1277	1277	1277	1277	1272	1272	1268	1263	1259	1259	1259	1259	1259	1259	1259	1254	1254	1254	1249	1249	1254	1254	1249	1245	1240	1240	1236	1232	1232	1232	1232	1227	1227	1223	1223	1219	1219	1219	1219	1210	1210	1210	1206	1202	1202	1197	1197	1193	1193	1189	1189	1189	1189	1185	1181	1181	1173	1169	1165	1157	1157	1157	1157	1153	1153	1153	0	0	0	0	0	0	0	0	0	0	0	0	0	0	0	0	0
0	0	0	0	0	0	0	0	0	0	0	0	0	0	0	0	0	0	0	0	0	0	0	1681	1681	1673	1673	1681	1681	1681	1681	1681	1681	1681	1681	1681	1690	1690	1698	1698	1698	1698	1706	1706	1706	1706	1706	1706	1706	1715	1715	1715	1715	1715	1715	1723	1723	1723	1732	1732	1732	1741	1741	1741	1750	1750	1750	1750	1759	1759	1759	1768	1768	1768	1768	1768	1768	1768	1777	1777	1777	1777	1786	1795	1804	1804	1804	1814	1814	1814	1814	1814	1814	1814	1824	1824	1824	1824	1824	1824	1824	1824	1833	1833	1853	1853	1863	1863	1863	1863	1863	1863	1873	1873	1873	1883	1883	1894	1894	1894	1894	1904	1904	1904	1915	1925	1925	1925	1925	1936	1936	1936	1936	1936	1936	1947	1947	1947	1947	1958	1958	1969	1969	1969	1969	1969	1980	1980	1980	1980	1992	1992	1992	2003	2003	2003	2003	2003	2003	2015	2015	2027	2027	2027	2027	2027	2027	2039	2051	2063	2063	2063	2063	2063	2063	2063	2063	2063	2076	2076	2076	2076	2076	2088	2101	2101	2114	2114	2114	2114	2127	2127	2114	2114	2127	2114	2114	2114	2114	2114	2101	2101	2088	2076	2063	2063	2051	2051	2039	2039	2039	2039	2027	2015	2003	2003	2003	2003	2003	1992	1980	1980	1980	1969	1969	1958	1958	1873	1863	1853	1853	1843	1843	1843	1833	1833	1833	1833	1833	1833	1824	1824	1824	1824	0	0	0	0	0	0	0	1750	1750	1759	1759	1759	1759	1759	1759	1750	1750	1750	1759	1759	1759	1759	1759	1768	1768	1768	1768	1768	1777	1786	1786	1786	1777	1777	1777	1777	1777	1777	1786	1786	1786	1786	1786	1786	1665	1665	1657	1657	1657	1657	1665	1665	1665	1665	1681	1681	1681	1681	1690	1690	1698	1698	1698	1706	1706	1706	1706	1706	1715	1723	1732	1732	1741	1741	1741	1750	1750	1750	1750	1750	1750	1759	1759	1759	1768	1768	1777	1777	1786	1786	1786	1786	1777	1768	1768	1759	1759	1759	1759	1759	1759	1750	1750	1750	1750	1741	1741	1732	1732	1723	1723	1715	1715	1715	1715	1715	1715	1706	1706	1698	1698	1698	1690	1690	1690	1690	1681	1681	1673	1673	1665	1665	1657	1657	1657	1657	1649	1649	1649	1649	1649	1649	1641	1641	1634	1634	1634	1634	1626	1626	1626	1618	1618	1611	1611	1603	1596	1596	1596	1596	1589	1589	1589	1589	1589	1589	1589	1589	1589	1581	1574	1574	1567	1567	1553	1553	1553	1546	1539	1539	1539	1532	1525	1525	1532	1532	1532	1525	1525	1525	1525	1512	1512	1506	1506	1506	1499	1499	1499	1499	1499	1499	1499	1492	1492	1492	1480	1480	1480	1480	1480	1473	1473	1467	1467	1467	1461	1461	1455	1455	1455	1455	1449	1431	1419	1402	1390	1390	1390	1396	1396	1390	1390	1390	1396	1390	1385	1385	1379	1379	1379	1379	1379	1379	1379	1379	1379	1379	1379	1379	1379	1379	1379	1379	1374	1374	1368	1368	1363	1363	1363	1363	1363	1363	1358	1358	1358	1358	1358	1347	1342	1342	1342	1342	1342	1342	1342	1336	1336	1331	1331	1331	1331	1321	1316	1316	1316	1316	1311	1311	1311	1311	1311	1311	1311	1306	1306	1306	1301	1301	1301	1296	1296	1296	1296	1296	1296	1296	1282	1282	1277	1277	1277	1277	1277	1277	1277	1272	1272	1268	1263	1263	1263	1259	1259	1259	1259	1259	1259	1259	1254	1249	1249	1249	1249	1249	1240	1240	1240	1236	1232	1232	1232	1232	1227	1227	1223	1223	1219	1219	1219	1219	1210	1210	1210	1206	1202	1197	1197	1197	1193	1193	1193	1189	1189	1185	1185	1181	1177	1173	1173	1169	1161	1157	1157	1157	1150	1150	1150	0	0	0	0	0	0	0	0	0	0	0	0	0	0	0	0	0
0	0	0	0	0	0	0	0	0	0	0	0	0	0	0	0	0	0	0	0	0	0	0	1681	1681	1673	1673	1681	1681	1681	1681	1681	1681	1681	1681	1681	1690	1690	1698	1698	1698	1698	1706	1706	1706	1706	1706	1706	1706	1715	1715	1715	1715	1715	1715	1723	1723	1723	1732	1741	1741	1741	1741	1750	1750	1750	1750	1759	1759	1759	1759	1768	1768	1768	1768	1768	1768	1768	1777	1777	1777	1777	1786	1795	1804	1804	1804	1814	1814	1814	1814	1814	1824	1824	1824	1824	1824	1824	1824	1824	1824	1833	1833	1833	1863	1863	1863	1863	1863	1863	1863	1863	1873	1873	1873	1883	1883	1894	1894	1894	1894	1904	1904	1904	1915	1925	1925	1925	1925	1936	1936	1936	1936	1936	1936	1947	1947	1947	1947	1958	1958	1969	1969	1969	1980	1980	1980	1980	1980	1992	1992	1992	1992	2003	2003	2003	2003	2003	2003	2003	2003	2027	2027	2027	2027	2027	2027	2039	2039	2039	2039	2051	2051	2063	2063	2063	2063	2076	2076	2076	2076	2076	2076	2088	2101	2101	2114	2114	2114	2114	2114	2114	2127	2127	2127	2127	2127	2114	2114	2114	2101	2101	2088	2076	2063	2063	2063	2063	2051	2039	2027	2027	2027	2015	2015	2003	2003	2003	2003	1992	1980	1969	1969	1958	1947	1947	1947	1873	1863	1853	1843	1843	1843	1833	1833	1833	1833	1833	1833	1833	1824	1824	1824	1824	0	0	0	0	0	0	1750	1750	1750	1759	1759	1759	1759	1759	1759	1750	1750	1750	1759	1759	1759	1759	1759	1768	1768	1768	1768	1786	1786	1786	1786	1786	1786	1786	1786	1786	1786	1786	1786	1786	1786	1786	1795	1795	1665	1665	1657	1657	1657	1657	1665	1665	1665	1665	1673	1681	1681	1681	1681	1690	1690	1698	1698	1706	1706	1706	1706	1706	1715	1723	1732	1732	1741	1741	1741	1750	1750	1750	1750	1750	1750	1759	1759	1768	1768	1777	1786	1786	1786	1786	1786	1777	1777	1768	1768	1759	1759	1759	1759	1759	1750	1750	1750	1750	1741	1732	1732	1732	1732	1723	1723	1715	1715	1715	1715	1715	1706	1706	1706	1698	1698	1690	1690	1690	1690	1690	1681	1681	1673	1673	1665	1665	1657	1657	1657	1657	1649	1649	1649	1649	1649	1649	1641	1641	1634	1634	1634	1634	1626	1626	1626	1618	1618	1611	1611	1596	1596	1596	1596	1596	1596	1589	1589	1589	1589	1589	1589	1589	1581	1581	1574	1567	1567	1560	1553	1553	1546	1546	1539	1539	1539	1532	1525	1525	1532	1532	1525	1525	1525	1525	1519	1512	1512	1506	1506	1506	1506	1499	1499	1499	1499	1499	1499	1492	1492	1492	1480	1480	1480	1480	1480	1473	1473	1467	1467	1467	1461	1455	1455	1455	1455	1455	1449	1431	1431	1396	1390	1390	1390	1396	1396	1390	1390	1390	1396	1390	1385	1385	1385	1385	1385	1379	1379	1379	1379	1379	1379	1379	1379	1379	1379	1379	1379	1379	1374	1374	1368	1368	1363	1363	1363	1363	1363	1363	1363	1358	1358	1358	1358	1352	1342	1342	1342	1342	1342	1342	1342	1336	1336	1331	1331	1331	1331	1326	1321	1321	1316	1316	1311	1311	1311	1311	1311	1311	1311	1306	1306	1306	1306	1306	1296	1296	1296	1296	1296	1296	1296	1291	1282	1282	1277	1277	1277	1272	1272	1272	1272	1272	1268	1268	1263	1263	1263	1263	1259	1259	1259	1259	1259	1259	1254	1249	1249	1249	1249	1249	1240	1240	1240	1236	1232	1232	1232	1232	1232	1227	1223	1223	1219	1219	1219	1219	1210	1210	1210	1202	1202	1197	1197	1197	1193	1189	1189	1185	1185	1185	1185	1181	1177	1173	1173	1169	1165	1161	1157	1157	1150	1150	1150	0	0	0	0	0	0	0	0	0	0	0	0	0	0	0	0	0
0	0	0	0	0	0	0	0	0	0	0	0	0	0	0	0	0	0	0	0	0	0	0	1681	1673	1673	1673	1673	1681	1681	1681	1681	1681	1681	1681	1681	1690	1698	1698	1698	1698	1706	1706	1706	1706	1706	1706	1706	1706	1715	1715	1715	1715	1715	1715	1723	1723	1732	1741	1741	1741	1741	1741	1750	1750	1750	1750	1759	1759	1750	1750	1759	1768	1768	1768	1768	1768	1768	1777	1777	1777	1786	1786	1795	1804	1804	1814	1814	1814	1814	1814	1814	1824	1824	1824	1824	1824	1824	1824	1824	1824	1833	1833	1833	1863	1863	1863	1863	1863	1863	1863	1863	1873	1873	1873	1883	1883	1894	1894	1894	1894	1904	1904	1915	1925	1925	1925	1925	1925	1936	1936	1936	1936	1936	1936	1947	1947	1947	1947	1958	1958	1969	1969	1969	1980	1980	1980	1980	1980	1992	1992	1992	2003	2003	2003	2003	2003	2003	2003	2003	2003	2015	2015	2027	2027	2027	2027	2039	2039	2039	2039	2051	2051	2063	2063	2063	2063	2076	2076	2076	2076	2076	2076	2088	2101	2101	2101	2101	2114	2114	2114	2114	2127	2127	2127	2114	2114	2114	2114	2114	2101	2101	2088	2076	2076	2063	2063	2063	2051	2027	2027	2027	2015	2003	1992	1992	1992	1980	1980	1936	1936	1936	1936	1947	1947	1925	1883	1873	1863	1853	1843	1843	1843	1833	1833	1833	1833	1833	1833	1833	1824	1824	1824	1824	0	0	0	0	0	0	1750	1750	1759	1759	1759	1759	1759	1759	1759	1759	1759	1759	1759	1759	1759	1759	1768	1768	1768	1768	0	1786	1786	1786	1795	1795	1795	1795	1786	1786	1786	1795	1795	1795	1795	1795	1804	1804	1665	1665	1657	1657	1657	1657	1665	1665	1665	1665	1673	1681	1681	1681	1681	1690	1690	1698	1698	1706	1706	1706	1706	1706	1715	1723	1732	1732	1732	1732	1741	1741	1750	1750	1750	1750	1750	1759	1759	1768	1777	1777	1786	1786	1786	1786	1786	1777	1777	1768	1768	1768	1759	1759	1759	1759	1750	1750	1750	1750	1741	1741	1741	1732	1732	1723	1723	1723	1715	1715	1715	1715	1706	1706	1706	1698	1698	1690	1690	1690	1690	1690	1681	1673	1673	1673	1665	1665	1665	1657	1657	1657	1649	1649	1649	1649	1649	1649	1641	1641	1634	1634	1634	1626	1626	1626	1618	1618	1618	1611	1611	1603	1596	1596	1596	1596	1596	1589	1589	1589	1589	1589	1581	1581	1581	1574	1574	1567	1567	1567	1553	1553	1546	1546	1546	1539	1532	1532	1532	1532	1532	1532	1525	1525	1525	1519	1519	1512	1512	1506	1506	1506	1499	1499	1506	1506	1499	1499	1499	1492	1492	1492	1480	1480	1480	1480	1480	1473	1473	1473	1467	1467	1461	1455	1455	1455	1455	1455	1443	1443	1413	1396	1390	1390	1396	1396	1396	1390	1390	1390	1390	1390	1385	1385	1385	1385	1385	1379	1379	1385	1385	1385	1379	1379	1379	1379	1374	1374	1379	1379	1374	1374	1374	1374	1368	1363	1363	1363	1358	1358	1363	1358	1358	1358	1358	1352	1342	1342	1342	1342	1342	1342	1342	1336	1336	1331	1331	1331	1331	1326	1326	1321	1316	1316	1316	1311	1311	1311	1311	1311	1311	1311	1311	1311	1306	1306	1296	1296	1296	1296	1296	1296	1291	1291	1287	1282	1277	1277	1277	1272	1272	1272	1272	1272	1268	1263	1263	1263	1263	1263	1259	1259	1259	1259	1259	1254	1254	1249	1249	1249	1249	1249	1240	1240	1240	1236	1232	1232	1232	1232	1232	1227	1223	1223	1223	1219	1219	1219	1210	1206	1206	1206	1202	1197	1197	1197	1193	1189	1189	1185	1181	1181	1181	1173	1173	1169	1169	1169	1165	1161	1157	1157	1150	1150	1150	0	0	0	0	0	0	0	0	0	0	0	0	0	0	0	0	0
0	0	0	0	0	0	0	0	0	0	0	0	0	0	0	0	0	0	0	0	0	0	0	1681	1681	1673	1673	1673	1681	1681	1681	1681	1681	1681	1681	1690	1690	1690	1698	1698	1698	1698	1706	1706	1706	1706	1706	1706	1715	1715	1715	1715	1715	1715	1715	1723	1723	1732	1732	1741	1741	1741	1741	1741	1750	1750	1750	1759	1759	1750	1750	1759	1759	1768	1768	1768	1768	1768	1777	1777	1777	1786	1786	1795	1795	1804	1804	1814	1814	1814	1814	1814	1824	1824	1824	1824	1824	1824	1824	1824	1824	1833	1833	1853	1863	1863	1863	1863	1863	1863	1863	1873	1873	1873	1873	1883	1883	1894	1894	1894	1894	1904	1915	1915	1925	1925	1925	1925	1925	1936	1936	1936	1936	1936	1936	1947	1947	1947	1947	1958	1958	1969	1969	1969	1980	1980	1980	1980	1980	1992	1992	1992	2003	2003	2003	2003	2003	2003	2003	2015	2015	2015	2015	2027	2027	2027	2027	2039	2039	2051	2051	2051	2051	2063	2063	2063	2063	2076	2076	2076	2076	2076	2076	2088	2101	2101	2101	2101	2114	2114	2114	2114	2114	2127	2127	2114	2114	2114	2114	2101	2101	2088	2088	2076	2076	2063	2063	2063	2051	2027	2027	2015	2003	1980	1969	1958	1947	1925	1915	1915	1915	1894	1883	1883	1883	1873	1863	1863	1853	1843	1843	1843	1843	1833	1833	1833	1833	1833	1833	1824	1824	1824	1824	0	0	0	0	0	0	0	1750	1750	1759	1759	1759	1759	1759	1759	1759	1759	1759	1759	1759	1759	1759	0	1768	1768	1768	0	0	0	1795	1795	1795	1795	1795	1795	1795	1795	1795	1804	1804	1804	1804	1804	1814	1814	1657	1657	1657	1657	1657	1665	1665	1665	1665	1665	1673	1673	1681	1681	1690	1690	1690	1698	1698	1706	1706	1706	1715	1715	1715	1723	1723	1732	1732	1732	1732	1741	1750	1750	1750	1750	1759	1759	1759	1768	1777	1777	1786	1786	1786	1786	1786	1777	1777	1768	1768	1768	1768	1759	1759	1759	1750	1750	1750	1750	1741	1741	1741	1732	1732	1723	1723	1715	1715	1715	1715	1715	1715	1715	1706	1698	1698	1690	1690	1690	1690	1681	1681	1673	1673	1665	1665	1665	1657	1657	1657	1657	1657	1657	1649	1649	1649	1649	1641	1634	1634	1634	1634	1626	1626	1626	1618	1618	1618	1611	1611	1603	1596	1596	1596	1596	1596	1596	1589	1589	1589	1589	1581	1581	1574	1574	1574	1574	1567	1567	1553	1553	1553	1553	1553	1539	1532	1532	1532	1532	1532	1525	1525	1525	1525	1519	1519	1512	1512	1506	1506	1499	1499	1499	1506	1506	1499	1499	1499	1492	1492	1480	1480	1480	1480	1480	1480	1473	1473	1473	1467	1467	1461	1461	1455	1455	1449	1449	1437	1437	1413	1396	1390	1390	1396	1396	1396	1390	1390	1390	1390	1390	1385	1385	1385	1385	1385	1385	1385	1385	1385	1385	1379	1379	1379	1379	1374	1374	1379	1379	1374	1374	1374	1374	1368	1363	1363	1358	1358	1358	1358	1358	1358	1358	1352	1342	1342	1342	1342	1342	1342	1342	1342	1342	1336	1331	1331	1326	1326	1321	1321	1321	1316	1316	1316	1311	1311	1311	1311	1311	1311	1306	1306	1306	1306	1306	1296	1296	1296	1296	1296	1296	1291	1291	1287	1282	1277	1277	1277	1272	1272	1272	1272	1272	1268	1263	1263	1263	1263	1263	1259	1259	1259	1259	1259	1254	1254	1249	1249	1249	1249	1249	1240	1240	1240	1236	1232	1232	1232	1232	1232	1236	1227	1223	1223	1219	1219	1219	1210	1210	1206	1206	1206	1202	1202	1202	1197	1189	1189	1181	1177	1177	1177	1173	1173	1169	1169	1169	1165	1165	1161	1161	1153	1153	1153	0	0	0	0	0	0	0	0	0	0	0	0	0	0	0	0	0
0	0	0	0	0	0	0	0	0	0	0	0	0	0	0	0	0	0	0	0	0	0	0	1673	1673	1673	1673	1673	1681	1681	1681	1681	1681	1681	1681	1690	1690	1690	1698	1698	1698	1698	1706	1706	1706	1706	1706	1715	1715	1715	1715	1715	1715	1715	1723	1723	1723	1732	1732	1741	1741	1741	1741	1750	1750	1750	1750	1759	1759	1750	1750	1759	1759	1768	1768	1768	1768	1777	1777	1777	1786	1786	1786	1795	1795	1804	1804	1814	1814	1814	1814	1814	1824	1824	1824	1824	1824	1824	1824	1824	1824	1833	1833	1853	1863	1863	1863	1863	1863	1863	1873	1873	1873	1873	1883	1883	1883	1894	1904	1904	1904	1904	1915	1915	1925	1925	1925	1925	1925	1925	1936	1936	1936	1936	1936	1947	1947	1947	1947	1958	1958	1969	1969	1980	1980	1980	1980	1980	1980	1992	1992	1992	2003	2003	2003	2003	2003	2015	2015	2015	2015	2015	2027	2027	2027	2027	2027	2039	2039	2063	2063	2063	2063	2063	2063	2063	2063	2063	2076	2076	2076	2088	2088	2101	2101	2101	2101	2101	2114	2114	2114	2114	2114	2127	2127	2127	2114	2114	2114	2101	2088	2088	2088	2076	2063	2063	2063	2063	2051	2027	2015	2003	1980	1958	1947	1925	1925	1915	1904	1904	1904	1883	1883	1873	1863	1853	1853	1853	1833	1833	1833	1833	1833	1833	1824	1824	1833	1833	1824	1824	1824	1824	1824	0	0	0	0	0	1759	1759	1759	1759	1759	1759	1759	1759	1759	1759	1750	1750	1759	1759	1759	1759	1759	0	0	0	0	0	0	0	1795	1795	1795	1804	1795	1795	1795	1795	1804	1804	1804	1804	1804	1804	1814	1814	1657	1657	1657	1657	1657	1665	1665	1665	1665	1665	1673	1673	1681	1681	1690	1690	1690	1698	1698	1698	1706	1706	1715	1715	1715	1723	1723	1732	1732	1732	1732	1741	1750	1750	1750	1759	1759	1759	1768	1768	1777	1777	1777	1786	1786	1786	1786	1786	1777	1777	1777	1768	1768	1759	1759	1759	1750	1750	1750	1750	1750	1741	1741	1732	1732	1723	1723	1715	1715	1715	1715	1715	1706	1706	1706	1698	1698	1690	1690	1690	1690	1681	1681	1673	1673	1665	1665	1665	1657	1657	1657	1657	1657	1657	1649	1649	1649	1649	1641	1634	1634	1634	1634	1626	1626	1626	1618	1618	1618	1611	1611	1603	1596	1596	1596	1596	1596	1596	1589	1589	1589	1589	1581	1581	1574	1574	1574	1567	1567	1567	1553	1553	1553	1553	1553	1546	1546	1532	1532	1532	1532	1525	1525	1525	1525	1525	1519	1512	1512	1506	1506	1499	1499	1499	1506	1506	1499	1499	1499	1499	1492	1480	1480	1480	1480	1480	1480	1473	1473	1473	1467	1461	1461	1461	1455	1455	1449	1449	1437	1437	1413	1390	1390	1396	1396	1396	1396	1396	1390	1390	1390	1390	1385	1385	1385	1379	1379	1379	1379	1379	1379	1379	1374	1374	1379	1374	1374	1379	1379	1374	1374	1374	1374	1368	1368	1363	1363	1358	1358	1358	1358	1358	1358	1358	1352	1342	1342	1342	1342	1342	1342	1342	1342	1342	1336	1331	1326	1326	1321	1321	1321	1321	1316	1316	1316	1311	1311	1311	1311	1311	1311	1306	1306	1306	1306	1306	1306	1296	1296	1296	1296	1296	1291	1291	1287	1282	1277	1277	1277	1272	1272	1272	1272	1272	1268	1263	1263	1263	1263	1259	1259	1259	1259	1259	1259	1259	1254	1249	1249	1249	1249	1249	1245	1240	1240	1236	1232	1232	1232	1232	1232	1236	1227	1223	1223	1214	1214	1214	1210	1210	1210	1206	1206	1202	1202	1202	1202	1193	1193	1181	1177	1177	1177	1173	1173	1169	1169	1169	1169	1165	1165	1161	1153	1153	1153	0	0	0	0	0	0	0	0	0	0	0	0	0	0	0	0	0
0	0	0	0	0	0	0	0	0	0	0	0	0	0	0	0	0	0	0	0	0	0	0	1673	1673	1673	1673	1673	1673	1681	1681	1681	1681	1681	1681	1690	1690	1698	1698	1698	1698	1698	1706	1706	1706	1706	1715	1715	1715	1715	1715	1715	1715	1723	1723	1723	1723	1732	1732	1741	1741	1741	1750	1750	1750	1750	1750	1750	1750	1759	1759	1768	1768	1777	1768	1768	1777	1777	1777	1786	1786	1786	1795	1795	1795	1814	1814	1814	1814	1814	1814	1814	1824	1824	1824	1824	1824	1824	1824	1824	1833	1833	1833	1853	1863	1863	1863	1863	1863	1863	1873	1873	1873	1873	1883	1883	1883	1894	1904	1904	1904	1904	1915	1915	1925	1925	1925	1925	1925	1925	1936	1936	1936	1936	1936	1947	1947	1947	1947	1958	1958	1969	1969	1980	1980	1980	1980	1980	1980	1992	1992	1992	2003	2003	2015	2015	2015	2015	2015	2015	2015	2015	2015	2027	2027	2027	2027	2039	2051	2063	2063	2063	2063	2063	2063	2063	2063	2063	2076	2076	2076	2076	2076	2101	2101	2101	2101	2101	2114	2114	2114	2114	2114	2114	2114	2114	2114	2114	2101	2101	2088	2076	2076	2063	2063	2063	2063	2063	2051	2027	2015	2003	1980	1947	1936	1925	1925	1915	1904	1904	1894	1883	1883	1873	1863	1853	1853	1833	1814	1814	1804	1804	1804	1833	1824	1824	1824	1824	1814	1814	1814	1814	1824	0	0	0	0	1759	1759	1759	1759	1759	1759	1768	1759	1759	1759	1759	1750	1750	1759	1759	1759	1759	0	0	0	0	0	0	0	0	0	0	0	1804	1795	1804	1804	1804	1804	1814	1804	1804	1804	1804	1814	1814	1649	1649	1657	1657	1657	1665	1665	1665	1665	1665	1673	1673	1681	1681	1690	1690	1690	1698	1698	1698	1698	1706	1715	1715	1723	1723	1723	1732	1732	1732	1732	1741	1750	1750	1750	1759	1759	1759	1768	1768	1777	1777	1777	1786	1786	1786	1786	1786	1786	1777	1777	1768	1768	1759	1759	1759	1759	1750	1750	1750	1750	1741	1741	1732	1732	1723	1723	1715	1715	1715	1715	1715	1706	1706	1698	1698	1698	1690	1690	1690	1690	1681	1681	1673	1673	1665	1665	1665	1657	1657	1657	1657	1657	1657	1649	1649	1649	1649	1641	1641	1634	1634	1634	1626	1626	1626	1618	1618	1618	1611	1611	1603	1596	1596	1596	1596	1596	1596	1589	1589	1589	1581	1581	1581	1574	1574	1567	1567	1567	1567	1553	1553	1553	1553	1553	1546	1539	1539	1539	1532	1532	1532	1525	1525	1525	1525	1519	1519	1512	1506	1506	1499	1499	1506	1506	1506	1506	1506	1499	1499	1492	1486	1480	1480	1480	1473	1473	1473	1473	1473	1467	1461	1461	1461	1455	1455	1449	1449	1425	1407	1407	1390	1390	1396	1396	1396	1396	1396	1390	1390	1390	1385	1385	1385	1385	1379	1379	1379	1379	1379	1379	1379	1374	1374	1379	1374	1374	1374	1374	1374	1368	1368	1368	1368	1363	1363	1363	1358	1358	1358	1358	1358	1358	1358	1352	1352	1342	1342	1342	1342	1342	1342	1336	1336	1331	1326	1326	1326	1321	1321	1321	1321	1316	1316	1311	1311	1311	1311	1311	1311	1311	1306	1306	1306	1306	1306	1306	1296	1296	1296	1296	1296	1291	1291	1287	1282	1277	1277	1277	1277	1277	1277	1277	1272	1272	1263	1263	1263	1259	1259	1259	1259	1259	1259	1254	1254	1254	1254	1254	1254	1249	1249	1245	1240	1240	1236	1227	1227	1227	1227	1227	1232	1227	1223	1223	1210	1210	1210	1210	1210	1210	1206	1206	1202	1202	1202	1206	1197	1193	1189	1177	1177	1177	1173	1173	1169	1169	1169	1169	1169	1165	1165	1157	1157	1157	0	0	0	0	0	0	0	0	0	0	0	0	0	0	0	0	0
0	0	0	0	0	0	0	0	0	0	0	0	0	0	0	0	0	0	0	0	0	0	0	1681	1673	1673	1673	1673	1673	1681	1681	1681	1681	1681	1681	1690	1690	1698	1698	1698	1698	1698	1706	1706	1706	1706	1715	1715	1715	1715	1715	1715	1723	1723	1723	1723	1723	1732	1732	1741	1741	1741	1741	1750	1750	1750	1750	1750	1750	1759	1759	1768	1768	1777	1777	1777	1777	1777	1777	1786	1786	1786	1795	1795	1795	1804	1814	1814	1814	1814	1814	1814	1824	1824	1824	1824	1824	1824	1824	1824	1833	1833	1833	1853	1853	1863	1863	1863	1873	1873	1873	1873	1873	1873	1883	1883	1883	1894	1894	1904	1904	1904	1915	1915	1915	1925	1925	1925	1925	1925	1936	1936	1936	1936	1936	1936	1947	1947	1947	1958	1958	1969	1969	1980	1980	1980	1980	1980	1992	1992	1992	1992	2003	2015	2015	2015	2015	2015	2015	2015	2015	2015	2015	2027	2027	2027	2027	2039	2051	2051	2063	2063	2063	2063	2063	2063	2063	2063	2076	2076	2076	2076	2076	2088	2101	2101	2101	2101	2114	2114	2114	2114	2114	2114	2114	2114	2114	2114	2101	2088	2076	2076	2076	2063	2051	2051	2063	2063	2051	2051	2015	2015	1936	1936	1925	1915	1915	1915	1904	1904	1894	1873	1873	1873	1883	1833	1824	1814	1804	1804	1795	1795	1795	1814	1814	1814	1824	1824	1814	1814	1814	1814	1732	1732	1750	1750	1750	1750	1759	1759	1759	1759	1768	1768	1768	1768	1759	1759	1759	1759	1759	1759	1759	1759	0	0	0	0	0	0	0	0	0	0	0	0	0	1804	1814	1814	1824	1824	1814	1814	1814	1814	1824	1824	1649	1649	1649	1649	1657	1665	1665	1665	1665	1665	1673	1673	1673	1681	1690	1690	1690	1698	1698	1698	1698	1706	1715	1715	1723	1723	1723	1732	1732	1732	1732	1741	1741	1750	1750	1759	1759	1759	1768	1768	1777	1777	1777	1786	1786	1786	1786	1786	1786	1777	1777	1768	1759	1759	1759	1759	1759	1750	1750	1750	1741	1741	1741	1732	1723	1723	1723	1723	1715	1715	1715	1715	1706	1706	1698	1698	1698	1698	1690	1690	1690	1681	1681	1673	1673	1665	1665	1665	1657	1657	1657	1657	1657	1657	1649	1649	1649	1649	1641	1641	1634	1634	1634	1626	1626	1626	1618	1618	1618	1611	1611	1603	1603	1603	1603	1603	1596	1596	1596	1589	1589	1581	1581	1581	1574	1567	1567	1567	1567	1567	1553	1553	1553	1553	1553	1546	1539	1539	1539	1532	1532	1525	1525	1525	1525	1525	1519	1519	1512	1506	1506	1506	1506	1499	1499	1499	1499	1499	1499	1499	1499	1486	1480	1480	1480	1473	1473	1473	1473	1473	1467	1461	1455	1455	1455	1455	1449	1443	1419	1407	1407	1396	1396	1396	1396	1396	1396	1396	1390	1390	1390	1385	1385	1385	1385	1385	1379	1379	1379	1379	1379	1379	1379	1379	1379	1379	1374	1374	1374	1374	1368	1368	1368	1368	1363	1358	1358	1358	1358	1358	1358	1352	1352	1352	1352	1347	1347	1342	1342	1342	1342	1342	1336	1336	1326	1326	1321	1321	1321	1321	1321	1316	1316	1316	1311	1311	1311	1311	1311	1311	1306	1306	1306	1306	1306	1306	1296	1296	1296	1296	1291	1291	1291	1291	1287	1287	1282	1277	1277	1277	1277	1277	1277	1272	1272	1263	1263	1263	1259	1259	1259	1259	1259	1259	1254	1254	1254	1254	1254	1249	1249	1249	1245	1240	1240	1236	1227	1227	1227	1227	1227	1227	1227	1223	1223	1210	1210	1214	1214	1214	1210	1206	1206	1202	1202	1202	1206	1197	1193	1189	1177	1177	1177	1173	1173	1173	1173	1173	1173	1169	1169	1165	1157	1157	1157	0	0	0	0	0	0	0	0	0	0	0	0	0	0	0	0	0
0	0	0	0	0	0	0	0	0	0	0	0	0	0	0	0	0	0	0	0	0	0	0	1681	1681	1681	1673	1673	1673	1681	1681	1681	1681	1681	1681	1690	1690	1698	1698	1698	1698	1706	1706	1706	1706	1706	1715	1715	1715	1715	1715	1715	1723	1723	1723	1723	1723	1732	1732	1741	1741	1741	1741	1750	1750	1750	1750	1750	1750	1759	1759	1768	1768	1777	1777	1777	1777	1777	1777	1786	1786	1786	1795	1795	1795	1804	1814	1814	1814	1814	1814	1814	1824	1824	1824	1824	1824	1824	1824	1833	1833	1833	1833	1853	1853	1863	1863	1863	1873	1873	1873	1873	1873	1873	1873	1883	1883	1894	1894	1904	1904	1904	1904	1915	1915	1915	1915	1925	1925	1925	1925	1936	1936	1936	1936	1936	1947	1947	1958	1958	1958	1969	1969	1980	1980	1980	1980	1980	1980	1992	1992	1992	2003	2015	2015	2015	2015	2015	2015	2015	2015	2015	2027	2027	2027	2027	2039	2039	2051	2051	2063	2063	2063	2063	2063	2063	2063	2063	2076	2076	2076	2076	2088	2088	2101	2101	2101	2101	2114	2114	2114	2114	2114	2127	2127	2114	2114	2114	2101	2076	2076	2063	2063	2063	2015	2015	2027	2027	1980	1969	1969	1947	1936	1936	1925	1915	1915	1915	1904	1894	1883	1873	1873	1873	1873	1814	1814	1804	1804	1795	1786	1786	1795	1804	1804	1804	1804	1804	1795	1795	1795	1750	1732	1732	1750	1750	1750	1750	1759	1759	1768	1768	1768	1768	1768	1804	1804	1804	1804	1795	1795	1759	1759	1759	0	0	0	0	0	0	0	0	0	0	0	0	0	0	1814	1824	1824	1833	1824	1824	1824	1824	1833	1853	1853	1657	1649	1649	1657	1665	1665	1665	1665	1665	1673	1673	1673	1681	1690	1690	1690	1698	1698	1698	1698	1706	1715	1723	1723	1723	1732	1732	1732	1732	1732	1741	1741	1750	1750	1750	1759	1759	1768	1768	1777	1777	1777	1786	1786	1786	1786	1786	1777	1777	1777	1768	1759	1759	1759	1759	1759	1750	1750	1750	1741	1741	1741	1732	1723	1723	1723	1723	1715	1715	1715	1715	1706	1706	1706	1698	1698	1698	1690	1690	1690	1681	1681	1681	1673	1673	1665	1665	1665	1657	1657	1657	1657	1649	1649	1649	1649	1649	1641	1641	1634	1634	1626	1626	1626	1626	1618	1618	1618	1611	1611	1603	1603	1603	1603	1603	1596	1596	1589	1589	1589	1589	1581	1581	1574	1567	1567	1567	1567	1567	1553	1553	1553	1553	1553	1546	1539	1532	1532	1532	1532	1532	1525	1525	1525	1525	1525	1519	1512	1512	1506	1506	1506	1499	1499	1499	1499	1499	1499	1492	1492	1486	1480	1480	1480	1473	1473	1473	1473	1473	1467	1461	1455	1455	1455	1449	1449	1443	1419	1407	1407	1396	1396	1396	1396	1396	1396	1396	1390	1390	1390	1385	1385	1385	1385	1385	1385	1379	1379	1379	1379	1379	1379	1379	1379	1379	1374	1374	1374	1374	1374	1368	1368	1368	1363	1358	1358	1358	1358	1358	1358	1352	1352	1352	1352	1347	1347	1342	1342	1342	1342	1342	1336	1331	1326	1326	1321	1321	1321	1321	1321	1316	1316	1316	1311	1311	1311	1311	1311	1311	1306	1306	1306	1301	1296	1296	1296	1296	1296	1296	1291	1291	1291	1291	1287	1287	1282	1277	1277	1277	1277	1277	1277	1272	1272	1268	1263	1263	1259	1259	1259	1259	1259	1259	1254	1254	1254	1254	1254	1249	1249	1245	1245	1240	1236	1236	1227	1227	1227	1227	1227	1227	1227	1223	1223	1219	1219	1219	1219	1219	1210	1206	1206	1202	1202	1202	1202	1202	1193	1193	1185	1181	1177	1177	1173	1173	1173	1173	1173	1173	1173	1169	1165	1165	1165	0	0	0	0	0	0	0	0	0	0	0	0	0	0	0	0	0
0	0	0	0	0	0	0	0	0	0	0	0	0	0	0	0	0	0	0	0	0	0	0	1681	1681	1681	1673	1673	1681	1681	1681	1681	1681	1681	1681	1690	1698	1698	1698	1698	1698	1706	1706	1706	1706	1706	1706	1715	1715	1715	1715	1715	1723	1723	1723	1723	1723	1732	1732	1741	1741	1741	1741	1750	1750	1750	1750	1750	1759	1759	1759	1768	1777	1777	1777	1777	1777	1786	1786	1786	1795	1795	1795	1795	1804	1804	1814	1814	1814	1814	1814	1814	1814	1814	1824	1824	1824	1824	1824	1833	1833	1843	1843	1853	1853	1853	1863	1863	1873	1883	1873	1873	1873	1873	1873	1883	1883	1883	1883	1894	1894	1904	1904	1915	1915	1915	1915	1925	1925	1925	1925	1936	1936	1936	1936	1947	1947	1958	1958	1969	1969	1969	1980	1980	1980	1980	1980	1980	1980	1992	2003	2015	2015	2015	2015	2015	2015	2015	2015	2015	2015	2015	2027	2027	2027	2039	2039	2039	2051	2051	2051	2063	2063	2063	2063	2063	2063	2063	2076	2076	2076	2076	2076	2088	2101	2101	2101	2101	2114	2114	2114	2114	2114	2114	2114	2114	2114	2114	2101	2063	2051	2027	2003	1992	1992	1992	1980	1980	1969	1958	1958	1947	1936	1936	1925	1915	1915	1915	1904	1894	1873	1863	1863	1863	1824	1804	1804	1804	1795	1795	1786	1786	1786	1795	1795	1795	1795	1795	1786	1777	1777	1750	1741	1741	1741	1750	1750	1759	1759	1759	1768	1768	1777	1777	1795	1804	1804	1804	1804	1795	1795	0	0	0	0	0	0	0	0	0	0	0	0	0	0	0	0	0	0	1824	1843	1833	1833	1833	1833	1843	1843	1853	1853	1657	1657	1657	1657	1665	1665	1665	1665	1665	1673	1673	1681	1681	1690	1690	1690	1698	1698	1698	1706	1706	1715	1723	1723	1723	1732	1732	1723	1723	1732	1732	1741	1750	1750	1750	1750	1759	1759	1768	1777	1777	1777	1777	1786	1786	1786	1786	1777	1777	1777	1768	1759	1759	1759	1759	1759	1750	1750	1750	1741	1741	1741	1732	1723	1723	1723	1715	1715	1715	1715	1715	1706	1706	1706	1706	1706	1698	1690	1690	1690	1681	1681	1681	1673	1673	1665	1665	1665	1657	1657	1657	1657	1657	1649	1649	1649	1641	1641	1641	1634	1634	1626	1626	1626	1618	1618	1618	1618	1611	1611	1603	1603	1603	1603	1596	1596	1596	1589	1589	1589	1581	1581	1581	1574	1567	1567	1567	1567	1560	1553	1553	1553	1553	1546	1546	1539	1532	1532	1532	1532	1532	1525	1525	1525	1525	1525	1525	1512	1512	1506	1506	1499	1499	1499	1499	1499	1499	1492	1492	1492	1480	1480	1480	1480	1473	1473	1473	1473	1473	1467	1461	1455	1455	1455	1449	1449	1449	1449	1407	1396	1396	1396	1396	1396	1396	1396	1396	1390	1390	1385	1385	1385	1385	1385	1385	1385	1379	1379	1379	1379	1379	1379	1379	1379	1379	1374	1374	1374	1374	1374	1363	1363	1368	1368	1363	1358	1358	1358	1358	1352	1352	1352	1352	1352	1352	1347	1347	1347	1342	1342	1336	1336	1331	1326	1326	1326	1326	1326	1321	1321	1316	1316	1316	1311	1311	1311	1311	1311	1311	1311	1311	1311	1301	1296	1296	1296	1296	1296	1296	1291	1291	1291	1291	1287	1282	1282	1277	1277	1277	1277	1277	1272	1272	1268	1268	1263	1263	1259	1259	1259	1259	1259	1259	1254	1254	1254	1254	1254	1249	1249	1245	1245	1240	1236	1236	1227	1227	1227	1227	1227	1227	1227	1223	1223	1219	1219	1219	1219	1219	1219	1210	1210	1206	1206	1206	1202	1202	1193	1193	1185	1185	1181	1177	1177	1173	1173	1177	1177	1173	1173	1173	1169	1169	1169	0	0	0	0	0	0	0	0	0	0	0	0	0	0	0	0	0
0	0	0	0	0	0	0	0	0	0	0	0	0	0	0	0	0	0	0	0	0	0	0	1681	1681	1681	1673	1673	1681	1681	1681	1681	1681	1681	1690	1698	1698	1698	1698	1698	1706	1706	1706	1706	1706	1706	1706	1715	1715	1715	1715	1715	1723	1723	1723	1723	1723	1732	1732	1741	1741	1741	1741	1750	1750	1750	1750	1750	1759	1768	1768	1768	1777	1777	1777	1777	1777	1786	1786	1786	1795	1795	1795	1795	1804	1804	1814	1814	1814	1814	1814	1814	1814	1814	1824	1824	1824	1824	1824	1833	1833	1843	1843	1853	1853	1853	1863	1863	1873	1883	1883	1883	1883	1883	1894	1894	1894	1883	1883	1894	1894	1904	1904	1904	1904	1915	1915	1925	1925	1925	1925	1936	1936	1936	1936	1947	1947	1958	1958	1969	1969	1969	1980	1980	1980	1980	1980	1980	1980	1992	2015	2015	2015	2015	2015	2015	2015	2015	2015	2015	2015	2027	2027	2027	2027	2039	2039	2039	2051	2051	2051	2051	2063	2063	2063	2063	2063	2063	2076	2076	2076	2076	2076	2088	2101	2101	2101	2101	2114	2114	2114	2114	2114	2114	2114	2114	2101	2076	2027	2015	2015	2003	2003	1980	1980	1980	1980	1969	1958	1947	1947	1947	1936	1936	1925	1925	1915	1915	1904	1894	1873	1853	1853	1843	1814	1804	1804	1795	1795	1786	1786	1786	1786	1786	1786	1786	1786	1786	1777	1768	1759	1750	1741	1741	1750	1750	1759	1759	1759	1768	1768	1777	1777	1786	1795	1804	1804	1804	1795	1795	1795	0	0	0	0	0	0	0	0	0	0	0	0	0	0	0	0	0	0	0	1843	1843	1843	1833	1833	1843	1843	1843	1843	1665	1665	1665	1665	1665	1665	1665	1665	1665	1673	1681	1681	1690	1690	1690	1690	1698	1698	1698	1706	1715	1715	1723	1723	1723	1732	1732	1723	1723	1732	1732	1741	1750	1750	1750	1750	1759	1759	1768	1768	1777	1777	1777	1786	1786	1786	1786	1786	1777	1777	1768	1759	1759	1759	1759	1759	1759	1750	1750	1750	1741	1741	1732	1723	1723	1715	1715	1715	1715	1715	1706	1706	1706	1706	1706	1706	1698	1690	1690	1690	1681	1681	1681	1673	1673	1665	1665	1665	1657	1657	1657	1657	1657	1649	1649	1649	1641	1641	1634	1634	1634	1626	1626	1626	1618	1618	1618	1618	1611	1611	1611	1603	1603	1603	1596	1596	1596	1589	1589	1589	1581	1581	1581	1574	1567	1567	1567	1567	1560	1553	1553	1553	1553	1546	1546	1539	1532	1532	1532	1532	1532	1532	1525	1525	1525	1525	1525	1512	1506	1506	1506	1499	1499	1499	1499	1499	1499	1492	1492	1492	1480	1480	1480	1480	1473	1473	1473	1473	1473	1467	1467	1461	1461	1455	1455	1449	1443	1443	1407	1396	1396	1396	1396	1396	1396	1396	1396	1390	1390	1385	1385	1385	1385	1385	1385	1385	1385	1379	1379	1379	1379	1379	1379	1379	1379	1374	1374	1374	1374	1374	1363	1363	1363	1363	1363	1358	1358	1358	1358	1352	1352	1352	1352	1352	1352	1347	1347	1347	1342	1342	1336	1336	1336	1326	1326	1326	1321	1321	1321	1321	1316	1316	1316	1311	1311	1311	1311	1311	1311	1306	1306	1306	1301	1296	1296	1296	1296	1296	1296	1291	1291	1291	1291	1287	1282	1282	1277	1277	1277	1277	1277	1272	1272	1268	1268	1263	1263	1259	1259	1259	1259	1254	1254	1254	1254	1254	1254	1254	1249	1249	1249	1245	1240	1236	1236	1232	1227	1227	1227	1227	1227	1227	1223	1219	1219	1219	1219	1219	1219	1219	1210	1210	1206	1206	1206	1202	1202	1193	1193	1185	1185	1181	1181	1177	1177	1177	1181	1181	1177	1177	1177	1173	1173	1173	0	0	0	0	0	0	0	0	0	0	0	0	0	0	0	0	0
0	0	0	0	0	0	0	0	0	0	0	0	0	0	0	0	0	0	0	0	0	0	0	1681	1681	1681	1681	1681	1681	1681	1681	1681	1681	1681	1681	1698	1698	1698	1698	1698	1706	1706	1706	1706	1706	1706	1706	1715	1715	1715	1723	1723	1723	1723	1723	1723	1723	1723	1732	1732	1741	1741	1741	1750	1750	1750	1750	1750	1759	1768	1768	1777	1777	1777	1777	1777	1786	1786	1786	1786	1795	1795	1804	1804	1804	1804	1814	1814	1814	1814	1814	1814	1824	1824	1824	1824	1824	1824	1833	1833	1833	1843	1843	1843	1853	1853	1863	1863	1873	1883	1883	1894	1883	1883	1894	1894	1894	1894	1894	1894	1904	1904	1904	1904	1904	1915	1915	1925	1925	1925	1925	1936	1936	1936	1936	1947	1958	1969	1969	1969	1969	1969	1980	1980	1980	1980	1980	1980	1992	2003	2015	2015	2015	2015	2015	2015	2015	2015	2015	2015	2015	2027	2027	2027	2027	2027	2039	2039	2039	2039	2027	2027	2027	2039	2039	2051	2051	2063	2063	2076	2076	2076	2088	2088	2101	2101	2101	2101	2114	2114	2114	2114	2114	2114	2114	2101	2051	2027	2015	1992	1992	1992	1992	1980	1980	1969	1969	1969	1936	1936	1936	1947	1947	1936	1925	1925	1915	1915	1894	1883	1863	1843	1843	1833	1814	1804	1804	1795	1795	1786	1786	1786	1786	1786	1786	1786	1786	1786	1777	1768	1759	1741	1741	1741	1750	1750	1759	1759	1759	1759	1768	1777	1777	1786	1786	1804	1795	1795	1795	1795	1804	1804	1804	0	0	0	0	0	0	1843	1843	1853	1853	0	0	0	0	0	0	0	0	1843	1843	1833	1833	1843	1843	1843	1843	1665	1665	1665	1665	1665	1665	1665	1665	1665	1673	1681	1681	1690	1690	1690	1690	1698	1698	1698	1706	1715	1723	1723	1723	1732	1732	1732	1723	1723	1732	1732	1732	1750	1750	1750	1750	1759	1759	1768	1768	1777	1777	1786	1786	1786	1786	1786	1777	1777	1777	1768	1759	1759	1759	1759	1759	1750	1750	1750	1750	1741	1732	1732	1723	1723	1715	1715	1715	1715	1715	1706	1706	1706	1706	1706	1706	1698	1690	1690	1690	1681	1681	1681	1673	1673	1665	1665	1665	1657	1657	1657	1657	1657	1649	1649	1649	1641	1641	1634	1634	1626	1626	1626	1626	1626	1618	1618	1618	1611	1611	1611	1603	1603	1603	1596	1596	1596	1589	1589	1589	1581	1581	1581	1574	1574	1567	1567	1567	1560	1553	1553	1553	1553	1546	1546	1539	1539	1532	1532	1532	1532	1532	1525	1525	1525	1525	1512	1512	1506	1506	1506	1506	1499	1499	1499	1499	1499	1492	1492	1492	1486	1480	1480	1480	1480	1473	1473	1473	1473	1467	1467	1455	1455	1455	1455	1449	1443	1443	1407	1396	1396	1402	1396	1396	1396	1396	1396	1390	1390	1385	1385	1385	1385	1385	1385	1385	1385	1379	1379	1379	1379	1379	1379	1374	1374	1374	1374	1368	1368	1368	1363	1363	1363	1363	1363	1363	1363	1358	1358	1358	1352	1352	1352	1352	1352	1352	1347	1347	1342	1342	1336	1336	1336	1326	1326	1326	1321	1321	1321	1321	1316	1316	1311	1311	1311	1306	1306	1311	1311	1306	1306	1301	1301	1296	1296	1296	1296	1296	1296	1291	1291	1291	1287	1287	1282	1282	1277	1277	1277	1277	1272	1272	1272	1268	1263	1263	1263	1259	1259	1259	1259	1254	1254	1254	1254	1254	1254	1254	1249	1245	1240	1240	1240	1236	1236	1232	1227	1227	1227	1227	1227	1223	1223	1219	1219	1219	1219	1219	1219	1219	1219	1214	1206	1206	1206	1202	1202	1197	1197	1185	1185	1185	1185	1181	1181	1181	1185	1185	1185	1185	1181	1177	1177	1177	0	0	0	0	0	0	0	0	0	0	0	0	0	0	0	0	0
0	0	0	0	0	0	0	0	0	0	0	0	0	0	0	0	0	0	0	0	0	0	0	1681	1681	1681	1681	1681	1681	1681	1681	1673	1673	1681	1681	1690	1698	1698	1706	1706	1706	1706	1706	1706	1706	1706	1706	1715	1715	1715	1723	1715	1715	1723	1723	1723	1723	1723	1732	1732	1741	1741	1741	1750	1750	1750	1750	1750	1750	1759	1768	1777	1777	1777	1777	1777	1777	1786	1786	1786	1795	1795	1804	1804	1804	1804	1814	1814	1814	1814	1814	1824	1824	1824	1824	1824	1824	1824	1833	1833	1833	1843	1843	1843	1853	1853	1853	1863	1873	1883	1883	1894	1883	1883	1894	1894	1894	1894	1894	1894	1904	1904	1904	1904	1904	1915	1915	1925	1925	1925	1925	1936	1936	1936	1947	1947	1947	1958	1969	1969	1969	1969	1969	1969	1969	1969	1980	1980	1980	1992	2003	2003	2015	2015	2015	2015	2015	2015	2027	2027	2027	2027	2027	2027	2027	2027	2027	2027	2027	2015	2015	2015	2027	2027	2027	2039	2039	2063	2063	2076	2076	2088	2088	2101	2101	2101	2101	2101	2101	2114	2114	2101	2101	2101	2101	2027	2027	2015	2003	1992	1992	1992	1980	1980	1980	1969	1958	1958	1925	1925	1925	1947	1947	1947	1936	1936	1915	1915	1883	1853	1853	1843	1843	1833	1824	1814	1804	1795	1795	1786	1786	1786	1786	1786	1786	1786	1786	1786	1768	1768	1759	1741	1741	1741	1750	1750	1759	1759	1759	1768	1768	1777	1777	1786	1786	1786	1795	1795	1795	1795	1795	1795	1795	1795	1795	0	1833	1833	1833	1833	1833	1843	1853	1863	1853	1853	1863	1863	0	0	0	1843	1853	1843	1843	1843	1873	1873	1673	1673	1665	1665	1665	1665	1665	1665	1665	1665	1673	1681	1681	1690	1690	1690	1690	1698	1698	1698	1706	1715	1723	1723	1723	1732	1732	1732	1732	1732	1732	1732	1732	1741	1741	1750	1750	1750	1750	1759	1768	1777	1777	1786	1786	1786	1786	1786	1777	1777	1777	1768	1759	1759	1759	1759	1759	1750	1750	1750	1741	1741	1732	1732	1723	1715	1715	1715	1715	1715	1715	1715	1706	1706	1706	1706	1706	1698	1690	1690	1690	1681	1681	1681	1673	1673	1665	1665	1665	1657	1657	1657	1657	1657	1649	1649	1649	1641	1641	1634	1634	1626	1626	1626	1626	1618	1618	1618	1618	1611	1611	1611	1611	1603	1603	1596	1596	1596	1589	1589	1589	1581	1581	1581	1574	1574	1574	1567	1567	1567	1553	1553	1553	1553	1546	1546	1539	1539	1532	1532	1532	1532	1532	1525	1525	1525	1525	1512	1512	1506	1506	1506	1506	1499	1499	1499	1499	1499	1492	1492	1492	1486	1480	1480	1480	1480	1473	1473	1473	1473	1467	1461	1455	1455	1455	1455	1449	1443	1407	1407	1396	1396	1396	1396	1396	1396	1396	1396	1390	1390	1385	1385	1385	1385	1385	1385	1385	1385	1385	1379	1379	1379	1379	1379	1374	1374	1374	1368	1368	1368	1368	1363	1363	1363	1363	1363	1363	1358	1358	1358	1358	1358	1352	1352	1352	1352	1352	1342	1342	1347	1342	1342	1336	1336	1326	1326	1326	1321	1321	1326	1321	1316	1316	1311	1311	1306	1306	1306	1306	1311	1306	1306	1301	1301	1296	1296	1296	1296	1291	1291	1291	1291	1291	1287	1287	1282	1282	1277	1277	1277	1277	1272	1272	1272	1268	1268	1268	1263	1259	1259	1259	1254	1254	1254	1254	1254	1254	1254	1249	1249	1245	1240	1240	1236	1236	1236	1232	1227	1227	1227	1227	1227	1223	1223	1223	1219	1219	1219	1219	1219	1219	1219	1214	1206	1206	1206	1206	1206	1202	1202	1189	1189	1193	1189	1189	1185	1185	1189	1189	1193	1189	1185	1181	1181	1181	0	0	0	0	0	0	0	0	0	0	0	0	0	0	0	0	0
0	0	0	0	0	0	0	0	0	0	0	0	0	0	0	0	0	0	0	0	0	0	0	1681	1681	1681	1681	1681	1681	1681	1681	1673	1673	1681	1681	1690	1690	1698	1706	1706	1706	1706	1706	1706	1706	1706	1706	1715	1715	1715	1723	1715	1715	1715	1723	1723	1723	1723	1723	1732	1741	1741	1741	1750	1750	1750	1750	1750	1750	1759	1759	1768	1777	1777	1777	1777	1777	1786	1786	1786	1795	1814	1804	1804	1804	1814	1814	1814	1814	1814	1824	1824	1824	1824	1824	1824	1824	1824	1833	1833	1833	1843	1843	1843	1853	1853	1853	1873	1873	1883	1883	1894	1883	1883	1894	1894	1894	1894	1894	1904	1904	1904	1904	1904	1904	1915	1915	1925	1925	1925	1925	1936	1936	1936	1947	1947	1947	1958	1969	1969	1969	1969	1969	1969	1969	1969	1980	1980	1980	1992	2003	2003	2003	2015	2015	2015	2015	2015	2015	2027	2027	2027	2027	2027	2027	2027	2015	2015	2015	2003	2003	2003	2015	2015	2015	2027	2051	2051	2063	2063	2076	2076	2076	2076	2088	2101	2101	2088	2088	2114	2101	2088	2027	2027	2063	2027	2027	2015	1992	1980	1980	1980	1980	1969	1969	1958	1958	1958	1915	1915	1925	1936	1947	1947	1947	1936	1925	1915	1863	1853	1843	1843	1833	1833	1833	1824	1814	1804	1795	1795	1786	1786	1786	1786	1786	1786	1786	1777	1768	1759	1759	1759	1759	1750	1750	1759	1759	1759	1768	1768	1777	1777	1777	1786	1786	1795	1795	1795	1795	1795	1795	1795	1795	1795	1804	1814	1814	1824	1824	1833	1833	1843	1853	1863	1853	1853	1853	1853	0	0	0	0	1863	1863	1873	1873	1873	1873	1873	1673	1665	1665	1665	1665	1665	1665	1665	1665	1673	1681	1681	1690	1690	1690	1690	1698	1698	1698	1706	1723	1723	1723	1723	1732	1732	1732	1732	1732	1732	1732	1732	1741	1741	1750	1750	1750	1750	1759	1768	1768	1777	1786	1786	1786	1786	1786	1777	1777	1777	1768	1759	1759	1759	1759	1750	1750	1750	1750	1741	1741	1732	1732	1723	1715	1715	1715	1715	1715	1715	1715	1715	1706	1706	1706	1706	1698	1690	1690	1690	1681	1681	1681	1673	1673	1665	1665	1665	1657	1657	1657	1657	1657	1649	1649	1649	1641	1634	1634	1626	1626	1626	1626	1626	1618	1618	1618	1618	1611	1611	1603	1603	1596	1596	1596	1596	1596	1589	1589	1589	1589	1589	1581	1574	1574	1574	1567	1567	1567	1560	1553	1553	1553	1546	1546	1539	1532	1532	1532	1532	1532	1532	1525	1525	1525	1525	1519	1519	1512	1506	1506	1506	1499	1499	1499	1499	1499	1492	1492	1492	1486	1486	1480	1480	1480	1473	1473	1473	1473	1467	1461	1461	1461	1455	1455	1449	1437	1437	1402	1396	1396	1396	1396	1396	1396	1396	1396	1390	1390	1385	1385	1385	1385	1385	1385	1385	1385	1385	1379	1379	1379	1379	1379	1374	1374	1374	1374	1368	1368	1368	1368	1363	1363	1363	1363	1363	1358	1358	1358	1358	1352	1352	1347	1347	1347	1347	1342	1342	1342	1342	1342	1336	1336	1331	1326	1326	1326	1326	1316	1316	1316	1316	1311	1311	1306	1306	1306	1306	1311	1306	1301	1301	1301	1296	1296	1296	1291	1291	1291	1291	1291	1287	1287	1287	1287	1282	1277	1277	1277	1277	1277	1272	1272	1268	1263	1263	1263	1259	1259	1259	1254	1254	1254	1254	1254	1254	1249	1249	1245	1240	1240	1240	1236	1236	1236	1232	1227	1227	1227	1227	1227	1223	1223	1223	1223	1219	1219	1219	1219	1219	1219	1219	1214	1206	1206	1206	1206	1202	1202	1197	1197	1197	1193	1193	1193	1193	1193	1193	1197	1193	1189	1185	1185	1185	0	0	0	0	0	0	0	0	0	0	0	0	0	0	0	0	0
0	0	0	0	0	0	0	0	0	0	0	0	0	0	0	0	0	0	0	0	0	0	0	1681	1681	1681	1681	1681	1681	1681	1681	1681	1681	1681	1681	1690	1690	1698	1698	1706	1706	1706	1706	1706	1706	1706	1706	1706	1706	1715	1723	1715	1715	1715	1723	1723	1723	1723	1723	1732	1741	1741	1741	1750	1750	1750	1750	1750	1750	1759	1759	1768	1777	1777	1777	1777	1777	1786	1786	1786	1795	1795	1804	1804	1804	1814	1814	1814	1814	1814	1824	1814	1814	1814	1814	1824	1824	1824	1833	1833	1833	1843	1843	1843	1853	1853	1863	1873	1873	1883	1883	1894	1883	1883	1894	1894	1894	1894	1894	1894	1904	1904	1915	1915	1904	1915	1915	1925	1925	1925	1925	1936	1936	1936	1947	1947	1947	1958	1969	1969	1969	1969	1969	1969	1969	1969	1980	1980	1980	1992	2003	2003	2003	2015	2015	2015	2015	2015	2015	2027	2027	2027	2027	2027	2015	2015	2015	2015	2015	1992	1992	1992	1992	1992	2015	2015	2051	2063	2063	2063	2063	2063	2076	2076	2076	2088	2088	2076	2076	2101	2088	2063	2027	2027	2039	2027	2015	2003	1980	1980	1980	1980	1969	1969	1969	1958	1958	1904	1904	1904	1915	1925	1936	1936	1936	1936	1863	1843	1843	1843	1843	1833	1833	1833	1833	1824	1814	1804	1804	1795	1795	1786	1786	1786	1786	1786	1777	1777	1768	1759	1759	1759	1759	1759	1759	1759	1759	1768	1768	1768	1777	1777	1777	1786	1795	1795	1795	1795	1795	1804	1804	1804	1804	1804	1804	1804	1814	1814	1824	1824	1833	1853	1853	1863	1853	1853	1853	1853	0	0	0	0	1863	1863	1873	1873	1873	1873	1673	1673	1665	1665	1665	1665	1665	1665	1665	1665	1673	1681	1681	1690	1690	1690	1690	1698	1698	1698	1706	1723	1723	1723	1723	1732	1732	1732	1732	1732	1732	1741	1741	1750	1750	1750	1750	1750	1759	1759	1768	1768	1777	1786	1786	1786	1786	1786	1777	1777	1777	1768	1759	1759	1759	1759	1750	1750	1750	1750	1741	1741	1732	1732	1723	1715	1715	1715	1715	1715	1715	1715	1715	1715	1715	1706	1706	1698	1690	1690	1690	1681	1681	1681	1681	1673	1673	1665	1665	1657	1657	1657	1657	1657	1649	1649	1649	1641	1634	1634	1626	1626	1626	1626	1626	1618	1618	1618	1618	1611	1611	1603	1603	1596	1596	1596	1596	1596	1589	1589	1589	1581	1581	1581	1574	1574	1574	1567	1567	1567	1560	1553	1553	1553	1546	1546	1546	1532	1532	1532	1532	1532	1532	1525	1525	1525	1525	1512	1512	1506	1506	1506	1506	1499	1499	1499	1492	1492	1492	1492	1492	1492	1480	1480	1480	1480	1473	1473	1473	1467	1467	1461	1461	1455	1455	1455	1449	1437	1437	1402	1396	1396	1396	1396	1396	1402	1402	1396	1390	1390	1385	1385	1385	1385	1385	1385	1385	1385	1385	1379	1379	1379	1379	1379	1374	1374	1374	1368	1368	1368	1368	1368	1363	1363	1363	1363	1363	1363	1358	1358	1358	1352	1352	1347	1347	1347	1347	1342	1342	1342	1342	1342	1342	1336	1331	1326	1326	1326	1326	1316	1316	1316	1316	1311	1311	1306	1306	1306	1306	1311	1306	1306	1306	1296	1296	1296	1296	1291	1291	1291	1287	1287	1287	1287	1287	1282	1282	1277	1277	1277	1277	1277	1277	1272	1268	1263	1263	1263	1259	1259	1259	1254	1254	1254	1254	1249	1249	1249	1249	1245	1240	1240	1240	1240	1236	1236	1236	1236	1227	1227	1232	1232	1227	1223	1223	1223	1219	1219	1219	1219	1219	1219	1219	1219	1219	1210	1210	1210	1206	1202	1197	1197	1197	1197	1197	1193	1193	1197	1197	1197	1197	1189	1189	1189	1185	0	0	0	0	0	0	0	0	0	0	0	0	0	0	0	0	0
0	0	0	0	0	0	0	0	0	0	0	0	0	0	0	0	0	0	0	0	0	0	0	1681	1681	1681	1681	1681	1681	1681	1681	1681	1681	1681	1681	1681	1690	1690	1698	1698	1706	1706	1706	1706	1706	1706	1706	1706	1706	1715	1723	1715	1715	1715	1723	1723	1732	1723	1723	1732	1741	1741	1741	1741	1741	1750	1750	1750	1759	1759	1759	1768	1768	1768	1777	1777	1777	1786	1786	1786	1786	1795	1804	1804	1804	1814	1814	1814	1814	1814	1814	1814	1814	1814	1814	1814	1824	1824	1824	1833	1833	1843	1843	1843	1853	1863	1863	1873	1873	1883	1883	1894	1883	1883	1883	1894	1894	1894	1904	1894	1904	1904	1915	1904	1904	1904	1915	1925	1925	1925	1925	1936	1936	1936	1947	1947	1947	1958	1969	1969	1969	1969	1969	1980	1980	1969	1969	1980	1980	1980	2003	2003	2003	2015	2015	2015	2015	2015	2027	2027	2027	2027	2027	2027	2015	2015	2015	2003	2003	1992	1992	1992	1992	1992	1992	2003	2051	2063	2063	2063	2063	2063	2063	2063	2063	2063	2063	2063	2063	2076	2076	2051	2027	2027	2027	2015	2015	2003	1980	1969	1969	1980	1969	1958	1958	1894	1883	1883	1883	1894	1894	1894	1894	1904	1936	1936	1853	1843	1843	1843	1843	1833	1833	1833	1833	1833	1824	1814	1804	1795	1795	1786	1786	1786	1786	1777	1768	1768	1768	1768	1759	1759	1759	1759	1759	1759	1759	1768	1768	1768	1777	1777	1777	1786	1786	1795	1795	1795	1795	1804	1804	1804	1804	1804	1814	1824	1824	1824	1824	1824	1833	1843	1843	1843	1853	1853	1853	1853	0	0	0	0	1873	1873	1873	1883	1883	1665	1665	1665	1665	1665	1665	1665	1665	1665	1665	1665	1665	1681	1681	1681	1690	1690	1690	1698	1698	1698	1706	1723	1723	1723	1723	1732	1732	1732	1732	1732	1732	1741	1741	1750	1750	1750	1750	1759	1759	1759	1768	1768	1777	1786	1786	1786	1786	1786	1777	1768	1768	1768	1759	1759	1759	1759	1750	1750	1750	1750	1750	1741	1732	1732	1723	1715	1715	1715	1715	1715	1715	1715	1715	1715	1715	1706	1706	1698	1690	1690	1690	1681	1681	1681	1681	1673	1673	1673	1665	1657	1657	1657	1657	1657	1649	1649	1649	1641	1641	1634	1634	1634	1626	1626	1626	1618	1618	1618	1618	1611	1603	1603	1603	1596	1596	1596	1596	1589	1589	1589	1589	1581	1581	1581	1574	1574	1574	1567	1567	1567	1560	1553	1553	1553	1539	1539	1539	1532	1532	1532	1532	1532	1532	1525	1525	1519	1519	1512	1512	1506	1506	1506	1506	1499	1499	1499	1492	1492	1492	1486	1480	1480	1480	1480	1480	1480	1473	1473	1473	1467	1467	1461	1461	1455	1455	1449	1449	1443	1443	1402	1396	1396	1396	1402	1396	1396	1402	1396	1390	1390	1385	1385	1385	1385	1385	1385	1385	1385	1385	1379	1379	1379	1379	1379	1374	1374	1374	1368	1368	1368	1368	1368	1363	1363	1363	1363	1363	1363	1363	1358	1358	1352	1352	1347	1347	1347	1347	1342	1342	1342	1342	1342	1336	1336	1331	1326	1326	1326	1326	1321	1321	1321	1316	1316	1311	1311	1306	1306	1311	1306	1306	1301	1301	1296	1296	1296	1296	1291	1291	1291	1287	1287	1287	1287	1287	1282	1277	1277	1277	1277	1277	1272	1272	1272	1263	1263	1263	1263	1263	1263	1259	1254	1254	1254	1254	1249	1249	1249	1249	1245	1240	1240	1240	1240	1236	1236	1236	1236	1236	1236	1232	1232	1232	1227	1227	1223	1219	1219	1219	1219	1219	1223	1223	1223	1223	1219	1219	1219	1206	1206	1202	1202	1202	1202	1197	1197	1197	1197	1197	1197	1197	1189	1189	1189	0	0	0	0	0	0	0	0	0	0	0	0	0	0	0	0	0	0
0	0	0	0	0	0	0	0	0	0	0	0	0	0	0	0	0	0	0	0	0	0	0	1681	1681	1681	1681	1681	1681	1681	1681	1681	1681	1681	1681	1681	1690	1698	1698	1698	1706	1706	1706	1706	1715	1715	1715	1715	1715	1715	1723	1723	1715	1715	1723	1723	1732	1723	1723	1732	1741	1741	1741	1741	1741	1750	1750	1750	1759	1759	1759	1768	1768	1768	1777	1777	1777	1786	1786	1786	1786	1795	1795	1804	1804	1814	1814	1814	1814	1814	1814	1824	1814	1814	1814	1814	1824	1824	1824	1833	1833	1843	1843	1853	1853	1863	1873	1873	1883	1883	1883	1894	1883	1883	1883	1894	1894	1894	1904	1894	1904	1904	1904	1904	1904	1904	1925	1925	1925	1925	1925	1925	1936	1936	1947	1947	1947	1958	1969	1969	1969	1969	1969	1980	1980	1969	1969	1980	1980	1980	2003	2003	2003	2015	2015	2015	2015	2015	2027	2027	2027	2027	2027	2027	2015	2015	2003	2003	2003	1992	1992	1992	1992	1992	1992	2003	2003	2003	2063	2063	2051	2051	2039	2039	2039	2039	2039	2051	2051	2051	2051	2039	2027	2027	2027	2015	2015	2003	1969	1969	1969	1969	1958	1894	1883	1883	1873	1873	1873	1883	1883	1883	1883	1894	1883	1863	1843	1843	1843	1843	1843	1833	1833	1833	1833	1833	1833	1814	1804	1795	1795	1786	1786	1786	1786	1777	1768	1768	1768	1759	1759	1759	1759	1759	1759	1759	1768	1768	1768	1768	1768	1777	1777	1777	1786	1786	1795	1795	1795	1804	1804	1804	1814	1814	1824	1824	1824	1833	1833	1833	1833	1843	1843	1853	1853	1853	1853	1853	1863	1863	1863	1863	1863	1873	1873	1883	1883	1665	1665	1665	1665	1665	1665	1665	1665	1665	1665	1665	1665	1673	1673	1681	1690	1690	1690	1698	1698	1698	1706	1723	1723	1723	1723	1732	1732	1741	1741	1741	1741	1741	1750	1750	1750	1750	1750	1759	1759	1759	1768	1768	1777	1786	1786	1786	1786	1786	1777	1768	1768	1768	1759	1759	1759	1759	1750	1750	1750	1750	1750	1741	1732	1732	1723	1715	1715	1715	1715	1715	1715	1715	1715	1715	1706	1706	1706	1698	1698	1690	1690	1690	1690	1681	1681	1673	1673	1673	1665	1657	1657	1657	1657	1657	1649	1649	1649	1641	1641	1641	1634	1626	1626	1626	1626	1618	1618	1618	1611	1611	1603	1603	1603	1596	1596	1596	1596	1589	1589	1589	1589	1581	1581	1581	1574	1574	1574	1567	1567	1567	1560	1553	1553	1553	1539	1539	1539	1532	1532	1532	1532	1532	1525	1525	1525	1519	1519	1512	1512	1506	1506	1506	1506	1499	1499	1499	1492	1492	1486	1486	1480	1480	1480	1480	1480	1480	1473	1473	1473	1467	1467	1461	1461	1455	1455	1449	1449	1443	1443	1402	1402	1402	1402	1402	1396	1396	1396	1396	1390	1390	1385	1385	1385	1385	1385	1385	1385	1385	1385	1385	1379	1379	1379	1379	1374	1374	1374	1374	1368	1368	1368	1368	1363	1363	1363	1363	1358	1358	1358	1358	1358	1352	1352	1342	1342	1347	1347	1342	1342	1342	1342	1336	1336	1336	1331	1331	1326	1326	1316	1316	1321	1316	1316	1316	1311	1311	1306	1306	1311	1306	1306	1301	1301	1296	1296	1296	1296	1291	1291	1291	1291	1291	1287	1287	1287	1287	1277	1277	1277	1277	1272	1272	1272	1268	1263	1263	1263	1263	1263	1263	1263	1259	1259	1254	1254	1249	1249	1249	1249	1245	1240	1240	1240	1240	1236	1236	1236	1236	1236	1236	1236	1236	1236	1227	1227	1223	1219	1219	1219	1219	1219	1223	1223	1223	1223	1223	1219	1219	1214	1214	1202	1202	1202	1202	1202	1202	1202	1202	1202	1197	1193	1189	1189	1189	0	0	0	0	0	0	0	0	0	0	0	0	0	0	0	0	0	0
0	0	0	0	0	0	0	0	0	0	0	0	0	0	0	0	0	0	0	0	0	0	0	1681	1681	1681	1681	1681	1681	1681	1681	1681	1681	1681	1681	1681	1690	1698	1698	1698	1706	1706	1706	1715	1715	1715	1715	1715	1715	1723	1732	1732	1715	1715	1723	1723	1732	1723	1723	1732	1741	1741	1741	1741	1750	1750	1750	1759	1759	1759	1759	1768	1768	1768	1768	1768	1777	1777	1786	1786	1795	1795	1795	1804	1804	1814	1814	1814	1814	1814	1824	1814	1814	1814	1814	1814	1824	1824	1824	1833	1843	1843	1843	1853	1853	1863	1873	1883	1883	1883	1883	1894	1883	1883	1894	1894	1894	1894	1894	1894	1904	1904	1904	1904	1904	1904	1925	1925	1925	1925	1925	1925	1936	1936	1947	1947	1958	1958	1969	1969	1969	1969	1969	1980	1980	1980	1980	1980	1980	1980	2003	2003	2003	2003	2015	2015	2015	2015	2027	2027	2027	2027	2027	2027	2015	2015	2003	2003	2003	1992	1992	1992	1992	1992	2003	2003	2003	2015	2015	2015	2015	2015	2027	2027	2027	2039	2039	2039	2039	2051	2051	2039	2027	2015	2015	2027	2015	2003	1969	1969	1969	1969	1883	1873	1873	1873	1873	1873	1873	1883	1883	1883	1883	1883	1873	1853	1843	1843	1843	1843	1843	1843	1843	1843	1843	1833	1833	1824	1804	1795	1795	1786	1786	1786	1786	1768	1768	1768	1768	1759	1759	1759	1759	1759	1759	1759	1768	1768	1768	1768	1768	1777	1777	1777	1786	1786	1795	1795	1795	1804	1804	1804	1814	1814	1824	1824	1824	1833	1833	1833	1833	1843	1843	1853	1853	1853	1863	1863	1863	1863	1863	1863	1863	1873	1873	1883	1883	1665	1665	1665	1665	1665	1665	1665	1665	1665	1665	1665	1673	1673	1673	1681	1681	1690	1690	1698	1698	1698	1706	1723	1723	1723	1723	1732	1732	1741	1741	1741	1741	1750	1750	1750	1750	1750	1759	1759	1768	1768	1768	1777	1777	1786	1786	1786	1786	1786	1777	1768	1768	1768	1759	1759	1759	1759	1750	1750	1750	1750	1750	1741	1741	1732	1723	1715	1715	1715	1715	1706	1706	1706	1706	1706	1706	1706	1706	1698	1698	1690	1690	1690	1690	1681	1681	1681	1673	1673	1665	1657	1657	1657	1657	1657	1649	1649	1649	1641	1641	1641	1634	1626	1626	1626	1626	1626	1618	1618	1611	1611	1603	1603	1603	1596	1596	1596	1596	1589	1589	1589	1589	1581	1581	1581	1574	1574	1574	1567	1567	1567	1560	1553	1553	1553	1546	1546	1539	1539	1532	1532	1532	1532	1525	1525	1525	1519	1519	1512	1512	1506	1506	1506	1506	1506	1499	1499	1492	1486	1480	1480	1480	1480	1480	1480	1480	1480	1473	1473	1467	1467	1461	1461	1461	1455	1455	1443	1431	1413	1413	1402	1402	1402	1402	1402	1396	1396	1396	1396	1390	1390	1385	1385	1385	1385	1385	1385	1385	1379	1379	1379	1379	1379	1379	1374	1374	1374	1374	1374	1368	1368	1368	1363	1363	1363	1363	1358	1358	1358	1358	1358	1358	1352	1352	1342	1342	1342	1342	1342	1342	1342	1342	1336	1336	1336	1331	1331	1326	1326	1316	1316	1316	1316	1316	1316	1316	1311	1306	1306	1311	1306	1301	1301	1301	1301	1296	1296	1296	1291	1291	1291	1291	1291	1291	1291	1287	1287	1277	1277	1277	1277	1272	1272	1272	1268	1263	1263	1263	1263	1263	1263	1263	1259	1259	1259	1254	1254	1254	1249	1249	1249	1240	1240	1240	1240	1236	1236	1236	1236	1240	1240	1240	1240	1240	1236	1236	1223	1223	1223	1223	1219	1219	1223	1223	1223	1223	1223	1223	1219	1219	1219	1210	1206	1206	1206	1202	1202	1202	1202	1202	1197	1197	1193	1193	1193	0	0	0	0	0	0	0	0	0	0	0	0	0	0	0	0	0	0
0	0	0	0	0	0	0	0	0	0	0	0	0	0	0	0	0	0	0	0	0	0	0	1681	1681	1681	1681	1681	1681	1681	1681	1681	1681	1681	1681	1681	1690	1698	1706	1706	1706	1706	1706	1715	1715	1715	1715	1715	1723	1723	1732	1732	1715	1715	1723	1723	1732	1732	1732	1732	1741	1741	1741	1741	1750	1750	1750	1759	1759	1759	1759	1759	1759	1768	1768	1768	1777	1777	1786	1786	1795	1795	1804	1804	1804	1814	1814	1814	1814	1814	1824	1814	1814	1814	1814	1814	1824	1824	1824	1833	1843	1843	1853	1853	1853	1853	1863	1883	1883	1883	1883	1894	1883	1883	1883	1894	1894	1894	1894	1894	1904	1904	1904	1904	1904	1904	1925	1925	1925	1936	1936	1936	1936	1936	1936	1947	1947	1958	1958	1969	1969	1969	1969	1980	1980	1980	1980	1980	1980	1980	1992	1992	2003	2003	2015	2015	2015	2015	2015	2027	2027	2027	2027	2027	2015	2015	2015	2003	1992	1992	1992	1992	1992	1992	2003	2003	2015	2015	2015	2015	2003	2003	2015	2015	2027	2027	2027	2039	2039	2051	2051	2039	2039	2015	2015	2015	2015	2003	1947	1947	1947	1873	1873	1873	1873	1873	1873	1873	1873	1883	1883	1883	1883	1883	1873	1853	1843	1843	1843	1843	1843	1843	1843	1843	1843	1833	1833	1824	1804	1804	1795	1786	1786	1786	1786	1768	1768	1768	1768	1759	1759	1759	1759	1759	1759	1759	1768	1768	1768	1768	1777	1777	1777	1777	1786	1786	1795	1795	1795	1804	1804	1804	1814	1814	1824	1824	1824	1833	1833	1833	1833	1843	1843	1853	1853	1853	1853	1863	1863	1863	1873	1873	1873	1873	1883	1904	1904	1665	1665	1665	1665	1665	1665	1665	1665	1665	1665	1665	1665	1673	1673	1681	1681	1690	1690	1698	1698	1698	1706	1715	1715	1723	1723	1723	1732	1741	1741	1741	1741	1750	1750	1750	1750	1750	1759	1759	1768	1768	1768	1768	1786	1786	1786	1786	1786	1786	1777	1768	1768	1768	1759	1759	1759	1750	1750	1750	1750	1750	1741	1741	1741	1732	1723	1723	1715	1715	1715	1706	1706	1706	1706	1706	1706	1698	1698	1698	1698	1690	1690	1690	1690	1690	1681	1681	1673	1673	1665	1657	1657	1657	1657	1649	1649	1649	1649	1641	1641	1641	1634	1626	1626	1626	1626	1626	1618	1618	1611	1611	1603	1603	1603	1596	1596	1596	1596	1589	1589	1589	1589	1581	1581	1581	1574	1574	1574	1567	1567	1567	1560	1553	1553	1553	1546	1546	1539	1539	1532	1532	1532	1532	1525	1525	1525	1519	1519	1512	1512	1512	1506	1506	1506	1499	1499	1492	1486	1486	1480	1480	1480	1480	1480	1480	1480	1473	1473	1467	1467	1467	1461	1455	1455	1455	1449	1431	1419	1413	1402	1402	1402	1402	1402	1402	1396	1396	1396	1396	1390	1390	1390	1385	1385	1385	1385	1385	1385	1379	1379	1379	1379	1379	1379	1374	1374	1374	1374	1374	1368	1368	1363	1363	1363	1363	1358	1358	1358	1358	1358	1358	1358	1358	1352	1342	1342	1342	1342	1342	1342	1342	1342	1342	1336	1336	1331	1331	1326	1326	1316	1316	1316	1316	1316	1316	1316	1311	1311	1311	1311	1306	1306	1301	1301	1301	1296	1296	1296	1291	1291	1291	1291	1291	1291	1291	1291	1282	1277	1277	1277	1277	1272	1272	1272	1272	1272	1272	1263	1263	1268	1272	1268	1263	1263	1259	1259	1254	1254	1249	1249	1249	1245	1245	1240	1240	1240	1236	1236	1236	1249	1249	1245	1245	1240	1240	1236	1232	1227	1223	1223	1219	1219	1223	1223	1223	1223	1223	1223	1219	1219	1214	1214	1210	1206	1206	1202	1202	1202	1202	1197	1193	1193	1189	1189	1193	0	0	0	0	0	0	0	0	0	0	0	0	0	0	0	0	0	0
0	0	0	0	0	0	0	0	0	0	0	0	0	0	0	0	0	0	0	0	0	0	0	1681	1681	1681	1681	1681	1681	1681	1681	1681	1681	1681	1681	1681	1698	1706	1706	1706	1706	1706	1706	1715	1715	1715	1715	1715	1715	1723	1723	1732	1723	1723	1732	1732	1732	1732	1732	1732	1732	1741	1741	1741	1741	1750	1750	1750	1750	1750	1759	1759	1759	1768	1768	1768	1777	1777	1786	1795	1795	1804	1804	1804	1814	1814	1814	1814	1814	1814	1824	1814	1814	1814	1814	1814	1824	1824	1824	1833	1843	1843	1853	1853	1853	1853	1863	1883	1883	1894	1894	1894	1883	1883	1883	1883	1894	1894	1894	1883	1883	1904	1904	1904	1904	1904	1925	1925	1925	1936	1936	1936	1936	1936	1936	1947	1947	1947	1958	1969	1969	1969	1969	1980	1980	1980	1980	1980	1980	1980	1992	1992	1992	2003	2015	2015	2015	2015	2015	2027	2027	2027	2027	2027	2015	2015	2015	2003	1992	1992	1992	1992	1992	1992	2003	2003	2003	2003	2003	2003	2003	2003	2015	2015	2027	2027	2027	2039	2039	2051	2051	2039	2027	2027	2027	2027	2027	1915	1915	1904	1873	1873	1873	1873	1873	1873	1873	1873	1873	1883	1883	1883	1873	1873	1873	1853	1843	1843	1843	1843	1843	1843	1843	1843	1843	1833	1824	1824	1804	1804	1795	1786	1786	1786	1786	1777	1768	1768	1768	1759	1759	1759	1759	1759	1759	1768	1768	1768	1768	1768	1768	1777	1777	1777	1777	1786	1795	1795	1804	1804	1804	1814	1814	1814	1824	1824	1824	1833	1833	1833	1833	1843	1843	1843	1853	1853	1853	1863	1863	1863	1873	1873	1883	1883	1883	1883	1894	1894	1665	1665	1665	1665	1665	1665	1665	1665	1665	1665	1665	1673	1673	1673	1681	1681	1690	1690	1698	1698	1706	1715	1715	1723	1723	1723	1732	1741	1741	1741	1741	1741	1750	1750	1750	1750	1759	1759	1768	1768	1768	1768	1777	1786	1786	1786	1786	1786	1777	1768	1768	1759	1759	1759	1759	1750	1750	1750	1750	1750	1741	1741	1741	1732	1723	1723	1715	1715	1715	1715	1715	1706	1706	1706	1706	1698	1698	1698	1698	1690	1690	1690	1690	1681	1681	1681	1673	1673	1673	1657	1657	1657	1649	1649	1649	1649	1649	1641	1641	1641	1634	1626	1626	1626	1626	1626	1618	1618	1611	1611	1603	1603	1603	1596	1596	1596	1596	1589	1589	1589	1589	1581	1581	1581	1574	1574	1574	1567	1567	1567	1560	1553	1553	1553	1546	1546	1532	1532	1532	1532	1532	1532	1525	1525	1519	1519	1512	1512	1512	1512	1506	1506	1506	1499	1499	1492	1486	1486	1480	1480	1480	1480	1480	1480	1480	1473	1473	1467	1467	1467	1461	1455	1455	1455	1449	1431	1419	1407	1402	1402	1402	1402	1402	1402	1396	1396	1396	1396	1396	1390	1390	1385	1385	1385	1385	1385	1385	1385	1385	1385	1379	1379	1379	1379	1379	1374	1374	1374	1374	1374	1363	1363	1358	1358	1358	1358	1358	1358	1358	1358	1358	1352	1352	1342	1342	1342	1342	1342	1342	1342	1342	1342	1336	1336	1331	1331	1326	1326	1321	1321	1316	1316	1316	1316	1316	1311	1311	1311	1311	1306	1306	1301	1301	1301	1296	1296	1296	1291	1291	1287	1287	1291	1291	1291	1282	1282	1277	1282	1282	1282	1277	1272	1272	1272	1268	1268	1272	1272	1272	1272	1272	1268	1263	1263	1259	1259	1254	1254	1254	1254	1249	1249	1249	1249	1240	1240	1240	1240	1249	1245	1245	1245	1245	1240	1240	1236	1232	1227	1223	1223	1223	1223	1223	1223	1223	1223	1219	1219	1219	1214	1214	1210	1210	1206	1202	1202	1197	1197	1197	1189	1189	1189	1193	1193	0	0	0	0	0	0	0	0	0	0	0	0	0	0	0	0	0	0
0	0	0	0	0	0	0	0	0	0	0	0	0	0	0	0	0	0	0	0	0	0	0	1681	1681	1681	1681	1681	1681	1681	1681	1681	1681	1681	1681	1690	1698	1706	1706	1706	1706	1706	1715	1715	1715	1715	1715	1715	1715	1723	1723	1732	1723	1723	1732	1732	1732	1732	1732	1732	1732	1741	1741	1741	1741	1750	1750	1750	1750	1750	1759	1759	1759	1768	1768	1768	1777	1777	1786	1795	1795	1804	1804	1804	1814	1814	1814	1814	1814	1814	1814	1814	1814	1814	1814	1814	1824	1824	1824	1843	1843	1843	1853	1853	1853	1863	1883	1894	1894	1894	1894	1894	1883	1883	1883	1883	1883	1883	1883	1883	1883	1904	1904	1904	1904	1915	1925	1925	1925	1936	1936	1936	1936	1947	1947	1958	1958	1958	1958	1969	1969	1969	1969	1980	1980	1980	1980	1980	1980	1980	1992	1992	1992	2003	2015	2015	2015	2015	2015	2027	2027	2027	2027	2027	2015	2015	2015	2003	1992	1992	1992	1992	1992	1992	2003	2003	2003	2003	2003	2003	2003	2003	2015	2015	2015	2015	2027	2039	2039	2051	2051	1936	1936	1936	1936	1936	1925	1915	1894	1883	1883	1873	1873	1873	1873	1873	1873	1873	1873	1873	1873	1873	1873	1873	1873	1853	1843	1843	1843	1843	1843	1843	1843	1843	1843	1833	1824	1824	1804	1804	1795	1777	1777	1786	1786	1768	1768	1768	1768	1759	1759	1759	1759	1759	1759	1759	1759	1768	1768	1768	1768	1777	1777	1777	1777	1786	1795	1795	1804	1804	1804	1814	1814	1814	1824	1824	1824	1833	1833	1833	1833	1843	1843	1843	1853	1853	1853	1863	1863	1873	1873	1873	1883	1883	1883	1883	1883	1883	1665	1665	1665	1657	1657	1665	1665	1665	1665	1673	1673	1673	1673	1681	1681	1690	1690	1698	1698	1698	1706	1706	1715	1715	1723	1723	1732	1732	1741	1741	1741	1741	1750	1750	1750	1750	1759	1759	1768	1768	1768	1768	1777	1786	1786	1786	1786	1786	1777	1768	1768	1759	1759	1759	1750	1750	1750	1750	1741	1741	1741	1741	1741	1732	1723	1723	1715	1715	1715	1715	1715	1706	1706	1706	1698	1698	1698	1690	1690	1690	1690	1690	1690	1681	1681	1681	1673	1673	1665	1665	1657	1657	1649	1649	1649	1649	1641	1641	1641	1641	1634	1626	1626	1626	1626	1626	1618	1618	1611	1611	1603	1603	1603	1596	1596	1596	1596	1589	1589	1589	1581	1581	1581	1581	1574	1574	1574	1567	1567	1567	1560	1546	1546	1553	1539	1539	1532	1532	1532	1532	1532	1532	1525	1525	1519	1512	1512	1512	1512	1512	1506	1506	1506	1499	1499	1492	1486	1486	1486	1480	1480	1473	1473	1473	1473	1473	1473	1473	1467	1467	1467	1461	1455	1455	1449	1431	1419	1407	1402	1402	1402	1402	1396	1396	1396	1396	1396	1396	1396	1396	1390	1385	1385	1385	1385	1385	1385	1385	1385	1385	1379	1379	1379	1379	1379	1374	1374	1374	1374	1368	1363	1363	1358	1358	1358	1358	1358	1358	1358	1358	1358	1352	1352	1342	1342	1342	1342	1342	1342	1342	1342	1342	1336	1336	1331	1331	1326	1326	1321	1321	1316	1316	1316	1316	1316	1311	1311	1311	1311	1311	1306	1301	1301	1301	1296	1296	1296	1291	1291	1287	1287	1287	1287	1287	1282	1282	1282	1282	1282	1282	1277	1277	1272	1272	1268	1268	1272	1272	1272	1272	1272	1268	1268	1268	1263	1259	1259	1254	1254	1254	1254	1254	1254	1254	1245	1245	1240	1240	1245	1245	1245	1245	1240	1240	1236	1232	1232	1227	1223	1223	1223	1223	1223	1223	1223	1223	1219	1219	1219	1214	1214	1210	1210	1206	1202	1202	1197	1197	1189	1189	1189	1189	1189	1189	0	0	0	0	0	0	0	0	0	0	0	0	0	0	0	0	0	0
