0	0	0	0	0	0	0	0	0	0	0	0	0	0	0	0	0	0	0	0	0	0	0	0	0	1641	1634	1634	1634	1634	1634	1634	1634	1634	1634	1634	1641	1641	1641	1641	1641	1649	1649	1649	1657	1665	1665	1665	1673	1673	1673	1673	1681	1681	1681	1673	1673	1673	1673	1673	1673	1673	1673	1673	1665	1665	1665	1657	1657	1657	1657	1657	1649	1649	1649	1649	1649	1641	1641	1649	1649	1649	1657	1657	1665	1657	1657	1657	1657	1657	1567	1567	1567	1567	1567	1574	1574	1574	1574	1574	1574	1574	1574	1581	1581	1581	1589	1596	1596	1603	1603	1603	1603	1611	1611	1618	1618	1626	1626	1634	1634	1641	1641	1641	1649	1649	1657	1657	1665	1665	1665	1665	1673	1673	1690	1690	1698	1698	1706	1706	1706	1706	1706	1706	1706	1706	1706	1706	1706	1698	1698	1698	1698	1690	1690	1690	1690	1690	1681	1681	1681	1681	1673	1673	1673	1673	1673	1673	1673	1673	1665	1665	1665	1665	1665	1665	1665	1657	1657	1657	1657	1649	1649	1641	1641	1641	1641	1634	1634	1634	1634	1634	1634	1626	1626	1626	1626	1618	1611	1603	1603	1603	1603	1603	1596	1596	1596	1596	1596	1596	1596	1596	1596	1596	1596	1596	1589	1589	1589	1581	1581	1581	1574	1574	1574	1574	1574	1574	1567	1567	1567	1567	1567	1567	1560	1560	1560	1560	1553	1553	1546	1546	1546	1546	1546	1539	1539	1539	1539	1539	1539	1539	1539	1532	1532	1525	1525	1519	1519	1519	1519	1519	1519	1512	1512	1512	1512	1512	1512	1512	1506	1506	1506	1499	1499	1492	1492	1492	1492	1492	1486	1486	1486	1486	1486	1486	1486	1480	1480	1480	1473	1473	1473	1473	1467	1467	1467	1467	1467	1461	1461	1461	1461	1461	1461	1461	1461	1455	1455	1449	1449	1443	1443	1443	1443	1443	1443	1437	1431	1431	1431	1431	1431	1431	1431	1425	1425	1425	1425	1425	1419	1419	1413	1413	1413	1413	1407	1407	1407	1407	1407	1402	1402	1402	1402	1402	1396	1396	1390	1390	1390	1390	1390	1390	1390	1385	1385	1385	1385	1385	1379	1379	1379	1374	1374	1368	1368	1368	1368	1368	1368	1363	1363	1363	1363	1363	1363	1358	1358	1358	1352	1352	1352	1352	1347	1347	1347	1347	1347	1347	1342	1342	1342	1342	1342	1342	1342	1342	1336	1331	1331	1331	1326	1326	1326	1326	1326	1326	1326	1326	1326	1321	1321	1321	1316	1316	1316	1316	1316	1311	1311	1311	1306	1306	1306	1306	1301	1301	1301	1301	1301	1301	1296	1296	1296	1296	1296	1291	1287	1287	1287	1282	1282	1282	1282	1277	1277	1277	1277	1277	1277	1277	1272	1272	1268	1263	1263	1263	1263	1263	1263	1263	1263	1263	1263	1263	1263	1263	1259	1259	1259	1259	1259	1254	1254	1254	1249	1245	1245	1245	1245	1245	1245	1245	1240	1240	1240	1240	1240	1236	1236	1236	1236	1236	1236	1232	1232	1227	1227	1227	1223	1223	1223	1223	1223	1223	1223	1223	1223	1219	1219	1219	1214	1210	1210	1210	1206	1206	1206	1206	1206	1202	1202	1197	1197	1197	1197	1197	1197	1197	1197	1197	1197	1197	1193	1193	1193	1193	1193	1193	1189	1189	1189	1185	1181	1177	1177	1177	1177	1177	1173	1173	1173	1173	1173	1173	1173	1173	1169	1169	1169	1165	1161	1161	1161	1161	1157	1157	1157	1157	1157	1153	1153	1153	1153	1153	1153	1153	1153	1153	1153	1150	1150	1150	1146	1146	1142	1142	1142	1142	1142	1142	1138	1138	1138	1138	1134	1134	1134	1134	1134	1131	1131	1131	1131	1127	1127	1127	1127	1127	1127	1127	1127	1127	1127	1123	1123	1123	1123	1123	1123	0	0	0	0	0	0	0	0	0	0	0	0	0	0	0	0	0	0	0
0	0	0	0	0	0	0	0	0	0	0	0	0	0	0	0	0	0	0	0	0	0	0	0	0	1641	1634	1634	1634	1634	1634	1634	1634	1634	1634	1634	1641	1641	1649	1649	1649	1649	1649	1657	1657	1665	1673	1673	1673	1673	1673	1673	1681	1681	1681	1673	1673	1673	1673	1673	1673	1673	1673	1673	1665	1665	1665	1665	1657	1657	1657	1657	1657	1657	1649	1649	1649	1641	1641	1649	1649	1641	1641	1649	1649	1657	1657	1626	1626	1581	1574	1574	1574	1574	1574	1574	1574	1574	1574	1574	1574	1574	1574	1581	1581	1581	1589	1596	1596	1603	1603	1603	1611	1611	1611	1618	1618	1626	1634	1634	1634	1634	1641	1641	1649	1649	1657	1657	1665	1665	1665	1665	1673	1673	1690	1690	1698	1698	1698	1698	1706	1706	1706	1706	1706	1706	1706	1706	1706	1698	1698	1698	1698	1690	1690	1690	1690	1681	1681	1681	1681	1681	1673	1673	1673	1673	1673	1673	1673	1673	1665	1665	1665	1665	1665	1665	1665	1657	1657	1657	1657	1649	1649	1641	1641	1641	1641	1634	1634	1634	1634	1634	1634	1634	1626	1626	1626	1626	1611	1611	1603	1603	1603	1596	1596	1596	1596	1596	1596	1596	1596	1596	1596	1596	1596	1596	1589	1589	1581	1581	1581	1581	1574	1574	1574	1574	1567	1567	1567	1567	1567	1567	1567	1567	1560	1560	1560	1560	1553	1553	1546	1546	1546	1546	1546	1539	1539	1539	1539	1539	1539	1539	1539	1539	1532	1532	1525	1519	1519	1519	1519	1519	1519	1519	1512	1512	1512	1512	1512	1506	1506	1499	1499	1499	1492	1492	1492	1492	1492	1492	1486	1486	1486	1486	1486	1486	1486	1480	1480	1480	1473	1473	1473	1473	1467	1467	1467	1467	1467	1461	1461	1461	1461	1461	1461	1461	1461	1455	1455	1455	1449	1449	1449	1443	1443	1443	1443	1437	1431	1431	1431	1431	1431	1431	1431	1425	1425	1425	1425	1425	1419	1419	1413	1413	1413	1413	1407	1407	1407	1407	1402	1402	1402	1402	1402	1402	1396	1396	1390	1390	1390	1390	1390	1390	1390	1385	1385	1385	1385	1385	1379	1379	1379	1374	1374	1368	1368	1368	1368	1368	1368	1368	1363	1363	1363	1363	1363	1358	1358	1358	1352	1352	1352	1352	1347	1347	1347	1347	1347	1347	1342	1342	1342	1342	1342	1342	1342	1342	1336	1331	1331	1331	1326	1326	1326	1326	1326	1326	1326	1326	1326	1321	1321	1321	1316	1316	1316	1316	1316	1311	1311	1311	1306	1306	1306	1306	1306	1301	1301	1301	1301	1301	1296	1296	1296	1296	1296	1291	1287	1287	1287	1282	1282	1282	1282	1277	1277	1277	1277	1277	1277	1277	1272	1272	1268	1263	1263	1263	1263	1263	1263	1263	1263	1263	1263	1263	1263	1263	1259	1259	1259	1259	1259	1254	1254	1254	1249	1245	1245	1245	1245	1245	1245	1245	1240	1240	1240	1240	1240	1236	1236	1236	1236	1236	1236	1232	1232	1227	1227	1223	1223	1223	1223	1223	1223	1223	1223	1223	1223	1219	1219	1219	1214	1210	1210	1210	1206	1206	1206	1206	1206	1202	1202	1202	1197	1197	1197	1197	1197	1197	1197	1197	1197	1193	1193	1193	1193	1193	1193	1193	1189	1189	1189	1185	1181	1177	1177	1177	1177	1177	1173	1173	1173	1173	1173	1173	1173	1173	1169	1169	1169	1165	1161	1161	1161	1157	1157	1157	1157	1157	1157	1153	1153	1153	1153	1153	1153	1153	1153	1153	1153	1150	1150	1146	1146	1142	1142	1142	1142	1142	1142	1142	1138	1138	1138	1138	1134	1134	1134	1134	1134	1134	1131	1131	1131	1127	1127	1127	1127	1127	1127	1127	1127	1127	1127	1123	1123	1123	1123	1123	1123	0	0	0	0	0	0	0	0	0	0	0	0	0	0	0	0	0	0	0
0	0	0	0	0	0	0	0	0	0	0	0	0	0	0	0	0	0	0	0	0	0	0	0	0	1641	1634	1634	1634	1634	1634	1634	1634	1634	1634	1634	1641	1641	1641	1649	1649	1649	1657	1657	1665	1665	1673	1673	1673	1673	1673	1673	1681	1681	1681	1673	1673	1673	1673	1673	1673	1673	1673	1665	1665	1665	1665	1657	1657	1657	1657	1657	1657	1657	1649	1649	1649	1641	1641	1641	1641	1641	1641	1641	1641	1641	1641	1626	1626	1581	1574	1574	1574	1574	1574	1574	1574	1574	1574	1574	1574	1574	1574	1574	1581	1581	1581	1581	1596	1603	1603	1603	1611	1611	1611	1611	1618	1626	1626	1634	1634	1634	1641	1641	1649	1649	1657	1657	1665	1665	1665	1665	1673	1673	1690	1690	1698	1698	1698	1698	1706	1706	1706	1706	1706	1706	1706	1706	1706	1706	1698	1698	1698	1690	1690	1690	1690	1681	1681	1681	1681	1681	1673	1673	1673	1673	1673	1673	1673	1665	1665	1665	1665	1665	1665	1665	1657	1657	1657	1657	1649	1649	1649	1649	1641	1641	1641	1634	1634	1634	1634	1634	1634	1634	1634	1634	1626	1626	1611	1611	1603	1603	1603	1596	1596	1596	1596	1596	1596	1596	1596	1596	1596	1596	1596	1596	1589	1589	1581	1581	1581	1574	1574	1574	1574	1574	1567	1567	1567	1567	1567	1567	1567	1560	1560	1560	1560	1560	1553	1553	1546	1546	1546	1546	1546	1539	1539	1539	1539	1539	1539	1539	1539	1539	1539	1532	1525	1519	1519	1519	1519	1519	1519	1519	1512	1512	1512	1512	1512	1506	1506	1499	1499	1499	1492	1492	1492	1492	1492	1492	1486	1486	1486	1486	1486	1486	1486	1480	1480	1480	1473	1473	1473	1473	1467	1467	1467	1467	1467	1461	1461	1461	1461	1461	1461	1461	1461	1455	1455	1455	1455	1449	1449	1443	1443	1443	1443	1437	1431	1431	1431	1431	1431	1431	1431	1425	1425	1425	1425	1419	1419	1413	1413	1413	1413	1407	1407	1407	1407	1407	1402	1402	1402	1402	1402	1402	1396	1396	1396	1390	1390	1390	1390	1390	1390	1385	1385	1385	1385	1385	1379	1379	1379	1374	1374	1368	1368	1368	1368	1368	1368	1368	1363	1363	1363	1363	1358	1358	1358	1358	1352	1352	1352	1352	1347	1347	1347	1347	1347	1347	1342	1342	1342	1342	1342	1342	1342	1342	1342	1331	1331	1331	1326	1326	1326	1326	1326	1326	1326	1326	1326	1321	1321	1321	1321	1316	1316	1316	1316	1311	1311	1306	1306	1306	1306	1306	1306	1301	1301	1301	1301	1301	1296	1296	1296	1296	1296	1296	1287	1287	1282	1282	1282	1282	1282	1277	1277	1277	1277	1277	1277	1277	1277	1272	1272	1268	1268	1268	1263	1263	1263	1263	1263	1263	1263	1263	1263	1263	1259	1259	1259	1259	1259	1254	1254	1254	1249	1245	1245	1245	1245	1245	1245	1245	1240	1240	1240	1240	1240	1236	1236	1236	1236	1236	1232	1232	1232	1227	1227	1223	1223	1223	1223	1223	1223	1223	1223	1223	1219	1219	1219	1219	1214	1214	1214	1210	1206	1206	1206	1206	1206	1202	1202	1202	1202	1202	1202	1197	1197	1197	1197	1197	1197	1193	1193	1193	1193	1193	1193	1193	1193	1189	1189	1185	1185	1181	1181	1177	1177	1177	1177	1177	1173	1173	1173	1173	1173	1173	1169	1169	1169	1165	1165	1165	1161	1161	1157	1157	1157	1157	1157	1153	1153	1153	1153	1153	1153	1153	1153	1153	1153	1150	1150	1146	1146	1142	1142	1142	1142	1142	1142	1142	1138	1138	1138	1138	1134	1134	1134	1134	1134	1131	1131	1131	1131	1127	1127	1127	1127	1127	1127	1127	1127	1127	1127	1123	1123	1123	1123	1123	1123	0	0	0	0	0	0	0	0	0	0	0	0	0	0	0	0	0	0	0
0	0	0	0	0	0	0	0	0	0	0	0	0	0	0	0	0	0	0	0	0	0	0	0	0	1641	1634	1634	1634	1634	1634	1634	1634	1634	1634	1634	1641	1641	1641	1649	1649	1649	1657	1657	1665	1665	1673	1673	1673	1681	1681	1681	1681	1681	1681	1673	1673	1673	1673	1673	1673	1673	1673	1665	1665	1665	1665	1657	1657	1657	1657	1657	1657	1649	1649	1649	1649	1641	1641	1641	1641	1641	1641	1641	1641	1634	1626	1626	1589	1581	1581	1574	1574	1574	1574	1574	1574	1574	1574	1574	1574	1574	1574	1581	1581	1581	1581	1589	1596	1596	1603	1603	1603	1611	1611	1611	1618	1626	1626	1634	1634	1634	1641	1641	1649	1649	1657	1657	1665	1665	1665	1673	1673	1681	1690	1690	1698	1698	1698	1698	1698	1706	1706	1706	1706	1706	1706	1706	1706	1706	1698	1698	1698	1698	1690	1690	1690	1681	1681	1681	1681	1681	1673	1673	1673	1673	1673	1665	1665	1665	1665	1665	1665	1665	1665	1665	1657	1657	1657	1657	1649	1649	1641	1641	1641	1641	1641	1634	1634	1634	1634	1634	1634	1634	1634	1634	1626	1626	1611	1611	1603	1603	1603	1596	1596	1596	1596	1596	1596	1596	1596	1596	1596	1596	1596	1596	1589	1589	1581	1581	1581	1581	1574	1574	1574	1574	1574	1574	1567	1567	1567	1567	1567	1560	1560	1560	1560	1560	1553	1553	1546	1546	1546	1546	1546	1546	1539	1539	1539	1539	1539	1539	1539	1539	1532	1525	1525	1519	1519	1519	1519	1519	1519	1519	1512	1512	1512	1512	1512	1506	1506	1499	1499	1499	1499	1492	1492	1492	1492	1492	1486	1486	1486	1486	1486	1486	1486	1480	1480	1480	1473	1473	1473	1473	1467	1467	1467	1467	1467	1461	1461	1461	1461	1461	1461	1461	1461	1455	1455	1455	1449	1449	1449	1443	1443	1443	1443	1437	1431	1431	1431	1431	1431	1431	1431	1425	1425	1425	1425	1419	1419	1413	1413	1413	1413	1407	1407	1407	1407	1407	1407	1402	1402	1402	1402	1402	1396	1396	1396	1390	1390	1390	1390	1390	1390	1385	1385	1385	1385	1385	1379	1379	1379	1374	1374	1368	1368	1368	1368	1368	1368	1363	1363	1363	1363	1363	1358	1358	1358	1358	1352	1352	1352	1352	1352	1352	1347	1347	1347	1347	1342	1342	1342	1342	1342	1342	1342	1342	1342	1336	1331	1331	1326	1326	1326	1326	1326	1326	1326	1326	1326	1321	1321	1321	1321	1316	1316	1316	1316	1311	1311	1306	1306	1306	1306	1306	1306	1301	1301	1301	1301	1301	1296	1296	1296	1296	1291	1291	1287	1287	1282	1282	1282	1282	1282	1277	1277	1277	1277	1277	1277	1277	1277	1272	1272	1268	1268	1268	1268	1268	1263	1263	1263	1263	1263	1263	1263	1263	1259	1259	1259	1259	1259	1254	1254	1254	1249	1249	1249	1245	1245	1245	1245	1245	1240	1240	1240	1240	1240	1236	1236	1236	1236	1232	1232	1232	1232	1227	1227	1227	1223	1223	1223	1223	1223	1223	1223	1223	1219	1219	1219	1219	1214	1214	1214	1210	1210	1206	1206	1206	1206	1206	1202	1202	1202	1202	1202	1202	1197	1197	1197	1197	1197	1193	1193	1193	1193	1193	1193	1189	1189	1189	1189	1185	1185	1185	1181	1177	1177	1177	1177	1177	1177	1177	1173	1173	1173	1173	1169	1169	1169	1165	1165	1165	1165	1161	1157	1157	1157	1157	1157	1153	1153	1153	1153	1153	1153	1153	1153	1153	1150	1150	1146	1146	1146	1142	1142	1142	1142	1142	1142	1142	1138	1138	1138	1138	1134	1134	1134	1134	1134	1131	1131	1131	1131	1127	1127	1127	1127	1127	1127	1127	1127	1127	1123	1123	1123	1123	1123	1123	1123	0	0	0	0	0	0	0	0	0	0	0	0	0	0	0	0	0	0	0
0	0	0	0	0	0	0	0	0	0	0	0	0	0	0	0	0	0	0	0	0	0	0	0	0	1641	1641	1641	1641	1634	1634	1634	1634	1634	1634	1634	1641	1641	1641	1649	1649	1649	1657	1665	1673	1673	1673	1673	1681	1681	1681	1681	1681	1681	1681	1681	1681	1673	1673	1673	1673	1673	1673	1665	1665	1665	1665	1665	1657	1657	1657	1657	1657	1649	1649	1649	1649	1641	1641	1641	1641	1641	1641	1641	1634	1626	1618	1618	1589	1581	1581	1574	1574	1574	1574	1574	1567	1567	1567	1567	1574	1574	1574	1581	1581	1581	1581	1589	1596	1596	1603	1603	1603	1611	1611	1611	1618	1618	1626	1626	1634	1634	1641	1641	1649	1649	1657	1657	1665	1665	1665	1673	1673	1673	1681	1681	1690	1698	1698	1698	1698	1706	1706	1706	1706	1706	1706	1706	1706	1706	1698	1698	1698	1698	1698	1690	1690	1690	1690	1681	1681	1681	1673	1673	1673	1673	1673	1665	1665	1665	1665	1665	1665	1665	1665	1665	1657	1657	1657	1657	1649	1649	1641	1641	1641	1641	1634	1634	1634	1634	1634	1634	1634	1634	1634	1634	1626	1626	1611	1611	1603	1603	1603	1596	1596	1596	1596	1596	1596	1596	1596	1596	1596	1596	1596	1596	1596	1589	1589	1589	1581	1581	1574	1574	1574	1574	1574	1574	1567	1567	1567	1567	1567	1560	1560	1560	1553	1553	1553	1553	1546	1546	1546	1546	1539	1539	1539	1539	1539	1539	1539	1539	1539	1532	1532	1525	1525	1519	1519	1519	1519	1512	1512	1512	1512	1512	1512	1512	1512	1506	1506	1499	1499	1499	1492	1492	1492	1492	1492	1492	1486	1486	1486	1486	1486	1486	1486	1486	1480	1480	1473	1473	1473	1473	1467	1467	1467	1467	1467	1467	1461	1461	1461	1461	1461	1461	1461	1455	1455	1455	1449	1449	1443	1443	1443	1443	1443	1443	1431	1431	1431	1431	1431	1431	1425	1425	1425	1425	1419	1419	1419	1413	1413	1413	1413	1407	1407	1407	1407	1407	1407	1402	1402	1402	1402	1402	1396	1396	1396	1390	1390	1390	1390	1390	1385	1385	1385	1385	1385	1385	1379	1379	1379	1374	1374	1368	1368	1368	1368	1368	1368	1363	1363	1363	1363	1363	1358	1358	1358	1358	1352	1352	1352	1352	1352	1352	1347	1347	1347	1347	1342	1342	1342	1342	1342	1342	1342	1342	1342	1336	1331	1331	1326	1326	1326	1326	1326	1326	1326	1326	1326	1321	1321	1321	1321	1321	1316	1316	1316	1311	1311	1311	1311	1306	1306	1306	1306	1301	1301	1301	1301	1301	1296	1296	1296	1296	1291	1291	1287	1287	1287	1282	1282	1282	1282	1282	1277	1277	1277	1277	1277	1277	1277	1272	1272	1268	1268	1268	1268	1268	1263	1263	1263	1263	1263	1263	1263	1259	1259	1259	1254	1254	1259	1254	1254	1254	1249	1249	1249	1245	1245	1245	1245	1245	1240	1240	1240	1240	1240	1236	1236	1236	1236	1232	1232	1232	1232	1227	1227	1227	1227	1227	1223	1223	1223	1223	1223	1219	1219	1219	1219	1219	1219	1214	1210	1210	1210	1206	1206	1206	1206	1206	1206	1202	1202	1202	1202	1202	1197	1193	1193	1193	1193	1193	1193	1189	1189	1189	1189	1189	1189	1189	1189	1189	1189	1185	1185	1181	1177	1177	1177	1177	1177	1177	1173	1173	1173	1173	1169	1169	1169	1165	1165	1165	1165	1161	1157	1157	1157	1157	1157	1153	1153	1153	1153	1153	1153	1153	1153	1153	1150	1150	1146	1146	1146	1142	1142	1142	1142	1138	1138	1138	1138	1138	1138	1138	1134	1134	1134	1134	1131	1127	1127	1127	1127	1127	1127	1127	1127	1127	1127	1127	1127	1127	1123	1123	1123	1123	1123	1123	1123	0	0	0	0	0	0	0	0	0	0	0	0	0	0	0	0	0	0	0
0	0	0	0	0	0	0	0	0	0	0	0	0	0	0	0	0	0	0	0	0	0	0	0	0	1649	1641	1641	1634	1634	1626	1626	1626	1634	1634	1634	1641	1649	1649	1649	1649	1649	1665	1665	1673	1673	1673	1681	1681	1681	1681	1681	1681	1681	1681	1681	1681	1673	1673	1673	1673	1673	1673	1665	1665	1665	1665	1665	1665	1657	1657	1657	1657	1657	1649	1649	1649	1641	1641	1641	1641	1641	1641	1641	1626	1626	1611	1611	1589	1581	1581	1574	1574	1574	1567	1567	1567	1567	1567	1567	1574	1574	1574	1574	1581	1581	1581	1589	1596	1596	1603	1603	1611	1611	1611	1611	1618	1626	1626	1634	1634	1634	1634	1641	1641	1649	1649	1657	1657	1665	1665	1673	1673	1673	1681	1681	1690	1690	1698	1698	1698	1706	1706	1706	1706	1706	1706	1706	1706	1706	1698	1698	1698	1698	1698	1690	1690	1681	1681	1681	1681	1681	1673	1673	1673	1673	1673	1665	1665	1665	1665	1665	1665	1665	1665	1665	1657	1657	1657	1657	1649	1649	1641	1641	1641	1641	1634	1634	1634	1634	1634	1634	1634	1634	1634	1634	1626	1626	1611	1611	1603	1603	1603	1603	1596	1596	1596	1596	1596	1596	1596	1596	1596	1596	1596	1596	1596	1589	1589	1581	1581	1581	1574	1574	1574	1574	1574	1574	1567	1567	1567	1567	1567	1560	1560	1553	1553	1553	1553	1553	1546	1546	1546	1546	1539	1539	1539	1539	1539	1539	1539	1539	1539	1539	1532	1525	1525	1519	1519	1519	1519	1519	1519	1512	1512	1512	1512	1512	1512	1506	1506	1499	1499	1499	1492	1492	1492	1492	1492	1492	1492	1492	1492	1486	1486	1486	1480	1480	1480	1480	1473	1473	1473	1467	1467	1467	1467	1467	1467	1467	1461	1461	1461	1461	1461	1461	1461	1455	1455	1455	1449	1443	1443	1443	1443	1443	1443	1443	1437	1431	1431	1431	1431	1431	1425	1425	1425	1425	1419	1419	1419	1413	1413	1413	1413	1413	1407	1407	1407	1407	1407	1402	1402	1402	1402	1402	1396	1396	1396	1390	1390	1390	1390	1390	1385	1385	1385	1385	1385	1385	1379	1379	1379	1374	1374	1368	1368	1368	1368	1368	1368	1368	1363	1363	1363	1363	1358	1358	1358	1358	1358	1352	1352	1352	1352	1347	1347	1347	1347	1347	1342	1342	1342	1342	1342	1342	1342	1342	1342	1336	1331	1331	1326	1326	1326	1326	1326	1326	1326	1326	1326	1321	1321	1321	1321	1321	1316	1316	1316	1311	1311	1306	1306	1306	1306	1306	1306	1301	1301	1301	1301	1301	1301	1301	1296	1296	1291	1291	1287	1287	1282	1282	1282	1282	1282	1282	1277	1277	1277	1277	1277	1277	1277	1272	1272	1268	1268	1268	1268	1268	1263	1263	1263	1263	1263	1263	1263	1259	1259	1254	1254	1254	1259	1254	1254	1254	1249	1249	1249	1245	1245	1245	1245	1245	1240	1240	1240	1240	1240	1236	1236	1236	1236	1232	1232	1232	1232	1227	1227	1227	1227	1227	1223	1223	1223	1223	1223	1219	1219	1219	1219	1219	1219	1214	1210	1210	1206	1206	1206	1206	1206	1206	1206	1206	1206	1206	1202	1202	1197	1193	1193	1193	1193	1193	1193	1189	1189	1189	1189	1189	1189	1189	1189	1189	1189	1185	1185	1181	1177	1177	1177	1177	1177	1177	1173	1173	1173	1173	1169	1165	1165	1165	1165	1165	1165	1161	1161	1157	1157	1157	1157	1153	1153	1153	1153	1153	1153	1153	1153	1153	1150	1150	1150	1146	1146	1146	1142	1142	1142	1138	1138	1138	1138	1138	1138	1138	1134	1134	1134	1134	1131	1127	1127	1127	1127	1127	1127	1127	1127	1127	1127	1127	1127	1127	1123	1123	1123	1123	1123	1123	1123	0	0	0	0	0	0	0	0	0	0	0	0	0	0	0	0	0	0	0
0	0	0	0	0	0	0	0	0	0	0	0	0	0	0	0	0	0	0	0	0	0	0	0	1732	1723	1723	1723	1723	1626	1626	1626	1626	1634	1634	1634	1641	1641	1649	1649	1649	1657	1673	1681	1681	1681	1681	1681	1681	1681	1681	1681	1681	1681	1681	1681	1681	1673	1673	1673	1673	1673	1673	1665	1665	1665	1665	1665	1665	1657	1657	1657	1657	1657	1649	1649	1649	1641	1641	1641	1641	1641	1641	1641	1626	1626	1611	1603	1589	1589	1581	1567	1567	1567	1567	1567	1567	1567	1567	1567	1574	1574	1574	1574	1581	1581	1581	1581	1596	1596	1603	1603	1611	1611	1611	1611	1618	1626	1626	1634	1634	1634	1641	1641	1641	1649	1649	1657	1657	1665	1665	1665	1673	1673	1673	1681	1681	1690	1698	1698	1698	1706	1706	1706	1706	1706	1706	1706	1706	1706	1698	1698	1698	1698	1690	1690	1690	1681	1681	1681	1681	1681	1673	1673	1673	1673	1673	1665	1665	1665	1665	1665	1665	1665	1665	1665	1657	1657	1657	1657	1649	1649	1641	1641	1641	1641	1634	1634	1634	1634	1634	1634	1634	1634	1634	1626	1626	1618	1611	1603	1603	1603	1603	1603	1596	1596	1596	1596	1596	1596	1596	1596	1596	1596	1596	1596	1589	1589	1581	1581	1581	1581	1574	1574	1574	1574	1574	1574	1574	1567	1567	1567	1567	1560	1560	1553	1553	1553	1553	1553	1546	1546	1546	1546	1546	1546	1539	1539	1539	1539	1539	1539	1539	1539	1532	1525	1525	1519	1519	1519	1519	1519	1519	1512	1512	1512	1506	1506	1512	1506	1506	1499	1499	1499	1499	1492	1492	1492	1492	1492	1492	1486	1486	1486	1486	1486	1480	1480	1480	1480	1473	1473	1473	1467	1467	1467	1467	1467	1467	1467	1461	1461	1461	1461	1461	1461	1461	1455	1455	1455	1449	1443	1443	1443	1443	1443	1443	1443	1437	1431	1431	1431	1431	1431	1425	1425	1425	1425	1419	1419	1419	1413	1413	1413	1413	1413	1413	1407	1407	1407	1407	1407	1402	1402	1402	1402	1396	1396	1390	1390	1390	1390	1390	1390	1385	1385	1385	1385	1385	1385	1385	1379	1379	1379	1374	1368	1368	1368	1368	1363	1363	1363	1363	1363	1363	1363	1358	1358	1358	1358	1358	1352	1352	1352	1352	1347	1347	1347	1347	1347	1342	1342	1342	1342	1342	1342	1342	1342	1342	1336	1331	1331	1331	1326	1326	1326	1326	1326	1326	1321	1321	1321	1321	1321	1321	1321	1321	1316	1316	1311	1306	1306	1306	1306	1306	1306	1306	1306	1301	1301	1301	1301	1301	1301	1296	1296	1291	1291	1287	1282	1282	1282	1282	1282	1282	1282	1277	1277	1277	1277	1277	1277	1272	1272	1272	1268	1268	1268	1268	1268	1263	1263	1263	1263	1263	1263	1263	1259	1259	1254	1254	1254	1254	1254	1254	1254	1249	1249	1249	1245	1245	1245	1245	1245	1240	1240	1240	1240	1240	1236	1236	1236	1240	1232	1232	1227	1227	1227	1227	1227	1227	1227	1227	1223	1223	1223	1223	1223	1219	1219	1219	1219	1219	1214	1210	1210	1210	1210	1206	1206	1206	1206	1206	1206	1206	1206	1202	1197	1197	1193	1193	1193	1193	1193	1193	1189	1189	1189	1189	1189	1189	1189	1189	1189	1189	1189	1185	1185	1181	1181	1177	1177	1177	1177	1173	1173	1173	1173	1169	1165	1165	1165	1165	1165	1165	1161	1161	1157	1157	1157	1153	1153	1153	1153	1153	1153	1153	1153	1153	1153	1150	1150	1150	1146	1146	1146	1146	1142	1142	1138	1138	1138	1138	1138	1138	1138	1138	1134	1134	1134	1131	1127	1127	1127	1127	1127	1127	1127	1127	1127	1127	1127	1127	1127	1123	1123	1123	1123	1123	1123	1123	0	0	0	0	0	0	0	0	0	0	0	0	0	0	0	0	0	0	0
0	0	0	0	0	0	0	0	0	0	0	0	0	0	0	0	0	0	0	0	0	0	0	0	1732	1723	1723	1732	1732	1732	1732	1723	1723	1641	1641	1641	1649	1649	1649	1657	1657	1673	1690	1690	1690	1690	1690	1690	1690	1690	1690	1681	1681	1681	1681	1681	1681	1673	1673	1673	1673	1673	1673	1665	1665	1665	1665	1665	1665	1657	1657	1657	1657	1657	1649	1649	1649	1641	1641	1641	1641	1641	1641	1634	1626	1626	1611	1611	1589	1589	1581	1567	1567	1567	1567	1567	1567	1567	1567	1567	1567	1574	1574	1574	1581	1581	1581	1581	1596	1596	1603	1603	1611	1611	1611	1611	1618	1626	1626	1634	1634	1634	1641	1641	1641	1649	1649	1657	1665	1665	1665	1673	1673	1673	1681	1681	1681	1690	1690	1698	1698	1698	1706	1706	1706	1706	1706	1706	1706	1706	1698	1698	1698	1698	1690	1690	1690	1681	1681	1681	1681	1681	1673	1673	1673	1673	1673	1673	1665	1665	1665	1665	1665	1665	1665	1665	1665	1657	1657	1657	1649	1649	1641	1641	1641	1641	1634	1634	1634	1634	1634	1634	1634	1634	1634	1626	1626	1618	1611	1603	1603	1603	1603	1603	1603	1603	1603	1596	1596	1596	1596	1596	1596	1596	1596	1596	1589	1589	1581	1581	1581	1574	1574	1574	1574	1574	1574	1574	1574	1567	1567	1567	1567	1560	1560	1553	1553	1553	1553	1553	1546	1546	1546	1546	1546	1546	1539	1539	1539	1539	1539	1539	1539	1539	1532	1525	1525	1525	1519	1519	1519	1519	1519	1512	1512	1512	1506	1506	1506	1506	1506	1506	1506	1499	1499	1499	1492	1492	1492	1492	1492	1486	1486	1486	1486	1486	1486	1486	1480	1480	1480	1473	1473	1473	1467	1467	1467	1467	1461	1461	1461	1461	1461	1461	1461	1461	1461	1455	1455	1455	1449	1443	1443	1443	1443	1443	1443	1443	1437	1437	1431	1431	1431	1431	1425	1425	1425	1425	1419	1419	1413	1413	1413	1413	1413	1413	1413	1407	1407	1407	1407	1407	1402	1402	1402	1402	1396	1396	1390	1390	1390	1390	1385	1385	1385	1385	1385	1385	1385	1385	1385	1379	1379	1379	1374	1368	1368	1368	1368	1363	1363	1363	1363	1363	1363	1363	1358	1358	1358	1358	1358	1352	1352	1352	1352	1347	1347	1347	1347	1347	1342	1342	1342	1342	1342	1342	1342	1342	1342	1336	1336	1331	1331	1326	1326	1326	1326	1326	1326	1321	1321	1321	1321	1321	1321	1321	1321	1316	1316	1311	1306	1306	1306	1306	1306	1306	1306	1301	1301	1301	1301	1301	1301	1301	1296	1296	1291	1291	1287	1282	1282	1282	1282	1282	1282	1282	1277	1277	1277	1277	1277	1277	1272	1272	1272	1268	1268	1268	1268	1268	1263	1263	1263	1263	1263	1259	1259	1259	1259	1254	1254	1254	1259	1254	1254	1254	1254	1254	1249	1245	1245	1245	1245	1245	1240	1240	1240	1240	1240	1240	1240	1240	1240	1236	1232	1227	1227	1227	1227	1227	1227	1227	1227	1223	1223	1223	1223	1223	1219	1219	1219	1219	1214	1214	1210	1210	1210	1210	1210	1206	1206	1206	1206	1206	1206	1206	1202	1197	1197	1193	1193	1193	1193	1193	1193	1193	1193	1189	1189	1189	1189	1189	1189	1189	1185	1185	1185	1185	1181	1181	1177	1177	1177	1177	1173	1173	1173	1173	1169	1169	1165	1165	1165	1165	1165	1161	1161	1157	1157	1157	1153	1153	1153	1153	1153	1153	1153	1153	1153	1153	1150	1150	1150	1146	1146	1146	1146	1142	1142	1138	1138	1138	1138	1138	1138	1138	1138	1134	1134	1134	1131	1127	1127	1127	1127	1127	1127	1127	1127	1127	1127	1127	1127	1127	1123	1123	1123	1123	1123	1123	1123	0	0	0	0	0	0	0	0	0	0	0	0	0	0	0	0	0	0	0
0	0	0	0	0	0	0	0	0	0	0	0	0	0	0	0	0	0	0	0	0	0	0	0	1741	1732	1732	1732	1732	1732	1732	1723	1706	1706	1657	1657	1665	1698	1698	1698	1706	1706	1706	1706	1698	1698	1698	1698	1698	1690	1690	1681	1681	1681	1681	1681	1681	1673	1673	1673	1673	1673	1673	1665	1665	1665	1665	1665	1657	1657	1657	1657	1657	1649	1649	1649	1649	1641	1641	1641	1641	1641	1641	1634	1626	1626	1618	1603	1596	1581	1574	1567	1567	1567	1567	1567	1567	1567	1567	1567	1567	1574	1574	1574	1581	1581	1581	1581	1596	1603	1603	1603	1611	1611	1611	1611	1618	1626	1626	1634	1634	1634	1641	1641	1641	1649	1649	1657	1665	1665	1665	1673	1673	1673	1681	1681	1690	1690	1698	1698	1698	1706	1706	1706	1706	1706	1706	1706	1706	1706	1698	1698	1698	1698	1690	1690	1690	1681	1681	1681	1681	1681	1673	1673	1673	1673	1673	1673	1665	1665	1665	1665	1665	1665	1665	1665	1665	1665	1657	1657	1649	1649	1641	1641	1641	1641	1634	1634	1634	1634	1634	1634	1634	1634	1634	1626	1626	1618	1611	1603	1603	1603	1603	1603	1603	1603	1603	1596	1596	1596	1596	1596	1596	1596	1596	1596	1589	1589	1581	1581	1581	1574	1574	1574	1574	1574	1574	1574	1574	1567	1567	1567	1567	1567	1560	1560	1560	1560	1553	1553	1546	1546	1546	1546	1546	1546	1539	1539	1539	1539	1539	1539	1539	1532	1532	1525	1525	1525	1519	1519	1519	1519	1519	1512	1512	1512	1506	1506	1506	1506	1506	1506	1506	1499	1499	1499	1492	1492	1492	1492	1492	1486	1486	1486	1486	1486	1486	1486	1480	1480	1480	1473	1473	1467	1467	1467	1467	1467	1461	1461	1461	1461	1461	1461	1461	1461	1461	1455	1455	1449	1449	1443	1443	1443	1443	1443	1443	1443	1437	1437	1431	1431	1431	1431	1425	1425	1425	1425	1419	1419	1413	1413	1413	1413	1413	1413	1413	1413	1407	1407	1407	1407	1407	1402	1402	1402	1396	1396	1396	1390	1390	1390	1385	1385	1385	1385	1385	1385	1385	1385	1385	1379	1379	1379	1379	1374	1368	1368	1368	1368	1368	1363	1363	1363	1363	1363	1358	1358	1358	1358	1358	1352	1352	1352	1352	1347	1347	1347	1347	1347	1342	1342	1342	1342	1342	1342	1342	1342	1342	1336	1336	1331	1331	1326	1326	1326	1326	1326	1326	1321	1321	1321	1321	1321	1321	1316	1316	1316	1316	1311	1311	1306	1306	1306	1306	1306	1301	1301	1301	1301	1301	1301	1301	1301	1296	1296	1296	1291	1287	1287	1282	1282	1282	1282	1282	1282	1277	1277	1277	1277	1277	1277	1272	1272	1272	1272	1272	1268	1268	1268	1263	1263	1263	1263	1263	1259	1259	1259	1259	1259	1259	1259	1259	1259	1259	1254	1254	1254	1249	1249	1245	1245	1245	1245	1240	1240	1240	1240	1240	1240	1240	1240	1236	1236	1232	1232	1232	1227	1227	1227	1227	1227	1227	1223	1223	1223	1223	1223	1219	1219	1219	1219	1214	1214	1210	1210	1210	1210	1210	1206	1206	1206	1206	1206	1206	1202	1202	1202	1197	1193	1193	1193	1193	1193	1193	1193	1193	1189	1189	1189	1189	1189	1189	1185	1185	1185	1185	1185	1181	1181	1177	1177	1177	1177	1177	1177	1173	1173	1169	1169	1165	1165	1165	1165	1165	1161	1161	1157	1157	1157	1153	1153	1153	1153	1153	1153	1153	1153	1153	1153	1150	1150	1150	1146	1146	1146	1146	1142	1138	1138	1138	1138	1138	1138	1138	1138	1138	1134	1134	1134	1131	1127	1127	1127	1127	1127	1127	1127	1127	1127	1127	1127	1127	1127	1123	1123	1123	1123	1123	1123	1123	0	0	0	0	0	0	0	0	0	0	0	0	0	0	0	0	0	0	0
0	0	0	0	0	0	0	0	0	0	0	0	0	0	0	0	0	0	0	0	0	0	0	0	1741	1741	1741	1732	1732	1732	1732	1723	1715	1715	1706	1698	1698	1706	1715	1715	1715	1715	1723	1723	1715	1715	1715	1706	1706	1698	1690	1690	1690	1681	1681	1681	1681	1681	1681	1673	1673	1673	1673	1665	1665	1665	1665	1665	1657	1657	1657	1657	1657	1649	1649	1649	1649	1641	1641	1641	1641	1641	1641	1634	1618	1618	1618	1603	1596	1581	1574	1567	1567	1567	1567	1567	1567	1567	1567	1567	1574	1574	1574	1581	1581	1581	1581	1589	1596	1603	1603	1603	1611	1611	1611	1611	1618	1626	1634	1634	1634	1634	1641	1641	1641	1649	1649	1657	1665	1665	1665	1673	1673	1673	1681	1681	1690	1690	1698	1698	1698	1706	1706	1706	1706	1706	1706	1706	1706	1706	1698	1698	1698	1698	1690	1690	1690	1681	1681	1681	1681	1681	1673	1673	1673	1673	1673	1673	1665	1665	1665	1665	1665	1665	1665	1665	1665	1665	1665	1657	1649	1649	1641	1641	1641	1641	1641	1641	1634	1634	1634	1634	1634	1634	1634	1626	1626	1618	1611	1611	1603	1603	1603	1603	1603	1603	1603	1603	1596	1596	1596	1596	1596	1596	1596	1596	1589	1589	1581	1581	1581	1574	1574	1574	1574	1574	1574	1574	1574	1567	1567	1567	1567	1567	1560	1560	1560	1560	1553	1553	1546	1546	1546	1546	1546	1546	1546	1539	1539	1539	1539	1539	1539	1532	1525	1525	1525	1519	1519	1519	1519	1519	1519	1519	1512	1512	1512	1512	1512	1506	1506	1506	1506	1506	1499	1499	1499	1492	1492	1492	1492	1486	1486	1486	1486	1486	1486	1486	1480	1480	1473	1473	1473	1467	1467	1467	1467	1467	1461	1461	1461	1461	1461	1461	1461	1461	1461	1455	1455	1449	1449	1443	1443	1443	1443	1443	1443	1443	1437	1437	1431	1431	1431	1431	1425	1425	1425	1425	1419	1419	1413	1413	1413	1413	1413	1413	1413	1413	1413	1407	1407	1407	1407	1402	1402	1402	1396	1396	1390	1390	1390	1390	1385	1385	1385	1385	1385	1385	1385	1385	1385	1379	1379	1379	1374	1374	1368	1368	1368	1368	1368	1368	1363	1363	1363	1363	1358	1358	1358	1358	1358	1352	1352	1352	1352	1347	1347	1347	1347	1347	1347	1342	1342	1342	1342	1342	1342	1342	1342	1336	1336	1331	1331	1326	1326	1326	1326	1326	1326	1321	1321	1321	1321	1321	1321	1316	1316	1316	1316	1311	1311	1306	1306	1306	1306	1306	1301	1301	1301	1301	1301	1301	1301	1301	1296	1296	1296	1291	1287	1287	1282	1282	1282	1282	1282	1282	1277	1277	1277	1277	1277	1277	1272	1272	1272	1272	1272	1268	1268	1268	1263	1263	1263	1263	1263	1259	1259	1259	1259	1259	1259	1259	1259	1259	1254	1254	1249	1249	1249	1249	1245	1245	1245	1245	1240	1240	1240	1240	1240	1240	1240	1240	1236	1236	1232	1232	1232	1227	1227	1227	1227	1227	1227	1223	1223	1223	1223	1223	1219	1219	1219	1219	1214	1214	1210	1210	1210	1210	1210	1206	1206	1206	1206	1206	1206	1202	1202	1197	1197	1197	1193	1193	1193	1193	1193	1193	1193	1189	1189	1189	1189	1189	1189	1185	1185	1185	1185	1185	1181	1181	1177	1177	1177	1177	1177	1177	1173	1173	1169	1169	1169	1165	1165	1165	1165	1165	1165	1161	1157	1153	1153	1153	1153	1153	1153	1153	1153	1153	1153	1153	1150	1150	1150	1150	1146	1146	1146	1142	1138	1138	1138	1138	1138	1138	1138	1138	1138	1138	1134	1131	1127	1127	1127	1127	1127	1127	1127	1127	1127	1127	1127	1127	1127	1127	1123	1123	1123	1123	1123	1123	1123	0	0	0	0	0	0	0	0	0	0	0	0	0	0	0	0	0	0	0
0	0	0	0	0	0	0	0	0	0	0	0	0	0	0	0	0	0	0	0	0	0	0	0	1741	1741	1741	1741	1732	1732	1732	1723	1715	1715	1706	1706	1706	1706	1715	1715	1715	1715	1723	1723	1715	1715	1715	1715	1706	1698	1698	1690	1690	1681	1681	1681	1681	1681	1681	1673	1673	1673	1673	1665	1665	1665	1665	1665	1657	1657	1657	1657	1649	1649	1649	1649	1649	1641	1641	1641	1641	1641	1641	1634	1618	1618	1611	1603	1596	1574	1567	1567	1567	1567	1567	1567	1567	1567	1567	1567	1574	1574	1574	1574	1581	1581	1581	1589	1596	1603	1603	1603	1611	1611	1611	1611	1618	1626	1626	1634	1634	1634	1641	1641	1641	1649	1649	1657	1657	1665	1665	1673	1673	1673	1681	1681	1681	1690	1698	1698	1698	1706	1706	1706	1706	1706	1706	1706	1706	1706	1698	1698	1698	1690	1690	1690	1690	1681	1681	1673	1673	1681	1673	1673	1673	1673	1673	1673	1665	1665	1665	1665	1665	1665	1665	1665	1665	1665	1657	1657	1649	1649	1641	1641	1641	1641	1641	1641	1634	1634	1634	1634	1634	1634	1634	1626	1626	1626	1611	1611	1611	1611	1603	1603	1603	1603	1603	1603	1603	1603	1596	1596	1596	1596	1596	1589	1589	1589	1581	1581	1574	1574	1574	1574	1574	1574	1574	1574	1574	1567	1567	1567	1567	1567	1567	1560	1560	1560	1553	1553	1546	1546	1546	1546	1546	1546	1546	1539	1539	1539	1539	1539	1539	1532	1525	1525	1525	1519	1519	1519	1519	1519	1519	1512	1512	1512	1512	1512	1512	1506	1506	1506	1506	1506	1499	1499	1499	1492	1492	1492	1492	1486	1486	1486	1486	1486	1486	1480	1480	1480	1473	1473	1473	1467	1467	1467	1467	1467	1461	1461	1461	1461	1461	1461	1461	1461	1461	1455	1455	1449	1449	1443	1443	1443	1443	1443	1443	1443	1437	1437	1431	1431	1431	1431	1431	1425	1425	1425	1419	1419	1419	1413	1413	1413	1413	1413	1413	1413	1413	1407	1407	1407	1407	1402	1402	1402	1396	1396	1390	1390	1390	1390	1385	1385	1385	1385	1385	1385	1385	1385	1379	1379	1374	1374	1374	1374	1374	1368	1368	1368	1368	1368	1363	1363	1363	1363	1358	1358	1358	1358	1358	1352	1352	1352	1352	1347	1347	1347	1347	1347	1347	1342	1342	1342	1342	1342	1342	1336	1336	1336	1331	1331	1326	1326	1326	1326	1326	1321	1321	1321	1321	1321	1321	1321	1321	1316	1316	1316	1316	1311	1311	1306	1306	1306	1306	1306	1301	1301	1301	1301	1301	1301	1301	1301	1296	1296	1296	1296	1287	1287	1282	1282	1282	1282	1282	1282	1277	1277	1277	1277	1277	1277	1272	1272	1272	1272	1272	1268	1268	1268	1263	1263	1263	1263	1263	1259	1259	1259	1259	1259	1259	1259	1259	1259	1254	1254	1249	1249	1249	1249	1245	1245	1245	1245	1240	1240	1240	1240	1240	1240	1240	1240	1236	1236	1232	1232	1232	1232	1227	1227	1227	1227	1227	1223	1223	1223	1223	1223	1219	1219	1219	1219	1214	1210	1210	1210	1210	1210	1210	1206	1206	1206	1206	1206	1206	1202	1202	1197	1197	1197	1193	1193	1193	1193	1193	1193	1193	1189	1189	1189	1189	1189	1189	1189	1185	1185	1185	1185	1181	1181	1177	1177	1177	1177	1177	1177	1173	1173	1169	1169	1165	1165	1165	1165	1165	1165	1165	1161	1157	1153	1153	1153	1153	1153	1153	1153	1153	1153	1153	1153	1150	1150	1150	1150	1146	1146	1146	1142	1142	1138	1138	1138	1138	1138	1138	1138	1138	1138	1134	1131	1127	1127	1127	1127	1127	1127	1127	1127	1127	1127	1127	1127	1127	1127	1123	1123	1123	1123	1123	1123	1123	0	0	0	0	0	0	0	0	0	0	0	0	0	0	0	0	0	0	0
0	0	0	0	0	0	0	0	0	0	0	0	0	0	0	0	0	0	0	0	0	0	0	0	1741	1741	1741	1741	1741	1741	1732	1732	1732	1723	1723	1715	1715	1715	1715	1715	1715	1723	1723	1723	1715	1715	1715	1706	1706	1698	1690	1690	1690	1681	1681	1681	1681	1681	1681	1673	1673	1673	1673	1673	1673	1665	1665	1657	1657	1657	1657	1649	1649	1649	1649	1657	1657	1641	1641	1649	1649	1641	1634	1634	1618	1618	1611	1603	1596	1574	1567	1567	1567	1567	1567	1567	1567	1567	1567	1567	1574	1574	1574	1574	1581	1581	1581	1589	1596	1603	1603	1603	1603	1603	1611	1611	1618	1618	1626	1634	1634	1641	1641	1641	1641	1649	1649	1657	1657	1665	1665	1673	1673	1673	1681	1681	1681	1690	1698	1698	1698	1706	1706	1706	1706	1706	1706	1706	1706	1698	1698	1698	1698	1690	1690	1690	1690	1681	1681	1673	1673	1681	1673	1673	1673	1673	1673	1673	1665	1665	1665	1665	1665	1665	1665	1665	1665	1665	1657	1657	1649	1641	1641	1641	1641	1641	1641	1641	1634	1634	1634	1634	1634	1634	1634	1626	1626	1626	1618	1611	1611	1611	1611	1603	1603	1603	1603	1603	1603	1603	1603	1596	1596	1596	1596	1589	1589	1589	1581	1581	1574	1574	1574	1574	1574	1574	1574	1574	1574	1567	1567	1567	1567	1567	1560	1560	1560	1553	1553	1553	1546	1546	1546	1546	1546	1546	1546	1539	1539	1539	1539	1539	1539	1532	1532	1525	1525	1525	1519	1519	1519	1519	1519	1512	1512	1512	1512	1512	1512	1506	1506	1506	1506	1506	1499	1499	1499	1492	1492	1492	1486	1486	1486	1486	1486	1486	1486	1480	1480	1480	1473	1473	1473	1467	1467	1467	1467	1467	1461	1461	1461	1461	1461	1461	1461	1461	1455	1455	1449	1449	1443	1443	1443	1443	1443	1443	1443	1443	1437	1437	1431	1431	1431	1431	1431	1425	1425	1425	1419	1419	1419	1413	1413	1413	1413	1413	1413	1413	1407	1407	1407	1407	1407	1407	1402	1402	1396	1390	1390	1390	1390	1390	1385	1385	1390	1385	1385	1385	1385	1385	1379	1379	1374	1374	1374	1374	1374	1374	1368	1368	1368	1368	1363	1363	1363	1363	1358	1358	1358	1358	1352	1352	1352	1352	1352	1347	1347	1347	1347	1347	1347	1342	1342	1342	1342	1342	1336	1336	1336	1336	1331	1331	1326	1326	1326	1326	1326	1321	1321	1321	1321	1321	1321	1321	1321	1316	1316	1316	1311	1311	1311	1311	1306	1306	1306	1306	1301	1301	1301	1301	1301	1301	1301	1301	1301	1296	1296	1296	1287	1287	1282	1282	1282	1282	1282	1282	1277	1277	1277	1277	1277	1277	1272	1272	1272	1272	1268	1268	1268	1268	1263	1263	1263	1263	1263	1259	1259	1259	1259	1259	1259	1259	1259	1259	1254	1254	1254	1254	1249	1249	1245	1245	1245	1245	1245	1240	1240	1240	1240	1240	1240	1240	1236	1236	1232	1232	1232	1232	1227	1227	1227	1227	1227	1223	1223	1223	1223	1223	1219	1219	1219	1219	1214	1210	1210	1210	1210	1210	1210	1206	1206	1206	1206	1206	1206	1202	1202	1202	1197	1197	1193	1193	1193	1193	1193	1193	1193	1193	1189	1189	1189	1189	1189	1189	1185	1185	1185	1185	1181	1181	1177	1177	1177	1177	1173	1173	1173	1173	1169	1165	1165	1165	1165	1161	1161	1161	1161	1161	1157	1153	1153	1153	1153	1153	1153	1153	1153	1153	1153	1153	1153	1153	1153	1150	1150	1150	1150	1146	1142	1138	1138	1138	1138	1138	1138	1138	1138	1138	1134	1134	1127	1127	1131	1127	1127	1127	1127	1127	1127	1127	1127	1127	1127	1127	1123	1123	1123	1123	1123	1123	1123	0	0	0	0	0	0	0	0	0	0	0	0	0	0	0	0	0	0	0
0	0	0	0	0	0	0	0	0	0	0	0	0	0	0	0	0	0	0	0	0	0	0	0	1741	1741	1741	1741	1741	1741	1741	1741	1732	1732	1732	1723	1723	1723	1723	1723	1723	1723	1723	1715	1715	1715	1715	1706	1698	1690	1690	1690	1690	1681	1681	1681	1681	1681	1681	1673	1673	1673	1673	1673	1665	1665	1657	1657	1657	1649	1649	1649	1649	1649	1649	1649	1657	1641	1641	1649	1649	1641	1634	1634	1618	1618	1611	1603	1596	1581	1567	1567	1567	1567	1567	1567	1567	1567	1574	1574	1574	1574	1574	1581	1581	1581	1581	1589	1596	1603	1603	1603	1603	1603	1611	1611	1618	1618	1626	1634	1634	1634	1641	1641	1641	1649	1649	1657	1657	1665	1665	1673	1673	1673	1681	1681	1681	1690	1698	1698	1698	1706	1706	1706	1706	1706	1698	1698	1698	1698	1698	1698	1698	1690	1690	1690	1690	1681	1681	1681	1681	1681	1673	1673	1673	1673	1673	1673	1665	1665	1665	1665	1665	1665	1665	1657	1657	1657	1657	1657	1649	1641	1641	1641	1641	1641	1641	1641	1634	1634	1634	1634	1634	1634	1634	1626	1626	1626	1618	1611	1611	1611	1603	1603	1603	1603	1603	1603	1603	1603	1603	1596	1596	1596	1596	1589	1589	1589	1581	1574	1574	1574	1574	1574	1574	1574	1574	1574	1567	1567	1567	1567	1567	1567	1560	1560	1560	1553	1553	1546	1546	1546	1546	1546	1546	1546	1546	1539	1539	1539	1539	1539	1539	1532	1525	1525	1519	1519	1519	1519	1519	1519	1519	1519	1519	1512	1512	1512	1512	1506	1506	1506	1506	1506	1499	1499	1499	1492	1492	1492	1486	1486	1486	1486	1486	1486	1486	1486	1480	1480	1473	1473	1473	1467	1467	1467	1467	1467	1461	1461	1461	1461	1461	1461	1461	1461	1455	1455	1449	1449	1443	1443	1443	1443	1443	1443	1443	1443	1437	1431	1431	1431	1431	1431	1431	1425	1425	1425	1419	1419	1419	1413	1413	1413	1413	1413	1407	1407	1407	1407	1407	1407	1407	1407	1402	1402	1396	1390	1390	1390	1390	1390	1390	1390	1390	1385	1385	1385	1385	1385	1379	1379	1379	1374	1374	1374	1374	1374	1368	1368	1368	1368	1368	1363	1363	1363	1358	1358	1358	1358	1352	1352	1352	1352	1352	1347	1347	1347	1347	1347	1347	1342	1342	1342	1342	1342	1336	1336	1336	1336	1331	1331	1326	1326	1326	1326	1326	1321	1321	1321	1321	1321	1321	1321	1321	1316	1316	1316	1311	1311	1311	1311	1306	1306	1306	1306	1301	1301	1301	1301	1301	1301	1301	1301	1301	1296	1296	1296	1287	1287	1282	1282	1282	1282	1282	1282	1277	1277	1277	1277	1277	1277	1272	1272	1272	1272	1268	1268	1268	1268	1263	1263	1263	1263	1263	1259	1259	1259	1259	1259	1259	1259	1259	1259	1254	1254	1254	1254	1249	1249	1249	1245	1245	1245	1245	1245	1240	1240	1240	1240	1240	1236	1236	1236	1232	1232	1232	1232	1227	1227	1227	1227	1227	1223	1223	1223	1223	1223	1219	1219	1219	1219	1214	1214	1210	1210	1210	1210	1210	1210	1206	1206	1206	1206	1206	1202	1202	1202	1197	1197	1193	1193	1193	1193	1193	1193	1193	1193	1189	1189	1189	1189	1189	1189	1185	1185	1185	1185	1181	1181	1177	1177	1177	1173	1173	1173	1173	1173	1169	1165	1165	1165	1165	1161	1161	1161	1161	1157	1157	1153	1153	1153	1153	1153	1153	1153	1153	1153	1153	1153	1153	1153	1153	1150	1150	1150	1150	1150	1142	1138	1138	1138	1138	1138	1138	1138	1138	1138	1134	1134	1127	1127	1131	1131	1131	1127	1127	1127	1127	1127	1127	1127	1127	1123	1123	1123	1123	1123	1120	1120	1120	0	0	0	0	0	0	0	0	0	0	0	0	0	0	0	0	0	0	0
0	0	0	0	0	0	0	0	0	0	0	0	0	0	0	0	0	0	0	0	0	0	0	0	1741	1741	1741	1741	1741	1741	1741	1741	1732	1732	1732	1732	1732	1723	1723	1723	1723	1723	1723	1715	1715	1715	1715	1706	1698	1690	1690	1690	1690	1681	1681	1681	1681	1681	1681	1673	1673	1673	1673	1673	1665	1665	1657	1649	1649	1649	1649	1649	1649	1649	1649	1649	1649	1649	1649	1649	1649	1649	1641	1634	1618	1618	1611	1603	1596	1581	1574	1567	1567	1567	1567	1567	1567	1574	1574	1574	1574	1574	1574	1581	1581	1581	1581	1589	1589	1603	1603	1603	1603	1603	1611	1611	1618	1618	1626	1634	1634	1634	1641	1641	1649	1649	1657	1657	1657	1665	1665	1673	1673	1673	1681	1681	1681	1690	1698	1698	1698	1706	1706	1706	1706	1706	1698	1698	1698	1698	1698	1698	1698	1690	1690	1690	1690	1690	1690	1681	1681	1681	1673	1673	1673	1673	1673	1673	1665	1665	1665	1665	1665	1665	1657	1657	1657	1657	1657	1657	1649	1649	1641	1641	1641	1641	1641	1641	1634	1634	1634	1634	1634	1634	1634	1634	1634	1626	1618	1611	1611	1611	1603	1603	1603	1603	1603	1603	1603	1603	1603	1596	1596	1596	1596	1589	1589	1589	1581	1574	1574	1574	1574	1574	1574	1574	1574	1574	1567	1567	1567	1567	1567	1567	1567	1560	1560	1553	1553	1546	1546	1546	1546	1546	1546	1546	1546	1546	1539	1539	1539	1539	1539	1532	1525	1525	1519	1519	1519	1519	1519	1519	1519	1519	1519	1512	1512	1512	1512	1506	1506	1506	1506	1506	1506	1499	1499	1492	1492	1492	1486	1486	1486	1486	1486	1486	1486	1486	1480	1480	1473	1473	1473	1467	1467	1467	1467	1467	1461	1461	1461	1461	1461	1461	1461	1461	1455	1455	1449	1449	1443	1443	1443	1443	1443	1443	1443	1443	1437	1431	1431	1431	1431	1431	1431	1425	1425	1425	1425	1419	1419	1413	1413	1413	1413	1407	1407	1407	1407	1407	1407	1407	1407	1407	1402	1402	1396	1396	1390	1390	1390	1390	1390	1390	1390	1385	1385	1385	1385	1385	1379	1379	1379	1374	1374	1374	1374	1374	1368	1368	1368	1368	1368	1363	1363	1363	1363	1363	1358	1358	1352	1352	1352	1352	1352	1347	1347	1347	1347	1347	1347	1342	1342	1342	1342	1342	1336	1336	1336	1336	1331	1331	1326	1326	1326	1326	1326	1321	1321	1321	1321	1321	1321	1321	1321	1316	1316	1316	1316	1311	1311	1311	1306	1306	1306	1306	1301	1301	1301	1301	1301	1301	1301	1301	1296	1296	1296	1296	1287	1287	1282	1282	1282	1282	1282	1282	1277	1277	1277	1277	1277	1277	1272	1272	1272	1272	1272	1268	1268	1268	1263	1263	1263	1263	1263	1259	1259	1259	1259	1259	1259	1259	1259	1259	1254	1254	1254	1254	1249	1249	1249	1245	1245	1245	1245	1245	1240	1240	1240	1240	1240	1236	1236	1236	1232	1232	1232	1232	1227	1227	1227	1227	1227	1223	1223	1223	1223	1219	1219	1219	1219	1219	1214	1214	1210	1210	1210	1210	1210	1210	1206	1206	1206	1206	1206	1202	1202	1202	1197	1197	1193	1193	1193	1193	1193	1193	1193	1193	1189	1189	1189	1189	1189	1185	1185	1185	1185	1185	1181	1181	1177	1177	1177	1173	1173	1173	1173	1173	1169	1169	1165	1165	1165	1161	1161	1161	1161	1157	1157	1153	1153	1153	1153	1153	1153	1153	1153	1153	1153	1153	1153	1153	1153	1150	1150	1146	1146	1146	1142	1138	1138	1138	1138	1138	1138	1138	1138	1138	1138	1134	1134	1134	1131	1131	1131	1127	1127	1127	1127	1127	1127	1127	1127	1123	1123	1123	1123	1120	1120	1120	1120	0	0	0	0	0	0	0	0	0	0	0	0	0	0	0	0	0	0	0
0	0	0	0	0	0	0	0	0	0	0	0	0	0	0	0	0	0	0	0	0	0	0	0	1741	1741	1741	1741	1741	1741	1741	1741	1732	1732	1732	1732	1723	1715	1715	1715	1723	1723	1723	1715	1715	1715	1706	1706	1690	1690	1690	1681	1681	1681	1681	1681	1681	1681	1681	1673	1673	1673	1673	1673	1665	1665	1657	1649	1649	1649	1649	1649	1649	1649	1649	1649	1649	1641	1641	1649	1649	1649	1641	1634	1626	1618	1611	1603	1596	1581	1574	1574	1567	1574	1574	1574	1574	1574	1574	1574	1574	1574	1574	1581	1581	1581	1581	1589	1589	1603	1603	1603	1603	1603	1611	1611	1618	1618	1626	1626	1634	1634	1641	1641	1641	1649	1649	1657	1657	1665	1665	1673	1673	1673	1673	1681	1690	1698	1698	1698	1698	1706	1706	1706	1706	1706	1698	1698	1698	1698	1698	1698	1698	1690	1690	1690	1690	1690	1681	1681	1681	1681	1673	1673	1673	1673	1673	1673	1665	1665	1665	1665	1665	1657	1657	1657	1657	1657	1657	1649	1649	1649	1641	1641	1641	1641	1641	1641	1634	1634	1634	1634	1634	1634	1634	1634	1626	1626	1618	1611	1611	1603	1603	1603	1603	1603	1603	1603	1603	1603	1603	1596	1596	1596	1596	1596	1589	1589	1589	1581	1581	1574	1574	1574	1574	1574	1574	1574	1567	1567	1567	1567	1567	1567	1567	1560	1560	1560	1553	1546	1546	1546	1546	1546	1546	1546	1546	1546	1539	1539	1539	1539	1539	1532	1525	1525	1519	1519	1519	1519	1519	1519	1519	1519	1519	1512	1512	1512	1512	1512	1512	1512	1512	1506	1499	1492	1492	1492	1492	1492	1486	1486	1486	1486	1486	1486	1486	1486	1480	1480	1473	1473	1473	1467	1467	1467	1467	1467	1461	1461	1461	1461	1461	1461	1461	1455	1455	1455	1449	1449	1443	1443	1443	1443	1443	1443	1443	1443	1437	1437	1431	1431	1431	1431	1431	1425	1425	1425	1425	1425	1419	1413	1413	1413	1413	1407	1407	1407	1407	1407	1407	1407	1407	1407	1402	1402	1396	1396	1390	1390	1390	1390	1390	1390	1390	1385	1385	1385	1385	1385	1379	1379	1379	1374	1374	1374	1374	1368	1368	1368	1368	1368	1368	1363	1363	1363	1358	1358	1358	1358	1352	1352	1352	1352	1347	1347	1347	1347	1347	1347	1347	1342	1342	1342	1342	1342	1336	1336	1336	1331	1331	1331	1326	1326	1326	1326	1326	1321	1321	1321	1321	1321	1321	1321	1321	1316	1316	1316	1311	1311	1311	1311	1311	1306	1306	1306	1301	1301	1301	1301	1301	1301	1301	1301	1296	1296	1296	1291	1287	1287	1282	1282	1282	1282	1282	1282	1282	1277	1277	1277	1277	1277	1272	1272	1272	1272	1268	1268	1263	1263	1263	1263	1263	1263	1263	1259	1259	1259	1259	1259	1259	1259	1254	1254	1254	1254	1254	1254	1249	1249	1249	1245	1245	1245	1245	1245	1240	1240	1240	1240	1236	1236	1236	1232	1232	1232	1232	1232	1227	1227	1227	1227	1227	1223	1223	1223	1223	1219	1219	1219	1219	1219	1214	1214	1210	1210	1210	1210	1210	1210	1206	1206	1206	1206	1206	1202	1202	1202	1197	1197	1193	1193	1193	1193	1193	1193	1193	1193	1189	1189	1189	1189	1189	1185	1185	1185	1185	1185	1185	1181	1181	1177	1177	1173	1173	1173	1173	1173	1169	1169	1165	1165	1165	1165	1161	1161	1161	1157	1157	1157	1157	1153	1153	1153	1153	1153	1153	1153	1153	1153	1153	1153	1153	1150	1150	1146	1146	1146	1142	1142	1142	1138	1138	1138	1138	1138	1138	1138	1138	1134	1131	1131	1131	1131	1131	1127	1127	1127	1127	1127	1127	1127	1127	1123	1123	1120	1120	1120	1120	1120	1120	0	0	0	0	0	0	0	0	0	0	0	0	0	0	0	0	0	0	0
0	0	0	0	0	0	0	0	0	0	0	0	0	0	0	0	0	0	0	0	0	0	0	0	1741	1741	1741	1741	1741	1741	1741	1741	1732	1732	1732	1732	1723	1715	1715	1715	1723	1723	1723	1715	1715	1715	1706	1698	1690	1690	1690	1681	1681	1681	1681	1681	1681	1681	1673	1673	1673	1673	1673	1665	1665	1665	1657	1657	1649	1649	1649	1649	1649	1649	1649	1649	1649	1641	1641	1649	1641	1641	1634	1626	1618	1618	1611	1603	1603	1581	1574	1574	1574	1574	1574	1574	1567	1567	1574	1574	1574	1574	1574	1581	1581	1581	1581	1596	1596	1603	1603	1603	1603	1611	1611	1611	1618	1618	1626	1626	1634	1634	1641	1641	1641	1649	1649	1657	1657	1665	1665	1673	1673	1673	1673	1681	1690	1698	1698	1698	1698	1698	1706	1706	1706	1706	1698	1698	1698	1698	1698	1698	1698	1698	1690	1690	1690	1690	1681	1681	1681	1681	1673	1673	1673	1673	1673	1673	1665	1665	1665	1665	1665	1657	1657	1657	1657	1657	1657	1649	1649	1649	1641	1641	1641	1641	1641	1641	1634	1634	1634	1634	1634	1634	1634	1634	1626	1626	1618	1611	1611	1603	1603	1603	1603	1603	1603	1603	1603	1603	1603	1596	1596	1596	1596	1596	1589	1589	1589	1581	1581	1581	1581	1574	1574	1574	1574	1574	1567	1567	1567	1567	1567	1567	1567	1567	1560	1560	1553	1546	1546	1546	1546	1546	1546	1546	1546	1546	1539	1539	1539	1539	1539	1532	1525	1525	1519	1519	1519	1519	1519	1519	1519	1519	1519	1519	1512	1512	1512	1512	1512	1512	1506	1506	1499	1492	1492	1492	1492	1492	1486	1486	1486	1486	1486	1486	1486	1486	1480	1480	1480	1480	1473	1473	1467	1467	1467	1467	1461	1461	1461	1461	1461	1461	1461	1455	1455	1455	1455	1449	1449	1443	1443	1443	1443	1443	1443	1443	1437	1437	1431	1431	1431	1431	1425	1425	1425	1425	1419	1419	1419	1413	1413	1413	1413	1407	1407	1407	1407	1407	1407	1407	1407	1407	1402	1402	1396	1396	1390	1390	1390	1390	1390	1390	1390	1385	1385	1385	1385	1385	1379	1379	1379	1374	1374	1374	1374	1368	1368	1368	1368	1368	1368	1363	1363	1363	1358	1358	1358	1358	1352	1352	1352	1347	1347	1347	1347	1347	1347	1347	1347	1347	1342	1342	1342	1342	1342	1336	1336	1331	1331	1331	1326	1326	1326	1326	1326	1326	1321	1321	1321	1321	1321	1321	1321	1316	1316	1316	1311	1311	1311	1311	1311	1306	1306	1306	1301	1301	1301	1301	1301	1301	1301	1301	1296	1296	1296	1291	1287	1287	1282	1282	1282	1282	1282	1282	1282	1277	1277	1277	1277	1277	1272	1272	1272	1268	1268	1263	1263	1263	1263	1263	1263	1263	1263	1259	1259	1259	1259	1254	1254	1254	1254	1254	1249	1249	1249	1249	1249	1249	1245	1245	1245	1245	1245	1245	1240	1240	1240	1240	1236	1236	1236	1232	1232	1232	1232	1227	1227	1227	1227	1223	1223	1223	1223	1223	1223	1219	1219	1219	1219	1219	1214	1214	1210	1210	1210	1210	1210	1210	1210	1210	1210	1206	1206	1202	1202	1197	1197	1197	1193	1193	1193	1193	1193	1193	1193	1193	1189	1189	1189	1189	1189	1189	1185	1185	1185	1185	1181	1181	1177	1177	1177	1173	1173	1173	1173	1173	1169	1169	1165	1165	1165	1165	1161	1157	1157	1157	1157	1157	1157	1157	1153	1153	1153	1153	1153	1153	1153	1153	1153	1153	1153	1153	1150	1150	1146	1146	1142	1142	1142	1138	1138	1138	1138	1138	1138	1138	1134	1134	1131	1131	1131	1131	1131	1127	1127	1127	1127	1127	1127	1127	1127	1123	1123	1120	1120	1120	1120	1120	1120	0	0	0	0	0	0	0	0	0	0	0	0	0	0	0	0	0	0	0
0	0	0	0	0	0	0	0	0	0	0	0	0	0	0	0	0	0	0	0	0	0	0	0	1741	1741	1741	1741	1741	1741	1741	1741	1732	1732	1732	1732	1723	1715	1715	1723	1723	1723	1723	1715	1715	1715	1706	1698	1690	1690	1690	1681	1681	1681	1681	1681	1681	1681	1673	1673	1673	1673	1665	1665	1665	1665	1657	1657	1649	1649	1649	1649	1649	1649	1649	1649	1649	1641	1641	1649	1641	1641	1634	1626	1626	1618	1611	1611	1603	1589	1581	1581	1574	1574	1574	1574	1574	1567	1567	1574	1574	1574	1574	1574	1574	1581	1581	1589	1596	1603	1603	1603	1603	1611	1611	1611	1618	1618	1618	1626	1634	1634	1634	1641	1641	1649	1649	1649	1657	1665	1665	1673	1673	1673	1681	1690	1690	1698	1698	1698	1698	1698	1706	1706	1706	1706	1706	1706	1698	1698	1698	1698	1698	1698	1690	1690	1690	1690	1681	1681	1681	1681	1673	1673	1673	1673	1673	1673	1673	1665	1665	1665	1665	1665	1657	1657	1657	1657	1657	1649	1649	1649	1641	1641	1641	1641	1641	1641	1634	1634	1634	1634	1634	1634	1634	1626	1626	1626	1611	1611	1611	1603	1603	1603	1603	1603	1603	1603	1603	1603	1596	1596	1596	1596	1596	1596	1589	1589	1589	1581	1581	1581	1581	1581	1574	1574	1574	1574	1567	1567	1567	1567	1567	1567	1567	1567	1560	1560	1553	1553	1546	1546	1546	1546	1546	1546	1546	1546	1539	1539	1539	1539	1539	1532	1525	1525	1519	1519	1519	1519	1519	1519	1519	1519	1519	1519	1512	1512	1512	1512	1512	1512	1506	1506	1499	1492	1492	1492	1492	1492	1492	1486	1486	1486	1486	1486	1486	1480	1480	1480	1480	1480	1473	1473	1473	1467	1467	1467	1467	1461	1461	1461	1461	1461	1461	1461	1455	1455	1455	1449	1449	1443	1443	1443	1443	1443	1443	1437	1437	1431	1431	1431	1431	1425	1425	1425	1425	1425	1419	1419	1419	1413	1413	1413	1413	1407	1407	1407	1407	1407	1407	1407	1407	1407	1402	1402	1396	1396	1390	1390	1390	1390	1390	1390	1390	1385	1385	1385	1385	1385	1379	1379	1379	1374	1374	1368	1368	1368	1368	1368	1368	1368	1368	1363	1363	1363	1358	1358	1358	1358	1352	1352	1352	1347	1347	1347	1347	1347	1347	1347	1347	1347	1342	1342	1342	1342	1342	1336	1336	1331	1331	1331	1331	1326	1326	1326	1326	1326	1321	1321	1321	1321	1321	1321	1321	1316	1316	1316	1311	1311	1311	1311	1311	1306	1306	1306	1301	1301	1301	1301	1301	1301	1301	1301	1296	1296	1296	1291	1287	1287	1282	1282	1282	1282	1282	1282	1282	1282	1277	1277	1277	1277	1272	1272	1272	1268	1268	1263	1263	1263	1263	1263	1263	1263	1263	1259	1259	1259	1259	1254	1254	1254	1254	1254	1249	1249	1249	1249	1245	1245	1245	1245	1245	1245	1245	1245	1240	1240	1240	1240	1236	1236	1236	1232	1232	1232	1232	1227	1227	1227	1227	1223	1223	1223	1223	1223	1223	1219	1219	1219	1219	1219	1219	1214	1210	1210	1210	1210	1210	1210	1210	1210	1210	1206	1206	1202	1202	1197	1197	1193	1193	1193	1193	1193	1189	1189	1189	1189	1189	1189	1189	1189	1189	1189	1185	1185	1185	1185	1181	1181	1177	1177	1177	1173	1173	1173	1173	1173	1169	1169	1165	1165	1165	1165	1161	1157	1157	1157	1157	1157	1157	1153	1153	1153	1153	1153	1153	1153	1153	1153	1153	1153	1153	1150	1150	1146	1146	1142	1142	1142	1142	1138	1138	1138	1138	1138	1138	1138	1134	1134	1134	1131	1131	1131	1127	1127	1127	1127	1127	1127	1127	1127	1127	1123	1123	1120	1120	1120	1116	1116	1116	0	0	0	0	0	0	0	0	0	0	0	0	0	0	0	0	0	0	0
0	0	0	0	0	0	0	0	0	0	0	0	0	0	0	0	0	0	0	0	0	0	0	0	1741	1741	1741	1741	1741	1741	1741	1741	1732	1732	1732	1732	1723	1723	1723	1723	1723	1723	1723	1715	1715	1715	1706	1690	1690	1690	1681	1681	1681	1681	1681	1681	1681	1681	1673	1673	1673	1665	1665	1665	1665	1665	1657	1657	1649	1649	1649	1649	1649	1649	1649	1649	1649	1649	1649	1649	1641	1641	1641	1626	1626	1618	1611	1611	1603	1589	1581	1581	1574	1574	1574	1574	1567	1567	1574	1574	1574	1574	1574	1574	1574	1581	1581	1581	1589	1596	1596	1603	1603	1603	1611	1611	1618	1618	1618	1626	1634	1634	1634	1641	1641	1641	1649	1649	1657	1665	1665	1673	1673	1673	1681	1690	1690	1698	1698	1698	1698	1698	1706	1706	1706	1706	1706	1706	1706	1698	1698	1698	1698	1698	1690	1690	1690	1690	1681	1681	1681	1681	1673	1673	1673	1673	1673	1673	1673	1665	1665	1665	1665	1665	1657	1657	1657	1657	1657	1649	1649	1649	1649	1641	1641	1641	1641	1641	1641	1634	1634	1634	1634	1634	1634	1626	1618	1618	1611	1611	1611	1603	1603	1603	1603	1603	1603	1603	1603	1603	1596	1596	1596	1596	1596	1596	1596	1589	1589	1589	1589	1589	1581	1581	1574	1574	1574	1574	1567	1567	1567	1567	1567	1567	1567	1567	1560	1560	1553	1553	1546	1546	1546	1546	1546	1546	1546	1546	1539	1539	1539	1539	1532	1532	1525	1525	1519	1519	1519	1519	1519	1519	1519	1519	1519	1512	1512	1512	1512	1512	1512	1506	1506	1499	1499	1492	1492	1492	1492	1492	1492	1486	1486	1486	1486	1486	1486	1480	1480	1480	1480	1480	1480	1473	1473	1467	1467	1467	1467	1461	1461	1461	1461	1461	1461	1461	1455	1455	1455	1449	1449	1443	1443	1443	1443	1443	1443	1437	1437	1431	1431	1431	1431	1425	1425	1425	1425	1419	1419	1419	1419	1413	1413	1413	1413	1407	1407	1407	1407	1407	1407	1407	1402	1402	1402	1396	1396	1396	1390	1390	1390	1390	1390	1390	1390	1385	1385	1385	1385	1385	1379	1379	1374	1374	1374	1368	1368	1368	1368	1368	1368	1368	1368	1363	1363	1363	1358	1358	1358	1358	1352	1352	1352	1347	1347	1347	1347	1347	1347	1347	1347	1347	1342	1342	1342	1342	1342	1336	1336	1336	1331	1331	1331	1331	1326	1326	1326	1326	1321	1321	1321	1321	1321	1321	1321	1321	1316	1316	1316	1311	1311	1311	1311	1306	1306	1306	1301	1301	1301	1301	1301	1301	1301	1301	1301	1296	1296	1291	1287	1287	1282	1282	1282	1282	1282	1282	1282	1282	1277	1277	1277	1277	1277	1272	1272	1268	1268	1263	1263	1263	1263	1263	1263	1263	1263	1259	1259	1259	1259	1254	1254	1254	1254	1254	1249	1249	1249	1249	1245	1245	1245	1245	1245	1245	1245	1245	1240	1240	1240	1240	1236	1236	1236	1232	1232	1232	1232	1227	1227	1227	1227	1223	1223	1223	1223	1223	1223	1223	1219	1219	1214	1214	1214	1214	1210	1210	1210	1210	1210	1210	1206	1206	1206	1206	1206	1202	1202	1197	1197	1193	1193	1193	1193	1193	1193	1193	1193	1193	1189	1189	1189	1189	1189	1189	1185	1185	1185	1185	1181	1181	1177	1177	1177	1173	1173	1173	1173	1173	1169	1169	1169	1165	1165	1165	1161	1161	1157	1157	1157	1157	1157	1153	1153	1153	1153	1153	1153	1153	1153	1153	1153	1153	1150	1150	1150	1146	1142	1142	1142	1142	1142	1138	1138	1138	1138	1138	1138	1138	1134	1131	1131	1131	1131	1131	1127	1127	1127	1127	1127	1127	1127	1127	1123	1123	1123	1120	1120	1120	1116	1116	1116	0	0	0	0	0	0	0	0	0	0	0	0	0	0	0	0	0	0	0
0	0	0	0	0	0	0	0	0	0	0	0	0	0	0	0	0	0	0	0	0	0	0	0	1741	1741	1741	1732	1732	1732	1732	1732	1732	1732	1732	1732	1723	1723	1723	1723	1723	1723	1723	1715	1715	1715	1706	1690	1690	1690	1681	1681	1681	1681	1681	1681	1681	1681	1673	1673	1673	1665	1665	1665	1665	1665	1657	1657	1649	1649	1649	1649	1649	1649	1649	1649	1649	1649	1649	1649	1641	1641	1641	1626	1626	1618	1611	1611	1603	1589	1581	1581	1574	1574	1574	1574	1567	1567	1567	1574	1574	1574	1574	1574	1581	1581	1581	1589	1596	1596	1603	1603	1603	1603	1611	1611	1611	1611	1618	1618	1626	1626	1634	1641	1641	1641	1649	1649	1657	1665	1665	1673	1673	1673	1681	1690	1690	1690	1698	1698	1698	1698	1706	1706	1706	1706	1706	1706	1706	1698	1698	1698	1698	1698	1690	1690	1690	1690	1681	1681	1681	1681	1681	1673	1673	1673	1673	1673	1673	1665	1665	1665	1665	1665	1657	1657	1657	1649	1649	1649	1649	1649	1649	1649	1649	1641	1641	1641	1641	1634	1634	1634	1634	1634	1634	1626	1618	1618	1611	1611	1611	1603	1603	1603	1603	1603	1603	1603	1603	1603	1596	1596	1596	1596	1596	1596	1596	1596	1589	1589	1589	1589	1581	1581	1581	1574	1574	1574	1574	1567	1567	1567	1567	1567	1567	1567	1560	1560	1553	1553	1546	1546	1546	1546	1546	1546	1546	1546	1539	1539	1539	1539	1532	1532	1525	1525	1519	1519	1519	1519	1519	1519	1519	1519	1519	1519	1512	1512	1512	1512	1506	1506	1506	1499	1499	1492	1492	1492	1492	1492	1492	1492	1486	1486	1486	1486	1486	1486	1480	1480	1480	1480	1480	1480	1473	1473	1467	1467	1467	1467	1461	1461	1461	1461	1461	1461	1461	1455	1455	1449	1449	1443	1443	1443	1443	1443	1443	1437	1437	1431	1431	1431	1431	1425	1425	1419	1419	1419	1419	1419	1413	1413	1413	1413	1413	1407	1407	1407	1407	1407	1407	1402	1402	1402	1396	1396	1396	1396	1390	1390	1390	1390	1390	1390	1390	1385	1385	1385	1385	1385	1379	1379	1374	1374	1374	1368	1368	1368	1368	1368	1368	1368	1368	1363	1363	1363	1358	1358	1358	1358	1352	1352	1352	1347	1347	1347	1347	1347	1347	1347	1342	1342	1342	1342	1342	1342	1342	1336	1336	1336	1331	1331	1331	1326	1326	1326	1326	1326	1321	1321	1321	1321	1321	1321	1321	1321	1316	1316	1311	1311	1311	1311	1306	1306	1306	1306	1301	1301	1301	1301	1301	1301	1301	1301	1301	1296	1296	1291	1287	1287	1282	1282	1282	1282	1282	1282	1282	1282	1277	1277	1277	1277	1277	1272	1272	1268	1268	1268	1263	1263	1263	1263	1263	1263	1263	1259	1259	1259	1259	1254	1254	1254	1254	1254	1254	1254	1249	1249	1245	1245	1245	1245	1245	1245	1245	1245	1240	1240	1240	1240	1236	1236	1236	1232	1232	1232	1232	1227	1227	1227	1227	1223	1223	1223	1223	1223	1223	1223	1219	1219	1214	1214	1214	1214	1210	1210	1210	1210	1210	1210	1206	1206	1206	1206	1206	1202	1197	1197	1197	1197	1193	1193	1193	1193	1193	1193	1189	1189	1189	1189	1189	1189	1189	1185	1185	1185	1185	1185	1181	1181	1177	1177	1177	1173	1173	1173	1173	1173	1169	1169	1169	1165	1165	1165	1165	1161	1161	1157	1157	1157	1157	1157	1153	1153	1153	1153	1153	1153	1153	1150	1150	1153	1150	1150	1146	1146	1142	1142	1142	1142	1142	1142	1138	1138	1138	1138	1138	1134	1134	1131	1131	1131	1131	1131	1127	1127	1127	1131	1127	1127	1127	1127	1123	1123	1123	1120	1120	1120	1120	1120	1120	0	0	0	0	0	0	0	0	0	0	0	0	0	0	0	0	0	0	0
0	0	0	0	0	0	0	0	0	0	0	0	0	0	0	0	0	0	0	0	0	0	0	0	1741	1741	1741	1732	1732	1732	1732	1732	1732	1732	1732	1732	1723	1723	1723	1723	1723	1723	1723	1715	1715	1706	1698	1690	1690	1681	1681	1681	1681	1681	1681	1681	1681	1681	1673	1673	1673	1665	1665	1665	1665	1665	1657	1657	1657	1649	1649	1649	1649	1649	1649	1649	1649	1641	1641	1641	1641	1641	1634	1626	1626	1618	1611	1611	1603	1589	1581	1574	1567	1567	1567	1567	1567	1567	1567	1574	1574	1574	1574	1574	1581	1581	1581	1589	1596	1596	1603	1603	1603	1611	1611	1611	1611	1618	1626	1626	1634	1634	1634	1634	1641	1641	1641	1649	1657	1657	1665	1665	1673	1673	1681	1690	1690	1690	1698	1698	1698	1698	1706	1706	1706	1706	1706	1706	1706	1706	1698	1698	1698	1698	1698	1690	1690	1690	1681	1681	1681	1681	1681	1673	1673	1673	1673	1673	1673	1665	1665	1665	1665	1665	1657	1657	1649	1649	1649	1649	1649	1649	1649	1649	1649	1641	1641	1641	1641	1634	1634	1634	1634	1634	1626	1626	1626	1618	1611	1611	1603	1603	1603	1603	1603	1603	1603	1603	1603	1603	1596	1596	1596	1596	1596	1596	1596	1596	1596	1589	1589	1589	1581	1581	1574	1574	1574	1574	1574	1574	1567	1567	1567	1567	1567	1567	1560	1560	1553	1553	1546	1546	1546	1546	1546	1546	1546	1546	1539	1539	1539	1539	1539	1532	1532	1525	1525	1519	1519	1519	1519	1519	1519	1519	1519	1512	1512	1512	1512	1512	1506	1506	1506	1499	1499	1492	1492	1492	1492	1492	1492	1492	1486	1486	1486	1486	1486	1480	1480	1480	1480	1480	1480	1480	1473	1473	1467	1467	1467	1467	1461	1461	1461	1461	1461	1461	1461	1461	1455	1449	1449	1443	1443	1443	1443	1443	1443	1437	1437	1431	1431	1431	1431	1425	1425	1419	1419	1419	1419	1413	1413	1413	1413	1413	1413	1407	1407	1407	1407	1407	1407	1402	1402	1402	1396	1396	1396	1396	1390	1390	1390	1390	1390	1390	1385	1385	1385	1385	1385	1385	1379	1379	1379	1374	1374	1368	1368	1368	1368	1368	1368	1368	1368	1363	1363	1363	1363	1358	1358	1358	1352	1352	1352	1352	1347	1347	1347	1347	1347	1347	1342	1342	1342	1342	1342	1342	1342	1336	1336	1336	1331	1331	1331	1326	1326	1326	1326	1326	1321	1321	1321	1321	1321	1321	1321	1316	1316	1316	1311	1311	1311	1311	1306	1306	1306	1306	1301	1301	1301	1301	1301	1301	1301	1301	1296	1296	1296	1291	1287	1287	1282	1282	1282	1282	1282	1282	1282	1277	1277	1277	1277	1277	1277	1272	1272	1268	1268	1268	1263	1263	1263	1263	1263	1263	1263	1259	1259	1259	1259	1254	1254	1254	1254	1249	1249	1249	1249	1249	1245	1245	1245	1245	1245	1245	1245	1245	1240	1240	1240	1236	1236	1236	1236	1232	1232	1227	1227	1227	1227	1227	1227	1227	1227	1223	1223	1223	1223	1223	1219	1219	1219	1219	1219	1214	1210	1210	1210	1210	1210	1210	1206	1206	1206	1206	1206	1202	1197	1197	1197	1197	1193	1193	1193	1193	1193	1193	1189	1189	1189	1189	1189	1189	1189	1185	1185	1185	1185	1181	1181	1177	1177	1177	1177	1177	1173	1173	1177	1173	1169	1169	1169	1169	1169	1169	1165	1161	1161	1157	1157	1157	1157	1157	1153	1153	1153	1153	1153	1153	1153	1150	1150	1150	1150	1150	1146	1146	1142	1142	1138	1138	1138	1142	1142	1138	1138	1138	1138	1134	1134	1131	1131	1131	1131	1131	1127	1127	1127	1131	1127	1127	1127	1127	1127	1123	1123	1120	1120	1120	1120	1120	1120	0	0	0	0	0	0	0	0	0	0	0	0	0	0	0	0	0	0	0
0	0	0	0	0	0	0	0	0	0	0	0	0	0	0	0	0	0	0	0	0	0	0	0	1741	1741	1741	1741	1741	1732	1732	1732	1732	1732	1723	1723	1723	1723	1723	1723	1723	1723	1723	1723	1715	1706	1690	1690	1690	1681	1681	1681	1681	1681	1681	1681	1681	1673	1673	1673	1673	1665	1665	1665	1665	1665	1665	1657	1657	1649	1649	1649	1649	1649	1649	1649	1649	1641	1641	1641	1641	1641	1634	1626	1626	1618	1618	1611	1603	1589	1581	1574	1567	1567	1567	1567	1567	1567	1567	1574	1574	1574	1574	1574	1581	1581	1581	1589	1596	1596	1603	1603	1603	1611	1611	1611	1611	1618	1626	1626	1634	1634	1634	1641	1641	1641	1649	1649	1657	1665	1665	1665	1665	1673	1681	1681	1681	1690	1690	1690	1698	1698	1706	1706	1706	1706	1706	1706	1706	1706	1698	1698	1698	1698	1698	1690	1690	1690	1690	1681	1681	1681	1681	1673	1673	1673	1673	1673	1673	1665	1665	1665	1665	1665	1657	1657	1649	1649	1649	1649	1649	1649	1649	1649	1641	1641	1641	1641	1641	1641	1634	1634	1634	1634	1626	1626	1626	1618	1611	1611	1603	1603	1603	1603	1603	1603	1603	1603	1603	1596	1596	1596	1596	1596	1596	1596	1596	1589	1589	1589	1589	1581	1581	1581	1574	1574	1574	1574	1574	1574	1567	1567	1567	1567	1567	1560	1560	1560	1553	1553	1546	1546	1546	1546	1546	1546	1546	1546	1546	1539	1539	1539	1539	1532	1532	1525	1525	1525	1519	1519	1519	1519	1519	1519	1519	1512	1512	1512	1512	1512	1506	1506	1506	1499	1499	1492	1492	1492	1492	1492	1492	1492	1492	1486	1486	1486	1486	1480	1480	1480	1480	1480	1480	1480	1473	1473	1467	1467	1467	1467	1461	1461	1461	1461	1461	1461	1461	1455	1455	1455	1449	1449	1443	1443	1443	1443	1443	1437	1437	1431	1431	1431	1431	1425	1425	1419	1419	1419	1413	1413	1413	1413	1413	1413	1413	1407	1407	1407	1407	1407	1407	1402	1402	1402	1402	1396	1396	1396	1390	1390	1390	1390	1390	1385	1385	1385	1385	1385	1385	1385	1379	1379	1374	1374	1368	1368	1368	1368	1368	1368	1368	1368	1368	1363	1363	1363	1363	1358	1358	1358	1352	1352	1352	1347	1347	1347	1347	1347	1347	1347	1342	1342	1342	1342	1342	1342	1342	1342	1336	1336	1331	1331	1331	1326	1326	1326	1326	1326	1321	1321	1321	1321	1321	1321	1321	1316	1316	1316	1316	1311	1311	1311	1306	1306	1306	1306	1301	1301	1301	1301	1301	1301	1301	1301	1296	1296	1296	1291	1287	1287	1282	1282	1282	1282	1282	1282	1282	1277	1277	1277	1277	1277	1272	1272	1272	1268	1268	1268	1263	1263	1263	1263	1263	1263	1259	1259	1259	1259	1259	1254	1254	1254	1254	1254	1249	1249	1249	1245	1245	1245	1245	1245	1245	1245	1245	1240	1240	1240	1240	1236	1236	1236	1236	1236	1232	1227	1227	1227	1227	1227	1227	1227	1227	1223	1223	1223	1223	1223	1219	1219	1219	1219	1219	1214	1210	1210	1210	1210	1210	1210	1206	1206	1206	1206	1206	1202	1202	1197	1197	1197	1193	1193	1193	1193	1193	1193	1189	1189	1189	1189	1189	1189	1189	1185	1185	1185	1185	1181	1177	1177	1177	1177	1177	1177	1173	1173	1173	1173	1169	1169	1169	1169	1169	1169	1165	1161	1161	1161	1157	1157	1157	1157	1157	1157	1153	1153	1153	1153	1153	1150	1150	1150	1150	1150	1146	1146	1142	1142	1138	1138	1142	1142	1138	1138	1138	1138	1138	1138	1134	1131	1131	1131	1131	1131	1127	1127	1127	1131	1131	1131	1127	1127	1127	1123	1123	1123	1120	1120	1120	1120	1120	0	0	0	0	0	0	0	0	0	0	0	0	0	0	0	0	0	0	0
0	0	0	0	0	0	0	0	0	0	0	0	0	0	0	0	0	0	0	0	0	0	0	0	1741	1741	1741	1741	1741	1732	1732	1732	1732	1732	1723	1723	1723	1723	1723	1732	1723	1723	1723	1723	1706	1698	1690	1690	1690	1681	1681	1681	1681	1681	1681	1681	1681	1673	1673	1673	1673	1665	1665	1665	1665	1665	1665	1657	1657	1649	1649	1649	1649	1649	1649	1649	1649	1641	1641	1641	1641	1641	1634	1634	1626	1618	1618	1603	1596	1589	1581	1567	1567	1567	1567	1567	1567	1567	1567	1567	1574	1574	1574	1574	1581	1581	1581	1589	1589	1596	1603	1603	1603	1611	1611	1611	1618	1618	1626	1634	1634	1634	1634	1641	1641	1641	1649	1649	1657	1665	1665	1665	1673	1673	1681	1681	1690	1690	1690	1698	1698	1698	1698	1698	1706	1706	1706	1706	1706	1706	1698	1698	1698	1698	1698	1698	1690	1690	1690	1681	1681	1681	1681	1673	1673	1673	1673	1673	1673	1673	1665	1665	1665	1657	1657	1657	1649	1649	1649	1649	1649	1649	1641	1641	1641	1641	1641	1641	1641	1641	1634	1634	1634	1634	1626	1626	1626	1618	1611	1611	1611	1603	1603	1603	1603	1603	1603	1603	1603	1596	1596	1596	1596	1596	1596	1596	1589	1589	1589	1581	1581	1581	1574	1574	1574	1574	1574	1574	1574	1567	1567	1567	1567	1567	1567	1560	1560	1560	1553	1553	1546	1546	1546	1546	1546	1546	1546	1546	1546	1539	1539	1539	1539	1532	1532	1532	1525	1525	1519	1519	1519	1519	1519	1519	1519	1512	1512	1512	1512	1512	1512	1512	1506	1506	1499	1492	1492	1492	1492	1492	1492	1492	1486	1486	1486	1486	1486	1480	1480	1480	1480	1480	1480	1473	1473	1467	1467	1467	1467	1467	1461	1461	1461	1461	1461	1461	1461	1455	1455	1455	1449	1449	1443	1443	1443	1443	1443	1437	1437	1431	1431	1431	1431	1425	1425	1419	1419	1419	1413	1413	1413	1413	1413	1413	1413	1407	1407	1407	1407	1407	1407	1402	1402	1402	1402	1402	1396	1396	1390	1390	1390	1390	1385	1385	1385	1385	1385	1385	1385	1379	1374	1374	1374	1368	1368	1368	1368	1368	1368	1368	1368	1368	1363	1363	1363	1363	1363	1358	1358	1352	1352	1352	1352	1347	1347	1347	1347	1347	1347	1347	1347	1342	1342	1342	1342	1342	1342	1342	1336	1336	1336	1331	1331	1326	1326	1326	1326	1326	1321	1321	1321	1321	1321	1321	1321	1316	1316	1316	1316	1316	1311	1306	1306	1306	1306	1306	1306	1301	1301	1301	1301	1301	1301	1296	1296	1296	1296	1291	1287	1287	1282	1282	1282	1282	1282	1282	1282	1277	1277	1277	1277	1277	1277	1272	1272	1268	1268	1268	1263	1263	1263	1263	1263	1263	1259	1259	1259	1259	1259	1259	1254	1254	1254	1254	1249	1249	1249	1245	1245	1245	1245	1245	1245	1245	1245	1240	1240	1240	1240	1236	1236	1236	1236	1236	1232	1232	1232	1227	1227	1227	1227	1227	1227	1223	1223	1223	1223	1223	1219	1219	1219	1219	1219	1214	1214	1210	1210	1210	1210	1210	1206	1206	1206	1206	1206	1202	1202	1197	1197	1197	1197	1193	1193	1193	1193	1193	1189	1189	1189	1189	1189	1189	1189	1185	1185	1185	1185	1181	1177	1177	1177	1177	1177	1177	1173	1173	1173	1173	1169	1169	1169	1169	1169	1165	1165	1161	1161	1161	1157	1157	1157	1157	1157	1157	1153	1153	1153	1153	1153	1150	1150	1150	1150	1150	1150	1146	1142	1142	1138	1138	1142	1142	1138	1138	1138	1138	1138	1134	1134	1131	1131	1131	1131	1131	1131	1131	1131	1131	1131	1131	1127	1127	1127	1127	1127	1123	1120	1120	1123	1123	1123	0	0	0	0	0	0	0	0	0	0	0	0	0	0	0	0	0	0	0
0	0	0	0	0	0	0	0	0	0	0	0	0	0	0	0	0	0	0	0	0	0	0	0	1741	1741	1741	1741	1732	1732	1732	1732	1732	1732	1732	1723	1723	1723	1723	1732	1732	1732	1732	1723	1706	1698	1690	1690	1690	1681	1681	1681	1681	1681	1681	1681	1681	1673	1673	1673	1673	1665	1665	1665	1665	1665	1665	1657	1657	1657	1649	1649	1649	1649	1649	1649	1649	1641	1641	1641	1641	1641	1634	1634	1626	1618	1611	1603	1596	1581	1574	1567	1567	1567	1567	1567	1567	1567	1567	1567	1574	1574	1574	1574	1581	1581	1581	1589	1589	1596	1596	1603	1603	1603	1611	1611	1611	1618	1626	1634	1634	1634	1634	1641	1641	1641	1649	1649	1657	1665	1665	1665	1665	1673	1673	1681	1690	1690	1690	1698	1698	1698	1698	1706	1706	1706	1706	1706	1706	1698	1698	1698	1698	1698	1698	1690	1690	1690	1690	1690	1690	1681	1681	1673	1673	1673	1673	1673	1673	1673	1665	1665	1665	1657	1657	1649	1649	1649	1649	1649	1649	1641	1641	1641	1641	1641	1641	1641	1641	1641	1634	1634	1634	1634	1626	1626	1626	1626	1611	1611	1611	1603	1603	1603	1603	1603	1603	1603	1603	1596	1596	1596	1596	1596	1596	1589	1589	1589	1589	1581	1581	1581	1574	1574	1574	1574	1574	1574	1574	1567	1567	1567	1567	1567	1567	1560	1560	1553	1553	1553	1546	1546	1546	1546	1546	1546	1546	1546	1546	1539	1539	1539	1539	1532	1532	1532	1525	1525	1519	1519	1519	1519	1519	1519	1519	1512	1512	1512	1512	1512	1512	1512	1506	1506	1499	1499	1492	1492	1492	1492	1492	1492	1486	1486	1486	1486	1486	1480	1480	1480	1480	1480	1473	1473	1473	1467	1467	1467	1467	1467	1461	1461	1461	1461	1461	1461	1461	1455	1455	1449	1449	1443	1443	1443	1443	1443	1443	1437	1437	1431	1431	1431	1431	1425	1425	1419	1419	1419	1413	1413	1413	1413	1413	1413	1413	1407	1407	1407	1407	1407	1407	1402	1402	1402	1402	1402	1396	1396	1396	1390	1390	1390	1390	1385	1385	1385	1385	1385	1379	1379	1374	1374	1374	1368	1368	1368	1368	1368	1368	1368	1368	1368	1363	1363	1363	1363	1363	1358	1358	1352	1352	1352	1347	1347	1347	1347	1347	1347	1347	1347	1347	1342	1342	1342	1342	1342	1342	1336	1336	1336	1336	1331	1331	1326	1326	1326	1326	1326	1321	1321	1321	1321	1321	1316	1316	1316	1316	1316	1316	1316	1311	1306	1306	1306	1306	1306	1306	1301	1301	1301	1301	1301	1301	1296	1296	1296	1296	1291	1287	1287	1282	1282	1282	1282	1282	1282	1282	1277	1277	1277	1277	1277	1277	1272	1272	1268	1268	1268	1263	1263	1263	1263	1263	1263	1263	1259	1259	1259	1259	1259	1254	1254	1254	1254	1249	1249	1249	1245	1245	1245	1245	1245	1245	1245	1245	1245	1240	1240	1240	1236	1236	1236	1236	1236	1232	1232	1232	1227	1227	1227	1227	1227	1223	1223	1223	1223	1223	1223	1219	1219	1219	1219	1219	1214	1214	1210	1210	1210	1210	1206	1206	1206	1206	1206	1206	1202	1202	1202	1197	1197	1197	1193	1193	1193	1193	1193	1189	1189	1189	1189	1189	1189	1189	1185	1185	1185	1185	1181	1177	1177	1177	1177	1177	1177	1173	1173	1173	1173	1169	1169	1169	1169	1169	1165	1165	1161	1161	1161	1157	1157	1157	1157	1157	1157	1153	1153	1153	1153	1153	1153	1150	1150	1150	1150	1150	1146	1142	1142	1138	1138	1142	1142	1142	1142	1138	1138	1138	1134	1134	1131	1131	1131	1131	1131	1131	1131	1131	1131	1127	1127	1127	1127	1127	1127	1127	1123	1123	1123	1123	1123	1123	0	0	0	0	0	0	0	0	0	0	0	0	0	0	0	0	0	0	0
0	0	0	0	0	0	0	0	0	0	0	0	0	0	0	0	0	0	0	0	0	0	0	0	1741	1741	1741	1741	1732	1732	1732	1732	1732	1732	1732	1732	1732	1732	1732	1732	1732	1723	1723	1723	1715	1698	1698	1690	1690	1681	1681	1681	1681	1681	1681	1681	1681	1673	1673	1673	1673	1665	1665	1665	1665	1665	1665	1657	1657	1657	1649	1649	1649	1649	1649	1649	1649	1641	1641	1649	1641	1641	1634	1634	1626	1618	1611	1603	1596	1581	1574	1567	1567	1567	1567	1567	1567	1567	1567	1574	1574	1574	1574	1574	1581	1581	1581	1589	1589	1596	1596	1603	1603	1603	1611	1611	1611	1618	1626	1634	1634	1634	1634	1641	1641	1641	1649	1649	1657	1665	1665	1665	1665	1673	1673	1681	1681	1690	1690	1698	1698	1698	1698	1706	1706	1706	1706	1706	1706	1698	1698	1698	1698	1698	1698	1698	1690	1690	1690	1690	1681	1681	1681	1673	1673	1673	1673	1673	1673	1673	1665	1665	1665	1657	1657	1649	1649	1649	1649	1649	1641	1641	1641	1641	1641	1641	1641	1641	1641	1641	1634	1634	1634	1634	1626	1626	1626	1626	1611	1611	1611	1603	1603	1603	1603	1603	1603	1603	1603	1596	1596	1596	1596	1596	1596	1589	1589	1589	1589	1581	1581	1581	1574	1574	1574	1574	1574	1574	1574	1574	1567	1567	1567	1567	1560	1560	1560	1553	1553	1553	1546	1546	1546	1546	1546	1546	1546	1546	1546	1539	1539	1539	1532	1532	1532	1532	1525	1525	1519	1519	1519	1519	1519	1519	1519	1512	1512	1512	1512	1512	1506	1506	1506	1506	1499	1492	1492	1492	1492	1492	1492	1492	1492	1486	1486	1486	1486	1480	1480	1480	1480	1480	1473	1473	1467	1467	1467	1467	1467	1467	1461	1461	1461	1461	1461	1461	1461	1455	1455	1449	1443	1443	1443	1443	1443	1443	1443	1443	1437	1431	1431	1431	1431	1431	1425	1419	1419	1419	1413	1413	1413	1413	1413	1413	1413	1407	1407	1407	1407	1407	1407	1402	1402	1402	1402	1402	1402	1396	1396	1390	1390	1390	1390	1385	1385	1385	1385	1385	1379	1379	1379	1374	1374	1368	1368	1368	1368	1368	1368	1368	1368	1368	1363	1363	1363	1363	1363	1358	1358	1352	1352	1352	1347	1347	1347	1347	1347	1347	1347	1347	1347	1342	1342	1342	1342	1342	1336	1336	1336	1336	1331	1331	1331	1326	1326	1326	1326	1326	1321	1321	1321	1316	1316	1316	1316	1316	1316	1316	1316	1311	1311	1306	1306	1306	1306	1306	1301	1301	1301	1301	1301	1301	1301	1296	1296	1291	1291	1291	1282	1282	1282	1282	1282	1282	1282	1282	1277	1277	1277	1277	1277	1277	1277	1272	1272	1272	1268	1268	1263	1263	1263	1263	1263	1263	1263	1259	1259	1259	1259	1259	1259	1259	1254	1254	1254	1249	1249	1249	1245	1245	1245	1245	1245	1245	1245	1240	1240	1240	1240	1236	1236	1236	1236	1236	1236	1232	1232	1227	1227	1227	1227	1227	1223	1223	1223	1223	1223	1223	1219	1219	1219	1219	1214	1214	1214	1210	1210	1210	1210	1206	1206	1206	1206	1206	1206	1202	1202	1202	1197	1197	1197	1193	1193	1193	1193	1193	1193	1189	1189	1189	1189	1189	1185	1185	1185	1185	1185	1181	1181	1177	1177	1177	1177	1177	1173	1173	1173	1173	1169	1169	1169	1169	1169	1165	1165	1165	1165	1161	1157	1157	1157	1157	1157	1157	1157	1153	1153	1153	1153	1153	1150	1150	1150	1150	1150	1146	1142	1142	1138	1138	1142	1142	1142	1142	1138	1138	1138	1134	1134	1134	1134	1134	1134	1134	1131	1131	1131	1131	1127	1127	1127	1127	1127	1127	1127	1127	1123	1123	1123	1123	1123	0	0	0	0	0	0	0	0	0	0	0	0	0	0	0	0	0	0	0
0	0	0	0	0	0	0	0	0	0	0	0	0	0	0	0	0	0	0	0	0	0	0	0	1741	1741	1741	1741	1732	1732	1732	1732	1732	1732	1732	1732	1732	1732	1732	1732	1732	1732	1732	1723	1706	1690	1690	1690	1690	1681	1681	1681	1681	1681	1681	1681	1681	1673	1673	1673	1673	1665	1665	1665	1665	1673	1665	1665	1657	1657	1649	1649	1649	1649	1649	1649	1657	1649	1649	1649	1649	1641	1641	1634	1626	1618	1611	1603	1596	1589	1581	1567	1560	1560	1560	1567	1567	1567	1567	1574	1574	1574	1574	1581	1581	1581	1589	1589	1589	1596	1596	1603	1603	1603	1611	1611	1611	1618	1626	1634	1634	1634	1634	1641	1641	1641	1649	1649	1657	1665	1665	1665	1665	1673	1673	1681	1681	1690	1690	1690	1698	1698	1698	1706	1706	1706	1706	1706	1706	1698	1698	1698	1698	1698	1698	1698	1690	1690	1690	1690	1681	1681	1673	1673	1673	1673	1673	1673	1673	1665	1665	1665	1665	1657	1657	1649	1649	1649	1649	1649	1641	1641	1641	1641	1641	1641	1641	1641	1641	1634	1634	1634	1634	1634	1626	1626	1626	1618	1611	1611	1611	1611	1603	1603	1603	1603	1603	1603	1603	1596	1596	1596	1596	1596	1596	1589	1589	1581	1581	1581	1574	1574	1574	1574	1574	1574	1574	1574	1574	1574	1567	1567	1567	1567	1560	1560	1560	1553	1553	1553	1546	1546	1546	1546	1546	1546	1546	1546	1539	1539	1539	1532	1532	1532	1532	1532	1525	1525	1525	1519	1519	1519	1519	1519	1519	1512	1512	1512	1512	1512	1506	1506	1506	1506	1499	1492	1492	1492	1492	1492	1492	1492	1492	1486	1486	1486	1486	1480	1480	1480	1480	1480	1473	1473	1467	1467	1467	1467	1467	1467	1461	1461	1461	1461	1461	1461	1461	1455	1455	1449	1443	1443	1443	1443	1443	1443	1443	1443	1437	1431	1431	1431	1431	1431	1425	1425	1425	1419	1413	1413	1413	1413	1413	1413	1413	1407	1407	1407	1407	1407	1407	1402	1402	1402	1402	1402	1402	1396	1396	1390	1390	1390	1390	1385	1385	1385	1385	1385	1379	1379	1379	1374	1374	1374	1374	1368	1368	1368	1368	1368	1368	1363	1363	1363	1363	1363	1363	1358	1358	1352	1352	1352	1347	1347	1347	1347	1347	1347	1347	1347	1347	1342	1342	1342	1342	1342	1336	1336	1336	1336	1331	1331	1331	1326	1326	1326	1326	1326	1321	1321	1321	1316	1316	1316	1316	1316	1316	1316	1316	1311	1311	1306	1306	1306	1306	1306	1301	1301	1301	1301	1301	1301	1301	1296	1296	1291	1291	1291	1282	1282	1282	1282	1282	1282	1282	1277	1277	1277	1277	1277	1277	1277	1272	1272	1272	1272	1268	1263	1263	1263	1263	1259	1259	1259	1259	1259	1259	1259	1259	1259	1259	1259	1254	1254	1254	1249	1249	1249	1249	1245	1245	1245	1245	1245	1245	1240	1240	1240	1236	1236	1236	1236	1240	1236	1236	1236	1236	1227	1227	1227	1227	1227	1223	1223	1223	1223	1223	1223	1223	1219	1219	1219	1219	1214	1214	1210	1210	1210	1210	1206	1206	1206	1206	1206	1206	1206	1202	1202	1197	1197	1197	1197	1193	1193	1193	1193	1193	1193	1189	1189	1189	1189	1185	1185	1185	1185	1185	1181	1181	1177	1177	1177	1177	1177	1173	1173	1173	1173	1169	1169	1169	1169	1169	1165	1165	1161	1161	1161	1157	1157	1157	1157	1157	1157	1157	1153	1153	1153	1153	1153	1150	1150	1150	1150	1150	1146	1146	1142	1142	1142	1142	1142	1142	1142	1138	1138	1138	1134	1134	1134	1134	1134	1134	1134	1134	1131	1131	1131	1127	1127	1127	1127	1127	1127	1127	1127	1123	1123	1123	1123	1123	0	0	0	0	0	0	0	0	0	0	0	0	0	0	0	0	0	0	0
0	0	0	0	0	0	0	0	0	0	0	0	0	0	0	0	0	0	0	0	0	0	0	0	1741	1741	1741	1741	1732	1732	1732	1732	1741	1741	1732	1732	1741	1741	1741	1741	1741	1732	1732	1715	1698	1690	1690	1690	1690	1690	1690	1690	1690	1690	1690	1681	1681	1673	1673	1673	1673	1673	1673	1673	1673	1673	1665	1665	1657	1657	1657	1657	1649	1649	1649	1657	1657	1649	1649	1649	1649	1641	1641	1634	1634	1626	1618	1603	1603	1596	1581	1567	1560	1560	1560	1567	1567	1567	1567	1574	1574	1574	1574	1581	1581	1581	1589	1589	1589	1596	1596	1603	1603	1603	1611	1611	1611	1618	1626	1634	1634	1634	1634	1641	1641	1641	1649	1649	1657	1665	1665	1665	1665	1673	1673	1681	1690	1690	1690	1690	1698	1698	1698	1706	1706	1706	1706	1706	1706	1698	1698	1698	1698	1698	1698	1698	1698	1690	1690	1681	1681	1681	1673	1673	1673	1673	1673	1673	1673	1665	1665	1665	1665	1657	1657	1657	1649	1649	1649	1649	1641	1641	1641	1641	1641	1641	1641	1641	1634	1634	1634	1634	1634	1634	1626	1626	1626	1618	1611	1611	1611	1611	1603	1603	1603	1603	1603	1603	1603	1596	1596	1596	1596	1596	1596	1589	1589	1581	1581	1581	1574	1574	1574	1574	1574	1574	1574	1574	1574	1574	1567	1567	1567	1567	1567	1560	1560	1560	1553	1553	1553	1553	1546	1546	1546	1546	1546	1546	1539	1539	1539	1532	1532	1532	1532	1532	1525	1525	1525	1525	1519	1519	1519	1519	1519	1512	1512	1512	1512	1512	1512	1506	1506	1506	1499	1492	1492	1492	1492	1492	1492	1492	1492	1486	1486	1486	1486	1480	1480	1480	1480	1480	1473	1473	1467	1467	1467	1467	1467	1467	1461	1461	1461	1461	1461	1461	1461	1455	1455	1449	1449	1449	1443	1443	1443	1443	1443	1443	1437	1431	1431	1431	1431	1431	1425	1425	1425	1419	1413	1413	1413	1413	1413	1413	1413	1407	1407	1407	1407	1407	1407	1402	1402	1402	1402	1402	1402	1396	1396	1390	1390	1390	1390	1390	1385	1385	1385	1385	1385	1379	1379	1374	1374	1374	1374	1368	1368	1368	1368	1368	1368	1363	1363	1363	1363	1363	1358	1358	1358	1352	1352	1352	1347	1347	1347	1347	1347	1347	1347	1347	1347	1342	1342	1342	1342	1342	1336	1336	1336	1336	1331	1331	1331	1326	1326	1326	1326	1326	1321	1321	1321	1321	1321	1316	1316	1316	1316	1316	1316	1316	1311	1311	1306	1306	1306	1306	1301	1301	1301	1301	1301	1301	1301	1296	1296	1296	1291	1291	1287	1282	1282	1282	1282	1282	1282	1277	1277	1277	1277	1277	1277	1277	1272	1272	1272	1272	1268	1263	1263	1263	1263	1259	1259	1259	1259	1259	1259	1259	1259	1259	1259	1259	1254	1254	1249	1249	1249	1249	1249	1245	1245	1245	1245	1245	1240	1240	1240	1240	1236	1236	1236	1236	1236	1236	1236	1236	1236	1227	1227	1227	1227	1223	1223	1223	1223	1223	1223	1223	1223	1219	1219	1219	1219	1219	1214	1210	1210	1210	1210	1206	1206	1206	1206	1206	1206	1206	1202	1202	1197	1197	1197	1197	1193	1193	1193	1193	1193	1193	1189	1189	1189	1185	1185	1181	1181	1185	1185	1181	1181	1181	1177	1177	1177	1177	1173	1173	1173	1173	1169	1169	1169	1169	1169	1165	1165	1161	1161	1161	1161	1157	1157	1157	1157	1157	1157	1153	1153	1153	1153	1153	1150	1150	1150	1150	1150	1146	1146	1142	1142	1142	1142	1142	1142	1142	1138	1138	1138	1138	1138	1138	1134	1134	1134	1134	1134	1134	1131	1131	1127	1127	1127	1127	1127	1127	1127	1127	1127	1127	1127	1127	1127	0	0	0	0	0	0	0	0	0	0	0	0	0	0	0	0	0	0	0
0	0	0	0	0	0	0	0	0	0	0	0	0	0	0	0	0	0	0	0	0	0	0	0	0	1741	1741	1741	1741	1741	1732	1732	1741	1741	1732	1732	1741	1741	1741	1741	1741	1732	1732	1715	1698	1690	1690	1690	1690	1690	1690	1690	1690	1690	1681	1681	1673	1673	1673	1673	1673	1673	1673	1665	1665	1665	1665	1665	1657	1657	1657	1657	1649	1649	1649	1657	1657	1649	1649	1649	1649	1649	1641	1634	1626	1618	1611	1603	1596	1596	1581	1567	1567	1567	1567	1567	1567	1567	1567	1567	1574	1574	1574	1574	1581	1581	1581	1589	1589	1596	1596	1603	1603	1603	1611	1611	1611	1618	1626	1626	1634	1634	1634	1641	1641	1641	1649	1649	1657	1665	1665	1665	1665	1673	1673	1681	1690	1690	1690	1698	1698	1698	1698	1706	1706	1706	1706	1706	1706	1698	1698	1698	1698	1698	1698	1690	1690	1690	1690	1681	1681	1681	1673	1673	1673	1673	1673	1673	1673	1665	1665	1665	1665	1657	1657	1657	1657	1657	1657	1649	1641	1641	1641	1641	1641	1641	1641	1641	1634	1634	1634	1634	1634	1634	1626	1626	1626	1618	1611	1611	1611	1611	1611	1603	1603	1603	1603	1603	1603	1596	1596	1596	1596	1596	1596	1589	1589	1581	1581	1581	1581	1574	1574	1574	1574	1574	1574	1574	1574	1574	1567	1567	1567	1567	1567	1560	1560	1553	1553	1553	1546	1546	1546	1546	1546	1546	1546	1546	1539	1539	1539	1539	1532	1532	1525	1525	1525	1525	1519	1519	1519	1519	1519	1519	1512	1512	1512	1512	1512	1512	1512	1506	1506	1506	1499	1492	1492	1492	1492	1492	1492	1492	1492	1486	1486	1486	1486	1480	1480	1480	1480	1480	1473	1473	1467	1467	1467	1467	1467	1467	1461	1461	1461	1461	1461	1461	1461	1455	1455	1449	1449	1449	1443	1443	1443	1443	1443	1443	1437	1431	1431	1431	1431	1431	1425	1425	1425	1419	1413	1413	1413	1413	1413	1413	1413	1413	1407	1407	1407	1407	1407	1407	1407	1407	1407	1402	1402	1396	1396	1390	1390	1390	1390	1390	1385	1385	1385	1385	1385	1379	1379	1374	1374	1374	1374	1368	1368	1368	1368	1368	1368	1363	1363	1363	1363	1363	1358	1358	1358	1352	1352	1352	1347	1347	1347	1347	1347	1347	1347	1347	1347	1342	1342	1342	1342	1342	1336	1336	1336	1336	1331	1331	1331	1326	1326	1326	1321	1321	1321	1321	1321	1316	1316	1316	1316	1316	1316	1316	1316	1316	1311	1311	1306	1306	1306	1306	1301	1301	1301	1301	1301	1301	1301	1296	1296	1296	1291	1291	1287	1287	1282	1282	1282	1282	1282	1282	1277	1277	1277	1277	1277	1277	1272	1272	1272	1272	1268	1268	1268	1263	1263	1263	1263	1259	1259	1259	1259	1259	1259	1259	1259	1259	1254	1254	1249	1249	1249	1249	1249	1245	1245	1245	1245	1245	1240	1240	1240	1240	1236	1236	1236	1236	1236	1236	1236	1236	1236	1227	1227	1227	1227	1223	1223	1223	1223	1223	1223	1223	1223	1219	1219	1219	1219	1219	1214	1210	1210	1210	1210	1206	1206	1206	1206	1206	1206	1206	1202	1202	1202	1202	1197	1193	1193	1193	1193	1193	1193	1193	1189	1189	1189	1185	1185	1181	1181	1185	1185	1181	1181	1177	1177	1177	1177	1173	1173	1173	1173	1173	1169	1169	1169	1165	1165	1165	1165	1161	1157	1157	1161	1157	1157	1157	1157	1157	1157	1153	1153	1153	1153	1153	1150	1150	1150	1150	1150	1150	1146	1142	1142	1142	1142	1142	1142	1142	1138	1138	1138	1138	1134	1134	1134	1134	1134	1134	1134	1134	1131	1127	1127	1127	1127	1127	1127	1127	1127	1127	1123	1123	1127	1127	1127	0	0	0	0	0	0	0	0	0	0	0	0	0	0	0	0	0	0	0
0	0	0	0	0	0	0	0	0	0	0	0	0	0	0	0	0	0	0	0	0	0	0	0	0	1741	1741	1741	1732	1732	1732	1732	1732	1732	1732	1732	1741	1741	1741	1741	1741	1732	1723	1715	1698	1690	1690	1690	1690	1690	1690	1690	1690	1690	1681	1681	1673	1673	1673	1673	1665	1665	1673	1665	1665	1665	1665	1665	1665	1665	1657	1657	1657	1649	1649	1657	1657	1649	1649	1657	1657	1649	1641	1634	1626	1618	1611	1603	1596	1596	1581	1574	1567	1567	1560	1560	1560	1567	1567	1567	1574	1574	1574	1574	1581	1581	1581	1581	1589	1589	1596	1596	1603	1603	1611	1611	1611	1618	1626	1626	1634	1634	1634	1641	1641	1641	1649	1649	1657	1665	1665	1665	1665	1673	1673	1681	1690	1690	1690	1698	1698	1698	1706	1706	1706	1706	1706	1706	1706	1698	1698	1698	1698	1698	1698	1690	1690	1681	1681	1681	1681	1673	1673	1673	1673	1673	1673	1673	1673	1665	1665	1665	1665	1665	1657	1657	1657	1657	1657	1649	1641	1641	1641	1641	1641	1641	1641	1641	1634	1634	1634	1634	1634	1634	1626	1626	1626	1618	1611	1611	1611	1603	1603	1603	1603	1603	1603	1603	1603	1596	1596	1596	1596	1596	1596	1589	1589	1581	1581	1581	1581	1581	1574	1574	1574	1574	1574	1574	1574	1567	1567	1567	1567	1567	1567	1560	1560	1553	1553	1553	1546	1546	1546	1546	1546	1546	1546	1546	1539	1539	1539	1532	1532	1532	1525	1525	1525	1525	1519	1519	1519	1519	1519	1519	1512	1512	1512	1512	1512	1512	1512	1506	1506	1499	1499	1492	1492	1492	1492	1492	1492	1492	1486	1486	1486	1486	1486	1486	1486	1480	1480	1480	1473	1473	1473	1467	1467	1467	1467	1467	1461	1461	1461	1461	1461	1461	1455	1455	1449	1449	1443	1443	1443	1443	1443	1443	1443	1443	1437	1431	1431	1431	1431	1431	1425	1425	1425	1419	1419	1419	1413	1413	1413	1413	1413	1413	1413	1413	1407	1407	1407	1407	1402	1402	1402	1402	1402	1396	1396	1390	1390	1390	1390	1390	1385	1385	1385	1385	1385	1379	1379	1379	1374	1374	1374	1368	1368	1368	1368	1368	1363	1363	1363	1363	1363	1363	1363	1358	1358	1352	1352	1352	1347	1347	1347	1347	1347	1347	1347	1347	1347	1342	1342	1342	1342	1342	1336	1336	1336	1331	1331	1331	1331	1331	1326	1326	1321	1321	1321	1321	1321	1316	1316	1316	1316	1316	1316	1316	1316	1316	1311	1311	1306	1306	1306	1301	1301	1301	1301	1301	1301	1301	1301	1301	1296	1296	1291	1291	1287	1282	1282	1282	1282	1282	1282	1282	1277	1277	1277	1277	1277	1277	1272	1272	1272	1272	1268	1268	1268	1263	1263	1263	1263	1259	1259	1259	1259	1259	1259	1259	1259	1259	1259	1254	1249	1249	1249	1249	1249	1245	1245	1245	1245	1245	1240	1240	1240	1240	1240	1236	1236	1240	1236	1236	1236	1236	1236	1227	1227	1227	1227	1223	1223	1223	1223	1223	1223	1223	1223	1219	1219	1219	1219	1219	1214	1210	1210	1210	1210	1206	1206	1206	1206	1206	1206	1206	1202	1202	1202	1197	1197	1193	1193	1193	1193	1193	1193	1193	1189	1189	1189	1185	1185	1181	1181	1181	1185	1181	1181	1177	1177	1177	1173	1173	1173	1173	1173	1173	1169	1169	1169	1165	1165	1161	1161	1161	1157	1157	1157	1157	1157	1157	1157	1153	1153	1153	1153	1153	1153	1153	1150	1150	1150	1150	1146	1146	1146	1142	1142	1142	1142	1142	1142	1138	1138	1138	1138	1138	1134	1134	1134	1134	1134	1134	1134	1131	1131	1127	1127	1127	1127	1127	1127	1127	1127	1127	1123	1123	1127	1127	1127	0	0	0	0	0	0	0	0	0	0	0	0	0	0	0	0	0	0	0
0	0	0	0	0	0	0	0	0	0	0	0	0	0	0	0	0	0	0	0	0	0	0	0	0	1741	1741	1741	1732	1732	1732	1732	1732	1732	1741	1741	1741	1741	1741	1741	1741	1732	1723	1715	1706	1698	1698	1698	1698	1698	1690	1690	1690	1690	1681	1681	1673	1673	1673	1673	1665	1665	1673	1665	1665	1665	1665	1665	1657	1657	1657	1657	1657	1649	1649	1657	1657	1649	1649	1649	1649	1649	1641	1634	1626	1618	1611	1603	1603	1596	1589	1574	1567	1567	1560	1560	1560	1560	1567	1567	1574	1574	1574	1574	1581	1581	1581	1581	1589	1589	1596	1596	1603	1603	1611	1611	1611	1618	1618	1626	1634	1634	1634	1641	1641	1641	1649	1649	1657	1665	1665	1665	1665	1673	1673	1681	1690	1690	1690	1698	1698	1698	1706	1706	1706	1706	1706	1706	1706	1706	1698	1698	1698	1698	1698	1690	1690	1681	1681	1681	1681	1673	1673	1673	1673	1673	1673	1673	1673	1665	1665	1665	1665	1665	1665	1665	1657	1657	1657	1649	1649	1641	1641	1641	1641	1641	1641	1641	1634	1634	1634	1634	1634	1634	1626	1626	1626	1618	1611	1611	1611	1603	1603	1603	1603	1603	1603	1603	1603	1596	1596	1596	1596	1596	1596	1589	1589	1589	1581	1581	1581	1581	1574	1574	1574	1574	1574	1574	1574	1567	1567	1567	1567	1567	1560	1560	1560	1553	1553	1553	1546	1546	1546	1546	1546	1546	1546	1546	1539	1539	1539	1532	1532	1532	1525	1525	1525	1525	1519	1519	1519	1519	1519	1519	1512	1512	1512	1512	1512	1506	1506	1499	1499	1499	1499	1492	1492	1492	1492	1492	1492	1492	1486	1486	1486	1486	1486	1486	1486	1480	1480	1480	1480	1473	1467	1467	1467	1467	1467	1467	1461	1461	1461	1461	1461	1455	1455	1455	1449	1449	1443	1443	1443	1443	1443	1443	1443	1443	1437	1431	1431	1431	1431	1431	1425	1425	1425	1419	1419	1419	1419	1413	1413	1413	1413	1413	1413	1413	1407	1407	1407	1407	1402	1402	1402	1402	1402	1396	1396	1396	1390	1390	1390	1390	1385	1385	1385	1385	1385	1385	1379	1379	1374	1374	1374	1368	1368	1368	1368	1368	1363	1363	1363	1363	1363	1363	1363	1358	1358	1352	1352	1352	1347	1347	1347	1347	1347	1347	1347	1342	1342	1342	1342	1342	1342	1342	1336	1336	1336	1331	1331	1331	1331	1326	1326	1326	1321	1321	1321	1321	1321	1316	1316	1316	1316	1316	1316	1316	1316	1316	1311	1311	1306	1306	1306	1301	1301	1301	1301	1301	1301	1301	1301	1301	1296	1296	1291	1291	1287	1282	1282	1282	1282	1282	1282	1282	1277	1277	1277	1277	1277	1272	1272	1272	1272	1272	1268	1268	1268	1263	1263	1263	1263	1259	1259	1259	1259	1259	1259	1259	1259	1259	1254	1254	1249	1249	1249	1249	1249	1245	1245	1245	1245	1245	1240	1240	1240	1240	1240	1240	1240	1240	1236	1236	1236	1236	1232	1227	1227	1227	1227	1223	1223	1223	1223	1223	1223	1223	1223	1219	1219	1219	1214	1214	1210	1210	1210	1210	1210	1206	1206	1206	1206	1206	1206	1206	1202	1202	1202	1197	1193	1193	1193	1193	1193	1193	1193	1193	1189	1189	1189	1185	1185	1181	1181	1181	1185	1181	1177	1177	1177	1177	1173	1173	1173	1173	1173	1173	1169	1169	1169	1165	1165	1161	1161	1161	1157	1157	1157	1157	1157	1157	1157	1153	1153	1153	1153	1153	1153	1150	1150	1150	1150	1150	1146	1146	1146	1142	1142	1142	1142	1142	1142	1138	1138	1138	1138	1138	1134	1134	1134	1134	1134	1134	1134	1131	1131	1127	1127	1127	1127	1127	1127	1127	1127	1127	1127	1127	1127	1127	1127	0	0	0	0	0	0	0	0	0	0	0	0	0	0	0	0	0	0	0
0	0	0	0	0	0	0	0	0	0	0	0	0	0	0	0	0	0	0	0	0	0	0	0	0	1741	1741	1741	1741	1732	1732	1732	1732	1732	1741	1741	1741	1741	1741	1741	1732	1732	1715	1706	1698	1690	1690	1690	1690	1690	1690	1690	1690	1681	1681	1681	1681	1673	1673	1673	1665	1665	1673	1665	1665	1665	1665	1665	1657	1657	1657	1657	1657	1649	1649	1657	1657	1649	1649	1649	1649	1649	1641	1641	1634	1618	1611	1611	1603	1596	1589	1581	1567	1567	1560	1560	1560	1560	1567	1567	1574	1574	1574	1574	1581	1581	1581	1581	1589	1589	1596	1596	1603	1603	1611	1611	1611	1611	1618	1626	1634	1634	1634	1641	1641	1641	1649	1649	1657	1665	1665	1665	1665	1673	1673	1681	1690	1690	1698	1698	1698	1698	1706	1706	1706	1706	1706	1706	1698	1698	1698	1698	1698	1698	1698	1690	1690	1681	1681	1681	1681	1673	1673	1673	1673	1673	1673	1673	1673	1665	1665	1665	1665	1665	1665	1665	1657	1657	1657	1649	1649	1641	1641	1641	1641	1641	1641	1641	1641	1634	1634	1634	1634	1634	1634	1626	1626	1618	1611	1611	1603	1603	1603	1603	1603	1603	1603	1603	1603	1596	1596	1596	1596	1596	1596	1589	1589	1589	1581	1581	1581	1581	1574	1574	1574	1574	1574	1574	1567	1567	1567	1567	1567	1567	1560	1560	1560	1560	1553	1553	1546	1546	1546	1546	1546	1546	1546	1546	1539	1539	1539	1539	1539	1532	1525	1525	1525	1525	1519	1519	1519	1519	1519	1512	1512	1512	1512	1512	1512	1506	1506	1499	1499	1499	1499	1492	1492	1492	1492	1492	1492	1492	1486	1486	1486	1486	1486	1486	1486	1480	1480	1480	1480	1473	1467	1467	1467	1467	1467	1467	1461	1461	1461	1461	1461	1455	1455	1455	1449	1449	1449	1449	1443	1443	1443	1443	1443	1443	1437	1431	1431	1431	1431	1431	1431	1431	1425	1425	1419	1419	1419	1413	1413	1413	1413	1413	1413	1413	1407	1407	1407	1407	1407	1407	1402	1402	1402	1396	1396	1390	1390	1390	1385	1385	1385	1385	1385	1385	1385	1385	1379	1379	1379	1379	1379	1374	1368	1368	1368	1368	1368	1363	1363	1363	1363	1363	1363	1363	1358	1358	1358	1352	1352	1352	1347	1347	1347	1347	1347	1342	1342	1342	1342	1342	1342	1342	1336	1336	1336	1331	1331	1331	1331	1326	1326	1326	1321	1321	1321	1321	1321	1316	1316	1316	1316	1316	1316	1316	1316	1311	1311	1311	1306	1306	1301	1301	1301	1301	1301	1301	1301	1301	1301	1301	1296	1296	1291	1291	1282	1282	1282	1282	1282	1282	1282	1277	1277	1277	1277	1277	1277	1272	1272	1272	1272	1272	1268	1268	1268	1263	1263	1263	1263	1259	1259	1259	1259	1259	1259	1259	1259	1259	1254	1254	1249	1249	1249	1249	1249	1245	1245	1245	1245	1245	1240	1240	1240	1240	1240	1240	1240	1236	1236	1236	1236	1236	1232	1227	1227	1227	1227	1223	1223	1223	1223	1223	1223	1223	1223	1219	1219	1219	1214	1214	1210	1210	1210	1210	1210	1206	1206	1206	1206	1206	1206	1206	1202	1202	1202	1197	1193	1193	1193	1193	1193	1193	1193	1193	1189	1189	1189	1189	1185	1185	1185	1185	1181	1181	1177	1177	1177	1177	1173	1173	1173	1173	1173	1173	1169	1169	1169	1169	1165	1165	1161	1161	1157	1157	1157	1157	1157	1157	1157	1157	1153	1153	1153	1153	1150	1150	1146	1146	1150	1150	1146	1146	1146	1142	1142	1142	1142	1142	1138	1138	1138	1138	1138	1134	1134	1134	1134	1131	1131	1131	1131	1131	1127	1127	1127	1127	1127	1127	1127	1127	1123	1123	1123	1123	1123	1123	1123	0	0	0	0	0	0	0	0	0	0	0	0	0	0	0	0	0	0	0
0	0	0	0	0	0	0	0	0	0	0	0	0	0	0	0	0	0	0	0	0	0	0	0	0	1741	1741	1741	1741	1741	1741	1741	1741	1741	1741	1741	1741	1741	1741	1741	1732	1732	1715	1706	1698	1690	1690	1690	1690	1690	1690	1690	1681	1681	1681	1681	1681	1673	1673	1673	1673	1673	1673	1665	1665	1665	1665	1665	1657	1657	1657	1657	1657	1649	1649	1657	1657	1649	1649	1649	1649	1641	1641	1634	1626	1618	1611	1603	1603	1596	1589	1581	1567	1567	1560	1560	1560	1560	1560	1560	1567	1567	1574	1574	1574	1574	1581	1581	1589	1589	1596	1603	1603	1603	1611	1611	1611	1611	1618	1626	1634	1634	1634	1641	1641	1641	1649	1649	1657	1657	1665	1665	1673	1673	1673	1681	1690	1690	1698	1698	1698	1698	1706	1706	1706	1706	1706	1706	1698	1698	1698	1698	1698	1698	1690	1690	1690	1690	1681	1681	1681	1673	1673	1673	1673	1673	1673	1673	1673	1665	1665	1665	1665	1665	1665	1665	1657	1657	1657	1649	1649	1649	1641	1641	1641	1641	1641	1641	1641	1634	1634	1634	1634	1634	1634	1626	1626	1618	1611	1611	1603	1603	1603	1603	1603	1603	1603	1603	1603	1596	1596	1596	1596	1596	1596	1589	1589	1589	1581	1581	1581	1581	1574	1574	1574	1574	1574	1574	1567	1567	1567	1567	1567	1567	1560	1560	1560	1553	1553	1553	1546	1546	1546	1546	1546	1546	1546	1546	1539	1539	1539	1539	1539	1532	1525	1525	1525	1519	1519	1519	1519	1519	1519	1519	1519	1512	1512	1512	1512	1506	1506	1499	1499	1499	1499	1499	1499	1492	1492	1492	1492	1486	1486	1486	1486	1486	1486	1486	1486	1480	1480	1480	1480	1473	1473	1467	1467	1467	1467	1467	1467	1461	1461	1461	1461	1455	1455	1455	1449	1449	1449	1449	1443	1443	1443	1443	1443	1443	1437	1431	1431	1431	1431	1431	1431	1431	1425	1425	1419	1419	1419	1413	1413	1413	1413	1413	1413	1413	1407	1407	1407	1407	1407	1407	1402	1402	1396	1396	1396	1390	1390	1390	1385	1385	1385	1385	1385	1385	1385	1385	1385	1385	1379	1379	1379	1374	1374	1368	1368	1368	1368	1368	1363	1363	1363	1363	1363	1363	1358	1358	1358	1352	1352	1352	1347	1347	1347	1347	1347	1342	1342	1342	1342	1342	1342	1342	1336	1336	1331	1331	1331	1331	1331	1326	1326	1326	1326	1326	1321	1321	1321	1316	1316	1316	1316	1316	1316	1316	1316	1311	1311	1311	1306	1306	1301	1301	1301	1301	1301	1301	1301	1301	1301	1301	1296	1296	1291	1291	1282	1282	1282	1282	1282	1282	1282	1277	1277	1277	1277	1277	1277	1272	1272	1272	1272	1268	1268	1268	1263	1263	1263	1259	1259	1259	1259	1259	1259	1259	1259	1259	1259	1259	1259	1254	1249	1249	1249	1249	1249	1245	1245	1245	1245	1240	1240	1240	1240	1240	1240	1240	1240	1236	1236	1236	1232	1232	1232	1227	1227	1227	1227	1223	1223	1223	1223	1223	1219	1219	1219	1219	1214	1214	1214	1214	1214	1210	1210	1210	1210	1206	1206	1206	1206	1206	1206	1206	1206	1202	1202	1197	1193	1193	1193	1193	1193	1193	1193	1189	1189	1189	1189	1189	1185	1185	1185	1185	1181	1181	1177	1177	1177	1177	1173	1173	1173	1173	1173	1173	1169	1169	1169	1169	1165	1165	1161	1161	1157	1157	1157	1157	1157	1157	1157	1153	1153	1153	1153	1153	1150	1150	1146	1146	1150	1150	1146	1142	1142	1142	1138	1138	1142	1142	1138	1138	1138	1138	1138	1134	1134	1134	1134	1131	1131	1131	1131	1131	1127	1127	1127	1127	1127	1127	1127	1123	1123	1123	1123	1123	1123	1123	1123	0	0	0	0	0	0	0	0	0	0	0	0	0	0	0	0	0	0	0
