0	0	0	0	0	0	0	0	0	0	0	0	0	0	0	0	0	0	0	0	0	0	0	0	0	0	0	0	1150	1150	1150	1150	1150	1153	1153	1153	1153	1153	1153	1153	1153	1150	1150	1153	1153	1153	1153	1153	1153	1153	1153	1153	1153	1153	1153	1153	1153	1157	1157	1157	1157	1157	1157	1157	1157	1157	1157	1157	1157	1157	1157	1157	1157	1157	1153	1153	1153	1153	1157	1157	1157	1157	1157	1157	1157	1157	1161	1157	1157	1157	1157	1157	1157	1157	1157	1157	1157	1161	1161	1161	1161	1161	1161	1161	1161	1161	1161	1161	1161	1161	1161	1161	1161	1161	1161	1161	1161	1161	1161	1161	1161	1161	1161	1161	1161	1157	1157	1157	1157	1157	1161	1161	1161	1165	1165	1165	1165	1157	1157	1161	1157	1157	1161	1161	1161	1157	1157	1157	1157	1157	1157	1157	1157	1161	1161	1157	1157	1157	1161	1161	1161	1161	1161	1161	1161	1161	1165	1165	1165	1165	1165	1165	1165	1165	1165	1169	1169	1169	1173	1173	1173	1177	1181	1306	1306	1311	1311	1311	1311	1316	1316	1311	1311	1311	1311	1311	1311	1311	1311	1311	1311	1311	1311	1311	1311	1311	1311	1311	1311	1316	1316	1316	1316	1311	1311	1311	1311	1311	1311	1311	1311	1311	1311	1316	1316	1316	1316	1316	1321	1316	1316	1316	1316	1316	1311	1311	1311	1311	1311	1311	1311	1311	1311	1316	1316	1316	1316	1316	1316	1316	1316	1316	1316	1316	1316	1316	1311	1311	1311	1311	1311	1311	1311	1311	1311	1311	1311	1311	1311	1311	1311	1311	1311	1311	1311	1311	1311	1311	1311	1311	1311	1311	1311	1311	1311	1311	1311	1311	1311	1311	1311	1311	1311	1311	1311	1311	1311	1311	1311	1311	1311	1311	1306	1306	1311	1311	1311	1306	1306	1306	1306	1306	1306	1306	1311	1311	1311	1311	1311	1306	1306	1301	1301	1301	1301	1301	1301	1301	1301	1301	1301	1301	1301	1301	1301	1301	1301	1301	1301	1301	1301	1301	1301	1301	1301	1301	1301	1301	1301	1301	1301	1301	1301	1301	1296	1296	1296	1296	1296	1296	1296	1301	1301	1301	1296	1296	1296	1296	1296	1296	1296	1296	1296	1296	1296	1296	1301	1296	1296	1296	1296	1296	1296	1296	1296	1296	1296	1296	1296	1296	1296	1296	1296	1296	1296	1296	1296	1301	1301	1296	1296	1296	1296	1296	1296	1296	1296	1296	1291	1291	1291	1291	1291	1291	1291	1291	1291	1291	1291	1291	1291	1291	1291	1291	1287	1287	1287	1287	1287	1287	1287	1287	1287	1287	1287	1287	1287	1287	1287	1287	1287	1287	1287	1287	1287	1287	1287	1287	1287	1287	1287	1282	1282	1282	1282	1282	1282	1282	1282	1282	1282	1282	1282	1282	1282	1282	1277	1277	1277	1277	1277	1272	1272	1277	1277	1277	1272	1272	1272	1272	1272	1268	1268	1268	1268	1272	1272	1272	1268	1268	1268	1268	1268	1268	1268	1268	1268	1268	1268	1268	1268	1268	1263	1263	1268	1272	1272	1277	1277	1282	1282	1282	1282	1282	1282	1282	1282	1282	1282	1282	1282	1282	1282	1282	1282	1282	1282	1282	1277	1277	1277	1277	1282	1282	1282	1282	1282	1282	1282	1282	1282	1282	1282	1282	1282	1282	1282	1282	1282	1277	1277	1277	1282	1282	1282	1282	1282	1282	1282	1282	1282	1282	1277	1277	1277	1277	1277	1282	1277	1277	1277	1277	1277	1277	1277	1277	1277	1277	1277	1277	1277	1277	1277	1282	1277	1277	1277	1282	1282	1282	1282	1282	1282	1282	1277	1277	1282	1282	1282	1282	1282	1202	1202	1189	1189	1181	1177	1173	1173	1173	1173	1169	1169	1165	1165	1165	1161	1161	1161	1165	1165	0	0	0	0	0	0	0	0	0	0	0	0	0	0	0	0	0	0	0
0	0	0	0	0	0	0	0	0	0	0	0	0	0	0	0	0	0	0	0	0	0	0	0	0	0	0	0	1150	1150	1150	1150	1150	1153	1153	1153	1153	1153	1150	1150	1153	1150	1150	1153	1153	1153	1153	1153	1153	1153	1153	1153	1153	1153	1153	1153	1153	1153	1153	1157	1157	1157	1157	1157	1157	1157	1157	1157	1157	1157	1157	1157	1157	1157	1157	1153	1153	1157	1157	1157	1157	1157	1157	1157	1161	1161	1161	1157	1157	1157	1157	1157	1157	1157	1157	1157	1157	1157	1161	1161	1161	1161	1161	1161	1161	1161	1161	1161	1157	1157	1161	1161	1161	1161	1161	1161	1161	1161	1161	1161	1161	1161	1161	1161	1161	1157	1157	1157	1157	1161	1161	1161	1161	1165	1165	1165	1165	1157	1157	1161	1157	1157	1161	1161	1157	1157	1157	1157	1157	1157	1157	1157	1157	1161	1161	1161	1161	1161	1161	1161	1161	1161	1161	1161	1161	1161	1165	1165	1165	1165	1165	1165	1165	1165	1165	1169	1169	1169	1173	1173	1173	1177	1181	1181	1306	1311	1311	1311	1311	1311	1311	1311	1311	1311	1311	1311	1311	1311	1311	1311	1311	1311	1311	1311	1311	1311	1311	1311	1311	1311	1311	1311	1316	1311	1311	1311	1311	1311	1311	1311	1311	1311	1311	1311	1316	1316	1316	1316	1321	1316	1316	1316	1316	1316	1311	1311	1311	1311	1311	1311	1311	1311	1311	1316	1316	1316	1316	1316	1316	1316	1316	1316	1316	1316	1316	1316	1311	1311	1311	1311	1311	1311	1311	1311	1311	1311	1311	1311	1311	1311	1311	1311	1311	1311	1311	1311	1311	1311	1311	1311	1311	1311	1311	1311	1311	1311	1311	1311	1311	1311	1311	1311	1311	1311	1311	1311	1311	1311	1311	1311	1311	1311	1311	1311	1311	1311	1311	1311	1311	1311	1311	1311	1311	1311	1311	1311	1311	1311	1311	1306	1306	1306	1306	1306	1306	1306	1306	1301	1301	1306	1301	1301	1301	1301	1301	1301	1301	1301	1301	1301	1301	1301	1301	1301	1301	1301	1301	1301	1301	1301	1301	1301	1301	1301	1301	1301	1301	1301	1301	1301	1301	1301	1301	1301	1301	1301	1301	1296	1296	1296	1296	1296	1296	1296	1296	1301	1301	1296	1296	1296	1296	1301	1296	1296	1296	1296	1301	1301	1301	1296	1296	1301	1301	1301	1301	1296	1296	1296	1301	1296	1296	1296	1296	1296	1296	1296	1296	1296	1296	1296	1296	1296	1296	1291	1291	1291	1291	1291	1291	1291	1291	1291	1291	1291	1291	1287	1287	1287	1287	1287	1287	1287	1291	1287	1287	1287	1287	1287	1287	1287	1287	1287	1287	1287	1287	1287	1287	1287	1287	1287	1287	1287	1287	1282	1287	1287	1282	1282	1282	1282	1282	1282	1282	1282	1282	1282	1277	1277	1277	1277	1277	1272	1272	1277	1277	1277	1272	1272	1272	1272	1272	1268	1268	1268	1268	1272	1272	1272	1268	1268	1268	1268	1268	1268	1268	1268	1268	1268	1268	1268	1268	1268	1263	1263	1268	1268	1272	1277	1277	1282	1282	1282	1282	1282	1282	1282	1282	1282	1282	1282	1282	1282	1282	1282	1282	1282	1282	1282	1282	1282	1277	1277	1282	1282	1282	1282	1282	1282	1282	1282	1282	1282	1282	1282	1282	1282	1282	1282	1282	1282	1282	1282	1282	1282	1282	1282	1282	1282	1282	1282	1282	1282	1277	1277	1277	1277	1277	1282	1277	1277	1277	1277	1277	1277	1277	1277	1277	1277	1277	1277	1277	1277	1277	1282	1282	1282	1282	1282	1282	1282	1282	1282	1282	1282	1277	1277	1282	1282	1282	1287	1287	1197	1197	1193	1189	1181	1177	1173	1173	1173	1173	1173	1169	1169	1165	1165	1161	1161	1161	1165	1165	0	0	0	0	0	0	0	0	0	0	0	0	0	0	0	0	0	0	0
0	0	0	0	0	0	0	0	0	0	0	0	0	0	0	0	0	0	0	0	0	0	0	0	0	0	0	0	1150	1150	1153	1153	1153	1153	1153	1153	1153	1153	1150	1150	1153	1153	1153	1153	1153	1153	1153	1153	1153	1153	1153	1153	1153	1153	1153	1153	1153	1153	1153	1153	1153	1157	1157	1157	1157	1157	1157	1157	1157	1157	1157	1157	1157	1157	1157	1157	1157	1157	1157	1157	1157	1157	1157	1161	1161	1161	1161	1157	1157	1157	1157	1157	1157	1157	1157	1157	1157	1157	1157	1157	1157	1157	1161	1161	1161	1161	1161	1161	1157	1157	1157	1157	1161	1161	1161	1161	1161	1161	1161	1161	1161	1157	1157	1157	1157	1157	1157	1157	1157	1161	1161	1161	1161	1165	1165	1165	1165	1157	1157	1161	1157	1157	1157	1157	1157	1157	1157	1157	1157	1157	1157	1157	1157	1161	1161	1161	1161	1161	1161	1161	1161	1161	1165	1161	1161	1161	1165	1165	1165	1165	1165	1165	1165	1165	1165	1169	1169	1169	1173	1173	1173	1177	1181	1181	1306	1311	1311	1311	1311	1311	1311	1311	1311	1311	1311	1311	1311	1311	1311	1311	1311	1311	1311	1311	1311	1311	1311	1311	1311	1311	1311	1311	1316	1311	1311	1311	1311	1311	1311	1311	1311	1311	1311	1311	1316	1316	1316	1316	1316	1316	1316	1316	1316	1316	1311	1311	1311	1311	1311	1311	1311	1311	1311	1311	1311	1316	1311	1311	1311	1316	1316	1316	1316	1316	1316	1316	1311	1311	1311	1311	1311	1311	1311	1311	1311	1311	1311	1311	1311	1311	1311	1311	1311	1311	1311	1311	1311	1311	1311	1311	1311	1311	1311	1311	1311	1311	1311	1311	1311	1311	1311	1311	1311	1311	1311	1311	1311	1311	1311	1311	1311	1311	1311	1311	1311	1311	1311	1311	1311	1311	1311	1311	1311	1311	1311	1311	1311	1311	1311	1306	1306	1306	1306	1306	1306	1306	1306	1306	1306	1306	1301	1301	1301	1301	1301	1301	1301	1301	1301	1301	1301	1301	1301	1301	1301	1301	1301	1301	1301	1301	1301	1301	1301	1301	1301	1301	1301	1301	1301	1301	1301	1301	1301	1301	1301	1301	1301	1296	1296	1301	1301	1301	1301	1301	1301	1301	1301	1296	1296	1296	1301	1301	1301	1301	1301	1301	1301	1301	1301	1301	1301	1301	1301	1301	1301	1296	1296	1301	1301	1296	1296	1296	1296	1296	1296	1296	1296	1296	1296	1296	1296	1296	1296	1291	1291	1291	1291	1291	1291	1291	1291	1291	1291	1291	1291	1287	1287	1287	1287	1287	1287	1287	1287	1287	1287	1287	1287	1287	1287	1287	1287	1287	1287	1287	1287	1287	1287	1287	1287	1287	1287	1287	1287	1287	1287	1287	1282	1282	1282	1282	1282	1282	1282	1282	1282	1282	1277	1277	1277	1277	1277	1277	1277	1277	1277	1277	1272	1272	1272	1272	1272	1268	1268	1268	1268	1268	1268	1268	1268	1268	1268	1268	1268	1268	1268	1268	1268	1268	1268	1268	1268	1268	1263	1263	1268	1268	1272	1277	1277	1282	1282	1282	1282	1282	1282	1282	1282	1282	1282	1282	1282	1282	1282	1282	1282	1282	1282	1282	1282	1282	1282	1282	1282	1282	1282	1282	1282	1282	1282	1282	1282	1282	1282	1282	1282	1282	1282	1282	1282	1282	1282	1282	1282	1282	1282	1282	1282	1282	1282	1282	1282	1282	1282	1282	1282	1282	1277	1277	1277	1277	1277	1277	1277	1277	1277	1277	1277	1277	1277	1277	1277	1277	1282	1282	1282	1282	1282	1282	1282	1282	1282	1282	1282	1282	1277	1277	1282	1282	1287	1287	1287	1193	1193	1189	1189	1185	1177	1177	1173	1173	1173	1173	1169	1169	1165	1165	1161	1161	1161	1165	1165	0	0	0	0	0	0	0	0	0	0	0	0	0	0	0	0	0	0	0
0	0	0	0	0	0	0	0	0	0	0	0	0	0	0	0	0	0	0	0	0	0	0	0	0	0	0	0	1150	1150	1153	1153	1153	1153	1153	1153	1153	1153	1153	1153	1153	1153	1153	1153	1153	1153	1153	1153	1153	1153	1153	1153	1153	1153	1153	1153	1153	1153	1153	1153	1153	1157	1157	1157	1157	1157	1157	1157	1157	1157	1157	1157	1157	1157	1157	1157	1157	1157	1157	1157	1157	1157	1157	1157	1157	1157	1161	1157	1157	1157	1157	1157	1157	1157	1157	1157	1157	1157	1157	1157	1157	1157	1157	1161	1161	1161	1161	1161	1157	1157	1157	1157	1157	1157	1161	1161	1161	1161	1161	1161	1161	1157	1157	1157	1157	1157	1157	1157	1157	1161	1161	1161	1161	1165	1165	1165	1165	1157	1157	1161	1157	1157	1157	1157	1157	1157	1157	1157	1157	1157	1157	1157	1157	1161	1161	1161	1161	1161	1161	1161	1161	1161	1165	1165	1165	1165	1165	1165	1165	1165	1165	1165	1165	1165	1165	1169	1169	1169	1173	1173	1173	1177	1181	1181	1311	1311	1311	1311	1311	1316	1316	1316	1316	1311	1311	1311	1311	1311	1311	1311	1311	1311	1311	1311	1311	1311	1311	1311	1311	1311	1311	1316	1316	1316	1311	1311	1311	1311	1311	1316	1311	1311	1311	1316	1316	1316	1316	1316	1316	1316	1316	1316	1316	1316	1311	1311	1311	1311	1311	1311	1311	1311	1311	1316	1316	1316	1311	1311	1316	1316	1316	1316	1316	1316	1316	1316	1316	1316	1316	1311	1311	1311	1311	1311	1311	1311	1311	1311	1311	1311	1311	1311	1311	1311	1311	1311	1311	1311	1311	1311	1311	1311	1311	1311	1311	1311	1311	1311	1311	1311	1311	1311	1311	1311	1311	1311	1311	1311	1311	1311	1311	1311	1311	1311	1311	1311	1311	1311	1311	1311	1311	1311	1311	1311	1311	1311	1311	1311	1311	1306	1306	1306	1306	1306	1306	1306	1306	1306	1306	1306	1301	1301	1301	1301	1301	1301	1301	1301	1301	1301	1301	1301	1301	1301	1301	1301	1301	1301	1301	1301	1301	1301	1301	1301	1301	1301	1301	1301	1301	1301	1301	1301	1301	1301	1301	1301	1301	1301	1301	1301	1301	1301	1301	1301	1301	1301	1301	1296	1296	1296	1301	1301	1301	1301	1301	1301	1301	1301	1301	1301	1301	1301	1301	1301	1301	1301	1301	1301	1296	1296	1296	1296	1291	1291	1296	1296	1296	1296	1296	1296	1296	1296	1296	1291	1291	1291	1291	1291	1291	1291	1291	1291	1291	1291	1291	1287	1287	1287	1287	1287	1287	1287	1291	1287	1287	1287	1287	1287	1287	1287	1287	1287	1287	1287	1287	1287	1287	1287	1287	1287	1287	1287	1287	1287	1287	1287	1282	1282	1282	1282	1282	1282	1282	1282	1282	1282	1277	1277	1277	1277	1277	1277	1277	1277	1277	1277	1272	1272	1272	1268	1268	1268	1268	1268	1268	1268	1268	1268	1268	1268	1268	1268	1268	1268	1268	1268	1268	1268	1268	1268	1268	1268	1263	1263	1268	1268	1272	1272	1277	1282	1282	1282	1282	1282	1282	1282	1282	1282	1282	1282	1282	1282	1282	1282	1282	1282	1282	1282	1282	1282	1282	1282	1282	1282	1282	1282	1282	1282	1282	1282	1282	1282	1282	1282	1282	1282	1282	1282	1282	1282	1282	1282	1282	1282	1282	1282	1282	1282	1282	1282	1282	1282	1282	1282	1282	1277	1277	1277	1277	1277	1277	1277	1277	1277	1277	1277	1277	1277	1277	1277	1277	1277	1282	1282	1282	1282	1282	1282	1282	1282	1282	1282	1282	1282	1277	1277	1282	1282	1287	1287	1287	1193	1193	1189	1189	1181	1181	1177	1173	1173	1173	1173	1169	1169	1165	1165	1161	1161	1161	1165	1165	0	0	0	0	0	0	0	0	0	0	0	0	0	0	0	0	0	0	0
0	0	0	0	0	0	0	0	0	0	0	0	0	0	0	0	0	0	0	0	0	0	0	0	0	0	0	0	1150	1150	1150	1153	1153	1153	1153	1153	1153	1153	1153	1153	1153	1153	1153	1153	1153	1153	1150	1150	1153	1153	1153	1153	1153	1153	1153	1153	1153	1153	1153	1157	1157	1157	1157	1157	1157	1157	1157	1157	1157	1157	1157	1157	1157	1157	1157	1157	1157	1157	1157	1157	1157	1157	1157	1157	1157	1157	1161	1157	1157	1157	1157	1157	1157	1157	1157	1157	1157	1157	1157	1157	1157	1157	1161	1161	1161	1161	1161	1161	1161	1161	1161	1161	1157	1157	1161	1161	1161	1161	1161	1161	1161	1161	1161	1161	1161	1157	1157	1157	1157	1161	1161	1161	1161	1165	1165	1165	1165	1161	1161	1157	1157	1157	1157	1157	1157	1157	1157	1161	1161	1161	1161	1161	1161	1161	1161	1161	1161	1161	1161	1161	1161	1161	1165	1165	1165	1165	1165	1161	1161	1165	1165	1165	1165	1165	1165	1169	1169	1169	1173	1173	1177	1177	1181	1185	1311	1311	1311	1311	1311	1316	1316	1316	1311	1311	1311	1311	1311	1311	1311	1311	1311	1311	1311	1311	1311	1311	1311	1311	1311	1311	1311	1311	1316	1316	1316	1311	1311	1311	1311	1316	1316	1316	1316	1316	1316	1316	1316	1316	1316	1316	1311	1311	1316	1316	1316	1311	1311	1316	1316	1316	1316	1316	1316	1316	1316	1316	1316	1316	1316	1316	1316	1316	1316	1316	1316	1316	1316	1316	1311	1311	1311	1311	1311	1311	1311	1311	1311	1311	1311	1311	1311	1311	1311	1311	1311	1311	1311	1311	1311	1311	1311	1311	1311	1311	1311	1311	1311	1311	1311	1311	1311	1311	1311	1311	1311	1311	1311	1311	1311	1311	1311	1311	1311	1311	1311	1311	1311	1311	1306	1311	1311	1311	1311	1311	1311	1311	1311	1311	1311	1306	1306	1306	1306	1306	1306	1306	1306	1306	1306	1306	1306	1301	1301	1301	1301	1301	1301	1301	1301	1301	1301	1301	1301	1301	1301	1301	1301	1301	1301	1301	1301	1301	1301	1301	1301	1301	1301	1301	1301	1301	1301	1301	1301	1301	1301	1301	1301	1301	1301	1301	1301	1301	1301	1301	1301	1301	1301	1301	1301	1301	1301	1301	1301	1301	1301	1301	1301	1301	1301	1301	1301	1301	1301	1301	1301	1301	1301	1301	1296	1296	1296	1296	1291	1291	1296	1296	1296	1296	1296	1296	1296	1296	1296	1291	1291	1291	1291	1291	1291	1291	1296	1291	1291	1291	1291	1287	1287	1287	1287	1287	1287	1287	1291	1287	1287	1287	1287	1287	1287	1287	1287	1287	1287	1287	1287	1287	1287	1287	1287	1287	1287	1287	1287	1287	1287	1287	1282	1282	1282	1282	1282	1282	1282	1282	1282	1282	1277	1277	1277	1277	1277	1277	1277	1277	1277	1277	1272	1272	1272	1268	1268	1268	1268	1268	1268	1268	1268	1268	1268	1268	1268	1268	1268	1268	1268	1268	1268	1268	1268	1268	1268	1268	1263	1263	1268	1268	1272	1272	1277	1282	1282	1282	1282	1282	1282	1282	1282	1282	1282	1282	1282	1282	1282	1282	1282	1282	1282	1282	1282	1282	1282	1282	1282	1282	1282	1282	1282	1282	1282	1282	1282	1282	1282	1282	1282	1282	1282	1282	1282	1282	1282	1282	1282	1282	1282	1282	1282	1282	1282	1282	1282	1282	1282	1282	1282	1282	1277	1277	1277	1277	1277	1277	1277	1282	1282	1277	1277	1277	1277	1277	1277	1277	1282	1282	1282	1282	1282	1282	1282	1282	1282	1282	1282	1282	1282	1282	1282	1282	1287	1287	1287	1193	1193	1189	1189	1181	1181	1177	1177	1177	1173	1173	1169	1169	1169	1169	1165	1165	1165	1165	1165	0	0	0	0	0	0	0	0	0	0	0	0	0	0	0	0	0	0	0
0	0	0	0	0	0	0	0	0	0	0	0	0	0	0	0	0	0	0	0	0	0	0	0	0	0	0	0	1150	1150	1150	1153	1153	1153	1153	1153	1153	1153	1153	1153	1153	1153	1153	1153	1153	1153	1150	1150	1153	1153	1153	1153	1153	1153	1153	1153	1153	1153	1153	1157	1157	1157	1157	1157	1157	1157	1157	1157	1157	1157	1157	1157	1157	1157	1157	1157	1157	1157	1157	1157	1157	1161	1161	1161	1161	1157	1157	1157	1157	1157	1157	1157	1157	1157	1157	1157	1157	1157	1157	1157	1157	1157	1161	1161	1161	1161	1161	1161	1161	1161	1157	1157	1157	1161	1161	1161	1161	1161	1161	1161	1165	1161	1161	1161	1161	1157	1157	1157	1157	1161	1161	1161	1161	1165	1161	1161	1165	1157	1157	1157	1157	1157	1157	1157	1157	1157	1157	1161	1161	1161	1161	1161	1161	1161	1161	1161	1161	1161	1161	1161	1161	1161	1165	1161	1161	1161	1165	1161	1161	1165	1165	1165	1165	1165	1165	1169	1169	1169	1169	1173	1177	1177	1181	1185	1311	1311	1311	1311	1311	1316	1316	1316	1311	1311	1311	1311	1311	1311	1311	1311	1311	1311	1311	1311	1311	1311	1311	1311	1311	1311	1311	1316	1316	1316	1316	1316	1316	1316	1316	1316	1316	1316	1316	1316	1316	1316	1316	1316	1316	1316	1311	1311	1316	1316	1316	1311	1311	1316	1316	1316	1316	1316	1316	1316	1316	1316	1316	1316	1316	1316	1316	1316	1316	1316	1316	1316	1316	1316	1311	1311	1311	1311	1311	1311	1311	1311	1311	1311	1311	1311	1311	1311	1311	1311	1311	1311	1311	1311	1311	1311	1311	1311	1311	1311	1311	1311	1311	1311	1311	1311	1311	1311	1311	1311	1311	1311	1311	1311	1311	1311	1311	1311	1311	1311	1311	1311	1311	1311	1306	1311	1311	1311	1311	1311	1311	1311	1311	1311	1311	1306	1306	1306	1306	1306	1306	1306	1306	1306	1306	1306	1301	1301	1301	1301	1301	1301	1301	1301	1301	1301	1301	1301	1301	1301	1301	1301	1301	1301	1301	1301	1301	1301	1301	1301	1301	1301	1301	1301	1301	1301	1301	1301	1301	1301	1301	1301	1301	1301	1301	1301	1301	1301	1301	1301	1301	1301	1301	1301	1301	1301	1301	1301	1301	1301	1301	1301	1301	1301	1301	1301	1301	1301	1301	1301	1301	1301	1301	1301	1301	1296	1296	1296	1296	1296	1296	1296	1296	1296	1296	1296	1296	1296	1296	1291	1291	1291	1291	1291	1291	1291	1291	1291	1291	1291	1291	1291	1291	1287	1287	1291	1287	1287	1287	1287	1287	1287	1287	1287	1287	1287	1287	1287	1287	1287	1287	1287	1287	1287	1287	1287	1287	1287	1287	1287	1287	1287	1287	1282	1282	1282	1282	1282	1282	1282	1282	1282	1277	1277	1277	1277	1277	1277	1277	1277	1277	1277	1272	1272	1272	1272	1272	1268	1268	1268	1268	1268	1268	1268	1268	1268	1268	1268	1268	1268	1268	1268	1268	1268	1268	1268	1268	1268	1263	1263	1268	1268	1272	1272	1277	1282	1282	1282	1282	1282	1282	1282	1282	1282	1282	1282	1282	1282	1282	1282	1282	1282	1282	1282	1282	1282	1282	1282	1282	1282	1282	1282	1282	1282	1282	1282	1282	1282	1282	1282	1282	1282	1282	1282	1282	1282	1282	1282	1282	1282	1282	1282	1282	1282	1282	1282	1282	1282	1282	1282	1282	1282	1282	1277	1277	1277	1277	1277	1277	1282	1282	1277	1277	1277	1277	1282	1282	1282	1282	1282	1282	1282	1282	1282	1282	1282	1282	1282	1282	1282	1282	1282	1282	1282	1282	1287	1287	1197	1193	1193	1189	1185	1181	1177	1177	1177	1173	1173	1169	1169	1169	1169	1165	1165	1165	1165	1165	0	0	0	0	0	0	0	0	0	0	0	0	0	0	0	0	0	0	0
0	0	0	0	0	0	0	0	0	0	0	0	0	0	0	0	0	0	0	0	0	0	0	0	0	0	0	0	1150	1150	1150	1153	1153	1153	1153	1153	1153	1153	1153	1153	1153	1153	1153	1153	1153	1153	1153	1153	1153	1153	1153	1153	1153	1153	1153	1153	1153	1153	1153	1153	1153	1157	1157	1157	1157	1157	1157	1157	1157	1157	1157	1157	1157	1157	1157	1157	1157	1157	1157	1157	1157	1157	1161	1161	1161	1157	1157	1157	1157	1157	1157	1157	1157	1157	1157	1157	1157	1157	1157	1157	1157	1157	1157	1157	1161	1161	1161	1161	1161	1161	1157	1157	1157	1161	1161	1161	1161	1161	1161	1161	1165	1161	1161	1161	1161	1157	1157	1157	1157	1161	1161	1161	1161	1165	1161	1161	1165	1157	1157	1157	1157	1157	1157	1161	1161	1161	1161	1161	1161	1161	1161	1161	1161	1161	1161	1161	1161	1161	1161	1161	1161	1161	1161	1161	1161	1161	1165	1161	1161	1165	1165	1165	1165	1165	1165	1169	1169	1169	1169	1173	1177	1177	1181	1185	1185	1311	1316	1316	1316	1316	1316	1316	1316	1316	1316	1311	1311	1316	1316	1316	1311	1311	1316	1311	1311	1311	1311	1311	1311	1311	1311	1311	1316	1316	1316	1316	1316	1316	1316	1316	1316	1316	1316	1316	1321	1321	1316	1316	1316	1316	1316	1316	1316	1316	1316	1316	1316	1316	1316	1316	1316	1316	1316	1316	1316	1316	1316	1316	1316	1316	1316	1316	1316	1316	1316	1316	1316	1316	1311	1311	1311	1311	1311	1311	1311	1311	1311	1311	1311	1311	1311	1311	1311	1311	1311	1311	1311	1311	1311	1311	1311	1311	1311	1311	1311	1311	1311	1311	1311	1311	1311	1311	1311	1311	1311	1311	1311	1311	1311	1311	1311	1311	1311	1311	1311	1311	1311	1311	1311	1311	1311	1311	1311	1311	1311	1311	1311	1311	1311	1306	1306	1306	1306	1306	1306	1306	1306	1306	1306	1306	1301	1301	1301	1301	1301	1301	1301	1301	1301	1301	1301	1301	1301	1301	1301	1301	1301	1301	1301	1301	1301	1301	1301	1301	1301	1301	1301	1301	1301	1301	1301	1301	1301	1301	1301	1301	1301	1301	1301	1301	1301	1301	1301	1301	1301	1301	1301	1301	1301	1301	1301	1301	1301	1301	1301	1301	1301	1301	1301	1301	1301	1301	1301	1301	1301	1301	1301	1301	1301	1296	1296	1296	1296	1296	1296	1296	1296	1296	1296	1301	1296	1296	1296	1291	1291	1291	1291	1291	1291	1291	1291	1291	1287	1287	1287	1287	1291	1287	1287	1291	1287	1287	1287	1287	1287	1287	1287	1287	1287	1287	1287	1287	1287	1287	1287	1287	1287	1287	1287	1287	1287	1287	1287	1287	1287	1287	1287	1282	1282	1282	1282	1282	1282	1282	1282	1282	1277	1277	1277	1277	1277	1277	1277	1277	1277	1277	1277	1277	1272	1272	1272	1272	1268	1268	1268	1268	1268	1268	1268	1268	1268	1268	1268	1268	1268	1268	1268	1268	1268	1268	1268	1268	1263	1263	1268	1268	1272	1272	1277	1282	1282	1282	1282	1282	1282	1282	1282	1282	1282	1282	1282	1282	1282	1282	1282	1282	1282	1282	1282	1282	1282	1282	1282	1282	1282	1282	1282	1282	1282	1282	1282	1282	1282	1282	1282	1282	1282	1282	1282	1282	1282	1282	1282	1282	1282	1282	1282	1282	1282	1282	1282	1282	1282	1282	1282	1282	1282	1277	1277	1277	1277	1277	1277	1282	1282	1277	1277	1277	1277	1277	1277	1282	1282	1282	1282	1282	1282	1282	1282	1282	1282	1282	1282	1282	1282	1282	1282	1282	1282	1282	1287	1197	1197	1193	1193	1189	1181	1177	1177	1177	1173	1169	1169	1173	1173	1173	1169	1169	1169	1169	1169	0	0	0	0	0	0	0	0	0	0	0	0	0	0	0	0	0	0	0
0	0	0	0	0	0	0	0	0	0	0	0	0	0	0	0	0	0	0	0	0	0	0	0	0	0	0	0	1150	1150	1150	1150	1153	1153	1153	1153	1153	1153	1153	1153	1153	1153	1153	1153	1153	1153	1153	1153	1153	1153	1153	1153	1153	1153	1153	1153	1153	1153	1153	1153	1153	1157	1157	1157	1157	1157	1157	1157	1157	1157	1157	1157	1157	1157	1157	1157	1157	1157	1157	1157	1157	1157	1161	1157	1157	1157	1157	1157	1157	1157	1157	1157	1157	1157	1157	1157	1157	1157	1157	1157	1157	1157	1157	1157	1157	1161	1161	1161	1161	1161	1157	1157	1161	1161	1161	1161	1161	1161	1161	1165	1165	1161	1161	1161	1161	1161	1157	1157	1157	1161	1161	1161	1161	1165	1161	1161	1165	1157	1157	1157	1157	1157	1157	1161	1161	1161	1161	1161	1161	1161	1161	1161	1161	1161	1161	1161	1161	1161	1161	1161	1161	1161	1161	1161	1161	1161	1165	1161	1161	1165	1165	1165	1165	1165	1165	1169	1169	1169	1169	1173	1173	1177	1177	1181	1181	1181	1316	1316	1316	1316	1316	1316	1316	1316	1316	1316	1316	1316	1316	1316	1316	1316	1316	1316	1316	1316	1311	1311	1311	1311	1311	1311	1316	1316	1316	1316	1316	1316	1316	1316	1316	1316	1321	1321	1321	1321	1321	1321	1316	1316	1316	1316	1316	1316	1316	1316	1316	1316	1316	1316	1316	1316	1316	1316	1316	1316	1316	1316	1316	1316	1316	1316	1316	1316	1316	1316	1316	1316	1311	1311	1311	1311	1311	1311	1311	1311	1311	1311	1311	1311	1311	1311	1311	1311	1311	1311	1311	1311	1311	1311	1311	1311	1311	1311	1311	1311	1311	1311	1311	1311	1311	1311	1311	1311	1311	1311	1311	1311	1311	1311	1311	1311	1311	1311	1311	1311	1311	1311	1311	1311	1311	1311	1311	1311	1311	1311	1311	1311	1311	1306	1306	1306	1306	1306	1306	1306	1306	1306	1306	1306	1301	1301	1301	1301	1301	1301	1301	1301	1301	1301	1301	1301	1301	1301	1301	1301	1301	1301	1301	1301	1301	1301	1301	1301	1301	1301	1301	1301	1301	1301	1301	1301	1301	1301	1301	1301	1301	1301	1301	1301	1301	1301	1301	1301	1301	1301	1301	1296	1296	1301	1301	1301	1301	1301	1301	1301	1301	1301	1301	1301	1301	1301	1301	1301	1301	1301	1301	1301	1301	1301	1301	1301	1296	1296	1296	1296	1296	1296	1296	1301	1296	1296	1296	1296	1296	1296	1291	1291	1291	1291	1291	1291	1287	1287	1287	1287	1291	1287	1287	1291	1287	1287	1287	1287	1287	1287	1287	1287	1287	1287	1287	1287	1287	1287	1287	1287	1287	1287	1287	1287	1287	1287	1287	1287	1287	1287	1282	1282	1282	1282	1282	1282	1282	1282	1282	1282	1282	1282	1282	1277	1277	1277	1277	1277	1277	1277	1277	1272	1272	1272	1272	1272	1272	1272	1272	1272	1272	1272	1272	1272	1268	1268	1268	1268	1268	1268	1268	1268	1268	1268	1268	1268	1263	1263	1263	1263	1272	1272	1282	1282	1282	1282	1282	1282	1282	1282	1282	1282	1287	1282	1282	1282	1282	1282	1282	1282	1282	1282	1282	1282	1282	1282	1282	1282	1282	1282	1282	1282	1282	1282	1282	1282	1282	1282	1282	1282	1282	1282	1282	1282	1282	1282	1282	1282	1282	1282	1282	1282	1282	1282	1282	1282	1282	1282	1282	1282	1282	1282	1282	1277	1277	1277	1282	1282	1282	1277	1277	1277	1277	1277	1277	1282	1282	1282	1282	1282	1282	1282	1282	1282	1282	1282	1282	1282	1282	1282	1282	1282	1282	1210	1210	1202	1193	1193	1193	1189	1181	1177	1177	1177	1173	1169	1169	1173	1173	1173	1169	1169	1169	1169	1169	0	0	0	0	0	0	0	0	0	0	0	0	0	0	0	0	0	0	0
0	0	0	0	0	0	0	0	0	0	0	0	0	0	0	0	0	0	0	0	0	0	0	0	0	0	0	0	1150	1146	1146	1150	1153	1153	1153	1153	1153	1153	1153	1153	1153	1153	1153	1153	1153	1153	1153	1153	1153	1153	1153	1153	1153	1153	1153	1153	1153	1153	1153	1153	1157	1157	1157	1157	1157	1157	1157	1157	1157	1157	1157	1157	1157	1157	1157	1157	1157	1157	1157	1157	1157	1157	1157	1157	1157	1157	1157	1157	1157	1157	1157	1157	1157	1157	1157	1157	1157	1157	1157	1157	1157	1157	1157	1157	1157	1161	1161	1161	1161	1161	1161	1161	1161	1161	1161	1161	1161	1161	1161	1165	1165	1161	1161	1161	1161	1161	1161	1157	1157	1161	1161	1161	1161	1165	1161	1161	1165	1157	1157	1157	1157	1157	1157	1161	1157	1161	1161	1161	1161	1161	1161	1161	1157	1157	1161	1161	1161	1161	1161	1161	1161	1161	1161	1161	1161	1161	1165	1161	1161	1161	1165	1165	1165	1165	1165	1165	1169	1169	1169	1173	1173	1173	1177	1177	1181	1311	1316	1316	1316	1316	1316	1316	1316	1316	1316	1316	1316	1316	1316	1316	1316	1316	1316	1316	1316	1316	1316	1316	1316	1316	1316	1316	1316	1316	1316	1316	1316	1316	1316	1316	1316	1316	1321	1321	1321	1321	1321	1321	1316	1316	1316	1316	1316	1316	1316	1316	1316	1316	1316	1316	1316	1316	1316	1316	1316	1316	1316	1316	1311	1316	1316	1316	1316	1316	1316	1316	1316	1316	1311	1311	1311	1311	1311	1311	1311	1311	1311	1311	1311	1311	1311	1311	1311	1316	1316	1311	1311	1311	1311	1311	1311	1311	1311	1311	1311	1311	1311	1311	1311	1311	1311	1311	1311	1311	1311	1311	1311	1311	1311	1311	1311	1311	1311	1311	1311	1311	1311	1311	1311	1311	1311	1311	1311	1311	1311	1311	1311	1311	1311	1306	1306	1306	1306	1306	1306	1306	1306	1306	1306	1306	1306	1301	1301	1301	1301	1301	1301	1301	1301	1301	1301	1301	1301	1301	1301	1301	1301	1301	1301	1301	1301	1301	1301	1301	1301	1301	1301	1301	1301	1301	1301	1301	1301	1301	1301	1301	1301	1301	1301	1301	1301	1301	1301	1301	1301	1301	1301	1296	1296	1301	1301	1301	1301	1301	1301	1301	1301	1301	1301	1301	1301	1301	1301	1301	1301	1301	1301	1301	1301	1301	1301	1301	1301	1296	1296	1301	1296	1296	1296	1301	1301	1301	1296	1296	1296	1296	1291	1291	1291	1291	1291	1291	1287	1287	1287	1287	1287	1287	1287	1291	1287	1287	1287	1287	1287	1287	1287	1287	1287	1287	1287	1287	1287	1287	1287	1287	1287	1287	1287	1287	1287	1287	1287	1287	1287	1287	1282	1282	1282	1282	1282	1282	1282	1282	1282	1282	1282	1282	1282	1277	1277	1277	1277	1277	1277	1277	1277	1272	1272	1272	1272	1272	1272	1272	1272	1272	1272	1272	1272	1272	1272	1268	1268	1268	1268	1268	1268	1268	1268	1268	1268	1268	1263	1263	1263	1268	1268	1272	1272	1282	1282	1282	1282	1282	1282	1287	1287	1287	1287	1287	1287	1282	1282	1282	1282	1282	1282	1282	1282	1282	1282	1282	1282	1282	1282	1282	1282	1282	1282	1282	1282	1282	1282	1282	1282	1282	1282	1282	1282	1282	1282	1282	1282	1282	1282	1282	1282	1282	1282	1282	1282	1282	1282	1282	1282	1282	1282	1282	1282	1282	1282	1282	1282	1282	1282	1277	1277	1282	1282	1282	1282	1282	1282	1282	1282	1282	1282	1282	1282	1287	1287	1287	1287	1287	1282	1282	1282	1282	1282	1210	1210	1202	1193	1193	1189	1189	1181	1181	1181	1177	1173	1169	1169	1173	1173	1173	1169	1169	1169	1169	1169	0	0	0	0	0	0	0	0	0	0	0	0	0	0	0	0	0	0	0
0	0	0	0	0	0	0	0	0	0	0	0	0	0	0	0	0	0	0	0	0	0	0	0	0	0	0	0	1150	1146	1146	1150	1153	1153	1153	1153	1153	1153	1153	1153	1153	1153	1153	1153	1153	1153	1153	1153	1153	1153	1153	1153	1153	1153	1153	1153	1153	1153	1153	1153	1153	1157	1157	1157	1157	1157	1157	1157	1157	1157	1157	1157	1157	1157	1157	1157	1157	1157	1157	1157	1157	1157	1157	1157	1157	1157	1157	1157	1157	1157	1157	1157	1157	1157	1157	1157	1157	1157	1157	1157	1157	1161	1157	1157	1157	1161	1161	1161	1161	1161	1161	1161	1161	1161	1161	1161	1161	1161	1161	1165	1165	1161	1161	1161	1161	1161	1161	1157	1157	1161	1161	1161	1161	1161	1161	1161	1165	1157	1157	1157	1157	1157	1157	1157	1157	1161	1161	1161	1161	1161	1161	1161	1157	1157	1157	1161	1161	1161	1161	1161	1161	1161	1161	1157	1157	1157	1157	1161	1161	1161	1165	1165	1165	1165	1165	1169	1169	1169	1169	1173	1173	1173	1177	1177	1181	1311	1316	1316	1321	1321	1321	1321	1321	1321	1316	1316	1316	1316	1316	1316	1316	1316	1316	1316	1316	1316	1316	1316	1316	1316	1316	1316	1316	1316	1316	1316	1316	1316	1316	1316	1316	1321	1321	1321	1321	1321	1321	1321	1321	1321	1321	1321	1321	1316	1316	1316	1316	1316	1316	1316	1316	1316	1316	1316	1316	1316	1316	1316	1311	1316	1316	1316	1316	1316	1316	1316	1316	1316	1311	1311	1311	1311	1311	1311	1311	1311	1311	1311	1311	1311	1316	1316	1316	1316	1316	1311	1311	1311	1311	1311	1311	1311	1311	1311	1311	1311	1311	1311	1311	1311	1311	1311	1311	1311	1311	1311	1311	1311	1311	1311	1311	1311	1311	1311	1311	1311	1311	1311	1311	1311	1311	1311	1311	1311	1311	1311	1311	1311	1311	1306	1306	1306	1306	1306	1306	1306	1306	1306	1306	1306	1306	1301	1301	1301	1301	1301	1301	1301	1301	1301	1301	1301	1301	1301	1301	1301	1301	1301	1301	1301	1301	1301	1301	1301	1301	1301	1301	1301	1301	1301	1301	1301	1301	1301	1301	1301	1301	1301	1301	1301	1301	1301	1301	1301	1301	1301	1301	1296	1296	1301	1301	1301	1301	1301	1301	1301	1301	1301	1301	1301	1301	1301	1301	1301	1301	1301	1301	1301	1301	1301	1301	1301	1301	1301	1301	1301	1296	1296	1301	1301	1301	1301	1301	1296	1296	1296	1296	1291	1291	1291	1291	1291	1291	1291	1291	1291	1287	1287	1287	1291	1287	1287	1287	1287	1287	1287	1287	1287	1287	1287	1287	1287	1287	1287	1287	1287	1287	1287	1287	1287	1287	1287	1287	1287	1287	1287	1282	1282	1282	1282	1282	1282	1282	1282	1282	1282	1282	1282	1282	1277	1277	1277	1277	1277	1277	1277	1277	1277	1277	1277	1272	1272	1272	1272	1272	1272	1272	1272	1272	1272	1272	1268	1268	1268	1268	1268	1268	1268	1268	1268	1268	1268	1263	1263	1263	1268	1272	1272	1282	1282	1282	1282	1282	1282	1282	1287	1287	1287	1291	1287	1287	1287	1282	1282	1282	1282	1282	1282	1282	1282	1282	1282	1282	1282	1282	1282	1282	1282	1282	1282	1282	1282	1282	1282	1282	1282	1282	1282	1282	1282	1282	1282	1282	1282	1282	1282	1282	1282	1282	1282	1282	1282	1282	1282	1282	1282	1282	1282	1282	1282	1282	1282	1282	1282	1282	1277	1277	1282	1282	1282	1282	1282	1282	1282	1282	1282	1282	1282	1282	1282	1282	1287	1287	1287	1282	1282	1282	1282	1210	1210	1210	1202	1193	1193	1189	1189	1185	1181	1177	1177	1173	1173	1169	1169	1173	1173	1169	1169	1169	1169	1169	0	0	0	0	0	0	0	0	0	0	0	0	0	0	0	0	0	0	0
0	0	0	0	0	0	0	0	0	0	0	0	0	0	0	0	0	0	0	0	0	0	0	0	0	0	0	0	1146	1146	1146	1150	1153	1153	1153	1153	1153	1153	1153	1153	1153	1153	1153	1153	1153	1153	1153	1153	1153	1153	1153	1153	1153	1153	1157	1157	1157	1153	1153	1153	1153	1153	1157	1157	1157	1157	1157	1157	1157	1157	1157	1157	1157	1157	1157	1157	1157	1157	1157	1157	1157	1157	1157	1157	1157	1157	1157	1157	1157	1157	1157	1157	1157	1157	1157	1157	1157	1157	1157	1157	1157	1161	1161	1161	1161	1161	1161	1161	1161	1161	1161	1161	1161	1161	1161	1161	1161	1161	1161	1165	1165	1165	1165	1161	1161	1161	1161	1157	1157	1157	1161	1161	1161	1161	1161	1161	1161	1157	1157	1157	1153	1153	1157	1157	1157	1157	1161	1161	1161	1157	1157	1157	1157	1157	1157	1157	1157	1157	1161	1161	1161	1161	1161	1157	1157	1157	1157	1161	1161	1161	1161	1165	1165	1165	1165	1165	1169	1169	1169	1169	1173	1173	1173	1173	1311	1311	1316	1316	1321	1321	1321	1321	1321	1321	1321	1321	1316	1316	1316	1316	1316	1316	1316	1321	1321	1321	1316	1316	1316	1316	1316	1316	1316	1316	1316	1316	1316	1316	1316	1316	1316	1321	1321	1321	1321	1321	1321	1321	1321	1321	1321	1321	1321	1316	1316	1316	1316	1316	1316	1316	1316	1311	1311	1311	1316	1316	1316	1316	1316	1316	1316	1316	1316	1316	1316	1316	1316	1316	1316	1311	1311	1311	1311	1311	1311	1311	1311	1311	1311	1311	1316	1316	1316	1316	1316	1316	1311	1311	1311	1311	1311	1311	1311	1311	1311	1311	1311	1311	1311	1311	1311	1311	1311	1311	1311	1311	1311	1311	1311	1311	1311	1311	1311	1311	1311	1311	1311	1311	1311	1311	1311	1311	1311	1311	1311	1311	1311	1311	1311	1306	1306	1306	1306	1306	1306	1306	1306	1306	1306	1306	1306	1306	1301	1301	1301	1301	1301	1301	1301	1306	1301	1301	1301	1301	1301	1301	1301	1301	1301	1301	1301	1301	1301	1301	1306	1301	1301	1301	1301	1301	1301	1301	1306	1306	1306	1306	1301	1301	1301	1301	1301	1301	1301	1301	1301	1301	1301	1296	1296	1301	1301	1301	1301	1301	1301	1301	1301	1301	1301	1301	1301	1301	1301	1301	1301	1301	1301	1301	1301	1301	1301	1301	1301	1301	1301	1301	1301	1301	1301	1301	1301	1301	1301	1301	1301	1296	1296	1291	1291	1291	1291	1291	1291	1291	1291	1291	1291	1291	1291	1291	1291	1291	1287	1287	1287	1287	1287	1287	1287	1287	1287	1287	1287	1287	1287	1287	1287	1287	1287	1287	1287	1287	1287	1287	1287	1287	1287	1282	1282	1282	1282	1282	1282	1282	1282	1282	1282	1282	1282	1277	1277	1277	1277	1277	1277	1277	1277	1277	1277	1277	1277	1272	1272	1272	1272	1272	1272	1272	1272	1272	1272	1272	1268	1268	1268	1268	1268	1268	1268	1268	1268	1268	1263	1263	1263	1268	1272	1272	1282	1282	1287	1287	1287	1287	1287	1287	1287	1287	1291	1291	1291	1291	1291	1282	1282	1282	1282	1282	1282	1282	1282	1282	1282	1282	1282	1282	1282	1282	1282	1282	1282	1282	1282	1282	1282	1282	1282	1282	1282	1282	1282	1282	1282	1282	1282	1282	1282	1282	1282	1282	1282	1282	1282	1282	1282	1282	1282	1282	1282	1282	1282	1282	1282	1282	1282	1282	1282	1282	1282	1282	1282	1282	1282	1282	1282	1282	1282	1282	1282	1282	1282	1287	1287	1287	1287	1287	1287	1287	1210	1210	1210	1202	1193	1193	1189	1185	1181	1181	1177	1177	1173	1173	1173	1173	1169	1169	1169	1169	1169	1173	1173	0	0	0	0	0	0	0	0	0	0	0	0	0	0	0	0	0	0	0
0	0	0	0	0	0	0	0	0	0	0	0	0	0	0	0	0	0	0	0	0	0	0	0	0	0	0	0	1146	1146	1146	1150	1150	1153	1153	1150	1150	1153	1153	1153	1153	1153	1153	1153	1153	1153	1153	1153	1153	1153	1153	1153	1153	1153	1153	1153	1157	1157	1153	1153	1153	1153	1153	1153	1153	1153	1153	1157	1157	1157	1157	1157	1157	1157	1157	1157	1157	1157	1157	1157	1157	1157	1157	1157	1157	1157	1157	1157	1157	1157	1157	1157	1157	1157	1157	1157	1161	1157	1157	1157	1157	1157	1157	1161	1161	1161	1161	1161	1161	1161	1161	1161	1161	1161	1161	1161	1161	1161	1161	1165	1165	1161	1161	1161	1161	1161	1161	1161	1157	1157	1161	1161	1161	1161	1161	1161	1161	1157	1157	1153	1153	1153	1153	1153	1153	1153	1157	1157	1157	1157	1157	1157	1157	1157	1157	1157	1157	1161	1161	1161	1161	1161	1161	1157	1157	1157	1157	1161	1161	1161	1161	1165	1165	1165	1165	1165	1169	1169	1169	1169	1169	1169	1173	1173	1311	1311	1316	1316	1321	1321	1321	1321	1321	1321	1321	1321	1321	1321	1321	1321	1321	1321	1321	1321	1321	1321	1321	1321	1321	1321	1316	1316	1316	1316	1316	1316	1316	1316	1316	1316	1316	1321	1321	1321	1321	1321	1321	1321	1321	1321	1321	1321	1321	1321	1316	1316	1316	1316	1316	1316	1316	1311	1311	1311	1311	1311	1316	1316	1311	1316	1316	1316	1316	1316	1316	1316	1316	1316	1311	1311	1311	1316	1311	1311	1311	1311	1311	1311	1311	1316	1316	1316	1316	1316	1316	1316	1311	1311	1311	1311	1311	1311	1311	1311	1311	1311	1311	1311	1311	1311	1311	1311	1311	1311	1311	1311	1311	1311	1311	1311	1311	1311	1311	1311	1311	1311	1311	1311	1311	1311	1311	1311	1311	1311	1311	1311	1311	1311	1311	1306	1306	1306	1306	1306	1306	1306	1306	1306	1306	1306	1306	1306	1301	1301	1301	1301	1301	1301	1301	1306	1301	1301	1306	1306	1306	1301	1301	1301	1301	1301	1301	1301	1301	1301	1301	1306	1306	1306	1306	1301	1301	1306	1306	1306	1306	1306	1301	1301	1301	1301	1301	1301	1301	1301	1301	1301	1301	1301	1301	1301	1301	1301	1301	1301	1301	1301	1301	1301	1301	1301	1301	1301	1301	1301	1301	1301	1301	1301	1301	1301	1301	1301	1301	1301	1301	1301	1301	1301	1301	1301	1301	1301	1301	1301	1301	1296	1296	1296	1291	1291	1291	1291	1291	1291	1291	1291	1291	1291	1291	1291	1291	1291	1291	1291	1291	1287	1287	1287	1287	1287	1287	1287	1287	1287	1287	1287	1287	1287	1287	1287	1287	1287	1287	1287	1287	1287	1287	1282	1282	1282	1282	1282	1282	1282	1282	1282	1282	1282	1282	1277	1277	1277	1277	1277	1277	1277	1277	1277	1277	1277	1277	1272	1272	1272	1272	1272	1272	1272	1272	1272	1272	1272	1268	1268	1268	1268	1268	1268	1268	1268	1268	1268	1263	1263	1268	1272	1272	1277	1282	1282	1282	1282	1287	1287	1287	1287	1287	1287	1291	1291	1291	1287	1287	1287	1282	1282	1282	1282	1282	1282	1282	1282	1282	1282	1282	1282	1282	1282	1282	1282	1282	1282	1282	1282	1282	1282	1282	1282	1282	1282	1282	1282	1282	1282	1282	1282	1282	1282	1282	1282	1282	1282	1282	1282	1282	1282	1282	1282	1282	1282	1282	1282	1282	1282	1282	1282	1282	1282	1282	1282	1282	1282	1282	1282	1282	1282	1282	1282	1282	1282	1282	1287	1287	1287	1287	1287	1287	1206	1206	1206	1206	1197	1193	1193	1189	1185	1181	1181	1177	1177	1173	1169	1169	1169	1169	1169	1169	1169	1169	1169	1169	0	0	0	0	0	0	0	0	0	0	0	0	0	0	0	0	0	0	0
0	0	0	0	0	0	0	0	0	0	0	0	0	0	0	0	0	0	0	0	0	0	0	0	0	0	0	0	1146	1146	1146	1150	1150	1153	1153	1150	1150	1153	1153	1153	1153	1153	1153	1153	1153	1153	1153	1153	1153	1153	1153	1153	1153	1153	1153	1153	1157	1157	1153	1153	1157	1153	1153	1153	1153	1153	1153	1153	1153	1157	1157	1157	1157	1157	1157	1157	1157	1157	1157	1157	1157	1157	1157	1157	1157	1157	1157	1157	1157	1157	1157	1157	1157	1157	1157	1157	1157	1157	1157	1157	1157	1157	1157	1161	1161	1161	1161	1161	1161	1161	1161	1161	1161	1161	1161	1161	1161	1165	1165	1165	1165	1161	1161	1161	1161	1161	1161	1157	1161	1161	1157	1157	1161	1161	1161	1161	1161	1157	1157	1153	1153	1153	1157	1157	1153	1157	1157	1157	1157	1157	1157	1157	1157	1157	1157	1157	1157	1161	1161	1161	1161	1161	1161	1161	1157	1157	1161	1161	1161	1161	1165	1165	1165	1165	1165	1165	1169	1169	1169	1169	1169	1169	1173	1173	1311	1311	1316	1316	1321	1321	1321	1321	1321	1326	1321	1321	1321	1321	1321	1321	1321	1321	1321	1321	1321	1321	1321	1321	1321	1321	1321	1321	1316	1316	1316	1316	1316	1316	1316	1316	1316	1321	1321	1321	1321	1321	1321	1321	1321	1321	1321	1321	1321	1321	1316	1316	1316	1316	1316	1316	1316	1311	1311	1311	1311	1311	1311	1311	1311	1316	1316	1316	1316	1316	1316	1316	1316	1316	1311	1311	1311	1316	1311	1311	1311	1311	1311	1311	1316	1316	1316	1316	1316	1316	1316	1316	1311	1311	1311	1311	1311	1311	1311	1311	1311	1311	1311	1311	1316	1311	1311	1311	1311	1311	1311	1311	1311	1311	1311	1311	1311	1311	1311	1311	1311	1311	1311	1311	1311	1311	1311	1311	1311	1311	1311	1311	1311	1311	1311	1306	1306	1306	1306	1306	1306	1306	1306	1306	1306	1306	1306	1306	1301	1301	1301	1301	1301	1301	1306	1306	1306	1306	1306	1306	1306	1306	1301	1301	1306	1306	1301	1301	1301	1301	1301	1306	1301	1301	1301	1301	1301	1301	1301	1301	1301	1301	1301	1301	1301	1301	1301	1301	1301	1301	1301	1301	1301	1301	1301	1301	1301	1301	1301	1301	1301	1301	1301	1301	1301	1301	1301	1301	1301	1301	1301	1301	1301	1301	1301	1301	1301	1301	1301	1301	1301	1301	1301	1301	1301	1301	1301	1301	1301	1301	1301	1296	1296	1296	1291	1291	1291	1291	1291	1291	1291	1291	1291	1291	1291	1291	1291	1291	1291	1291	1291	1287	1287	1287	1287	1287	1287	1287	1287	1287	1287	1287	1287	1287	1287	1287	1287	1287	1287	1287	1287	1287	1287	1282	1282	1282	1282	1282	1282	1282	1282	1282	1282	1282	1282	1277	1277	1277	1277	1277	1277	1277	1277	1277	1277	1277	1277	1272	1272	1272	1272	1272	1272	1272	1272	1272	1272	1272	1268	1268	1268	1268	1268	1268	1268	1268	1268	1268	1263	1263	1268	1272	1277	1277	1282	1282	1282	1282	1287	1287	1287	1287	1287	1287	1291	1291	1291	1287	1287	1287	1282	1282	1282	1282	1282	1282	1282	1282	1282	1282	1287	1287	1287	1287	1287	1287	1282	1282	1282	1282	1282	1282	1282	1282	1282	1282	1282	1282	1282	1282	1282	1282	1282	1282	1282	1282	1282	1282	1282	1282	1282	1282	1282	1282	1282	1282	1282	1282	1282	1282	1282	1282	1282	1282	1282	1282	1282	1282	1282	1282	1282	1282	1282	1282	1282	1282	1287	1287	1287	1287	1287	1291	1291	1206	1206	1206	1206	1193	1189	1189	1189	1185	1181	1181	1177	1177	1173	1169	1169	1169	1169	1169	1169	1169	1169	1169	1169	0	0	0	0	0	0	0	0	0	0	0	0	0	0	0	0	0	0	0
0	0	0	0	0	0	0	0	0	0	0	0	0	0	0	0	0	0	0	0	0	0	0	0	0	0	0	0	1150	1146	1146	1150	1150	1153	1153	1150	1150	1153	1153	1153	1153	1153	1153	1153	1153	1153	1153	1153	1153	1153	1153	1153	1153	1153	1153	1153	1157	1157	1153	1153	1157	1153	1153	1157	1153	1153	1153	1153	1153	1157	1157	1157	1157	1157	1157	1157	1157	1157	1157	1157	1157	1157	1157	1157	1157	1157	1157	1157	1157	1157	1157	1157	1157	1157	1157	1157	1157	1157	1157	1157	1157	1161	1161	1161	1161	1161	1161	1161	1161	1161	1161	1161	1161	1161	1161	1161	1161	1161	1161	1161	1161	1161	1161	1161	1161	1161	1161	1157	1157	1161	1157	1157	1157	1161	1161	1161	1161	1157	1157	1157	1157	1157	1157	1157	1153	1153	1157	1157	1157	1157	1157	1157	1157	1157	1157	1157	1157	1161	1161	1161	1161	1161	1161	1161	1157	1157	1161	1161	1161	1161	1165	1165	1165	1165	1165	1165	1169	1169	1169	1169	1169	1169	1173	1173	1311	1311	1316	1316	1321	1321	1321	1321	1321	1326	1321	1321	1321	1321	1321	1321	1321	1321	1321	1326	1326	1326	1321	1321	1321	1321	1321	1321	1321	1321	1321	1321	1321	1321	1321	1321	1321	1321	1321	1321	1321	1321	1321	1321	1321	1321	1321	1321	1321	1321	1321	1316	1316	1316	1316	1316	1316	1311	1311	1311	1311	1311	1311	1311	1311	1316	1316	1316	1316	1316	1316	1316	1316	1316	1316	1316	1316	1316	1311	1311	1311	1311	1311	1311	1316	1316	1316	1316	1316	1316	1316	1311	1311	1311	1311	1311	1311	1311	1311	1311	1311	1311	1311	1311	1311	1311	1311	1311	1311	1311	1311	1311	1311	1311	1311	1311	1311	1311	1311	1311	1311	1311	1311	1311	1311	1311	1311	1311	1311	1311	1311	1316	1311	1311	1311	1306	1306	1306	1306	1306	1306	1306	1306	1306	1306	1306	1306	1306	1306	1301	1301	1306	1306	1306	1306	1306	1306	1306	1306	1306	1306	1306	1306	1306	1306	1306	1306	1306	1306	1306	1306	1306	1306	1306	1306	1301	1301	1306	1301	1301	1301	1301	1301	1301	1301	1301	1301	1301	1301	1301	1301	1301	1301	1301	1301	1301	1301	1301	1301	1301	1301	1301	1301	1301	1301	1301	1301	1301	1301	1301	1301	1301	1301	1301	1301	1301	1301	1301	1301	1301	1301	1301	1301	1301	1301	1301	1301	1301	1301	1301	1301	1296	1296	1296	1291	1291	1291	1291	1291	1291	1291	1291	1291	1291	1291	1291	1291	1291	1291	1291	1291	1291	1287	1287	1287	1287	1287	1287	1287	1287	1287	1287	1287	1287	1287	1287	1287	1287	1287	1287	1287	1287	1287	1287	1282	1282	1282	1282	1282	1282	1282	1282	1282	1282	1282	1277	1277	1277	1277	1277	1277	1277	1277	1277	1277	1277	1277	1272	1272	1272	1272	1272	1272	1272	1272	1272	1272	1272	1268	1268	1268	1268	1268	1268	1268	1268	1268	1268	1263	1263	1268	1272	1277	1277	1282	1287	1287	1287	1287	1287	1287	1287	1287	1291	1291	1291	1291	1287	1287	1287	1287	1287	1282	1282	1282	1287	1282	1282	1282	1287	1287	1287	1287	1287	1287	1282	1282	1282	1282	1282	1282	1282	1282	1282	1282	1282	1282	1282	1282	1282	1282	1282	1282	1282	1282	1282	1282	1282	1282	1287	1282	1282	1282	1287	1282	1282	1282	1282	1282	1282	1282	1282	1282	1282	1282	1282	1282	1282	1282	1282	1282	1282	1282	1282	1282	1282	1282	1287	1287	1291	1291	1291	1291	1291	1210	1202	1202	1193	1189	1189	1189	1185	1181	1181	1177	1177	1173	1173	1173	1169	1169	1169	1169	1169	1169	1169	1169	0	0	0	0	0	0	0	0	0	0	0	0	0	0	0	0	0	0	0
0	0	0	0	0	0	0	0	0	0	0	0	0	0	0	0	0	0	0	0	0	0	0	0	0	0	0	0	1150	1146	1146	1150	1150	1153	1153	1150	1150	1153	1153	1153	1153	1153	1153	1153	1153	1153	1153	1153	1153	1153	1153	1153	1153	1153	1153	1153	1153	1153	1153	1153	1157	1157	1157	1157	1157	1157	1157	1157	1157	1157	1157	1157	1157	1157	1157	1157	1157	1157	1157	1157	1157	1157	1157	1157	1157	1157	1157	1157	1157	1157	1157	1157	1157	1161	1157	1157	1161	1161	1161	1161	1161	1161	1161	1161	1161	1161	1161	1161	1161	1161	1161	1161	1161	1161	1161	1161	1161	1161	1161	1161	1161	1161	1161	1161	1161	1161	1161	1157	1161	1161	1161	1161	1161	1161	1161	1161	1161	1157	1157	1157	1157	1157	1157	1153	1153	1153	1157	1157	1157	1157	1157	1157	1157	1157	1157	1157	1157	1157	1161	1161	1161	1161	1161	1161	1161	1161	1161	1161	1161	1161	1165	1165	1165	1165	1165	1169	1169	1169	1169	1169	1169	1169	1169	1173	1311	1311	1316	1316	1321	1321	1321	1321	1321	1326	1321	1321	1321	1321	1321	1321	1321	1326	1326	1326	1326	1326	1326	1326	1326	1321	1321	1321	1321	1321	1321	1321	1321	1321	1321	1321	1321	1321	1321	1321	1321	1321	1321	1321	1326	1326	1326	1326	1326	1321	1321	1316	1316	1316	1316	1311	1311	1316	1311	1311	1311	1311	1311	1311	1311	1316	1316	1316	1316	1316	1316	1316	1316	1316	1316	1316	1316	1316	1316	1316	1316	1316	1316	1316	1316	1316	1316	1316	1316	1316	1311	1311	1311	1311	1311	1311	1311	1311	1316	1316	1316	1316	1316	1316	1316	1316	1311	1311	1311	1316	1311	1311	1311	1311	1311	1311	1311	1311	1311	1311	1311	1311	1311	1311	1311	1311	1311	1311	1316	1316	1316	1316	1316	1316	1311	1306	1306	1306	1306	1306	1306	1306	1306	1306	1306	1306	1306	1306	1306	1301	1301	1306	1306	1306	1306	1306	1306	1306	1306	1306	1306	1306	1306	1306	1306	1306	1306	1306	1306	1306	1306	1306	1306	1306	1306	1306	1306	1306	1306	1306	1301	1301	1301	1301	1301	1301	1301	1301	1301	1301	1301	1301	1301	1301	1301	1301	1301	1301	1301	1301	1306	1306	1306	1301	1301	1301	1301	1301	1301	1301	1301	1301	1301	1301	1301	1301	1301	1301	1301	1301	1301	1301	1301	1301	1301	1301	1301	1301	1301	1301	1301	1296	1296	1296	1291	1291	1291	1291	1291	1291	1291	1291	1291	1291	1291	1291	1291	1291	1291	1291	1291	1291	1287	1287	1287	1287	1287	1287	1287	1287	1287	1287	1287	1287	1287	1287	1287	1287	1287	1287	1287	1287	1287	1287	1282	1282	1282	1282	1282	1282	1282	1282	1282	1282	1282	1277	1277	1277	1277	1272	1272	1272	1272	1272	1277	1277	1277	1272	1272	1272	1272	1272	1272	1272	1272	1272	1272	1272	1268	1268	1268	1268	1268	1268	1268	1268	1268	1268	1268	1268	1272	1277	1277	1277	1282	1287	1287	1287	1287	1287	1287	1287	1291	1291	1291	1291	1291	1287	1287	1287	1287	1287	1282	1282	1282	1287	1282	1282	1287	1287	1287	1291	1287	1287	1287	1282	1282	1282	1282	1282	1282	1282	1282	1282	1287	1287	1287	1287	1282	1282	1282	1282	1282	1282	1282	1282	1282	1282	1282	1287	1282	1282	1282	1287	1287	1287	1282	1282	1282	1282	1282	1282	1282	1282	1282	1282	1282	1282	1282	1282	1282	1287	1282	1282	1282	1282	1282	1287	1287	1291	1291	1291	1291	1291	1291	1193	1193	1189	1189	1189	1189	1189	1185	1181	1177	1173	1173	1173	1173	1169	1169	1169	1165	1165	1165	1165	1165	0	0	0	0	0	0	0	0	0	0	0	0	0	0	0	0	0	0	0
0	0	0	0	0	0	0	0	0	0	0	0	0	0	0	0	0	0	0	0	0	0	0	0	0	0	0	0	1150	1150	1150	1150	1150	1150	1153	1150	1150	1153	1153	1153	1153	1153	1153	1153	1153	1153	1153	1153	1153	1153	1153	1153	1153	1153	1153	1153	1153	1153	1153	1153	1153	1153	1153	1157	1157	1157	1157	1157	1157	1157	1157	1157	1157	1157	1157	1157	1157	1157	1157	1157	1157	1157	1157	1157	1157	1157	1157	1157	1157	1157	1157	1157	1157	1157	1157	1161	1161	1161	1161	1161	1161	1161	1161	1161	1161	1161	1161	1161	1161	1161	1161	1161	1161	1161	1161	1161	1161	1161	1161	1161	1161	1161	1161	1161	1161	1161	1161	1161	1161	1161	1161	1161	1161	1161	1161	1161	1161	1157	1157	1157	1157	1157	1157	1153	1153	1153	1157	1157	1157	1157	1157	1157	1157	1157	1157	1157	1157	1157	1161	1161	1161	1161	1161	1161	1157	1157	1161	1161	1161	1161	1161	1161	1165	1165	1165	1169	1169	1169	1169	1169	1169	1169	1169	1169	1311	1311	1316	1321	1321	1321	1321	1321	1326	1326	1321	1321	1321	1321	1321	1321	1321	1321	1321	1326	1326	1326	1326	1326	1326	1326	1326	1326	1321	1321	1321	1321	1321	1321	1321	1321	1321	1321	1321	1321	1321	1321	1321	1321	1321	1321	1326	1326	1326	1321	1321	1316	1316	1316	1316	1311	1311	1311	1311	1311	1311	1311	1311	1311	1311	1311	1316	1316	1316	1316	1316	1316	1316	1316	1316	1316	1316	1316	1316	1316	1316	1316	1316	1316	1316	1316	1316	1316	1316	1316	1311	1311	1311	1311	1311	1311	1316	1316	1316	1316	1316	1316	1316	1316	1316	1316	1316	1316	1316	1316	1311	1311	1311	1311	1311	1311	1311	1311	1311	1311	1311	1311	1311	1311	1316	1311	1311	1316	1316	1316	1316	1316	1316	1316	1311	1306	1306	1306	1306	1306	1306	1306	1306	1306	1306	1306	1306	1306	1306	1306	1306	1306	1306	1306	1306	1306	1306	1306	1306	1306	1306	1306	1306	1306	1306	1306	1306	1306	1306	1306	1306	1306	1306	1306	1306	1306	1306	1306	1306	1306	1306	1306	1301	1301	1301	1301	1301	1301	1301	1301	1301	1301	1301	1301	1301	1306	1306	1306	1301	1301	1306	1306	1306	1301	1301	1301	1301	1301	1301	1301	1301	1301	1301	1301	1301	1301	1301	1301	1301	1301	1301	1301	1301	1301	1301	1301	1301	1301	1301	1301	1301	1301	1296	1296	1296	1296	1296	1291	1291	1291	1291	1291	1291	1291	1291	1291	1291	1291	1291	1291	1291	1291	1287	1287	1287	1287	1287	1287	1287	1287	1287	1287	1287	1287	1287	1287	1287	1287	1287	1282	1282	1287	1287	1287	1282	1282	1287	1282	1282	1282	1282	1282	1282	1282	1282	1277	1277	1277	1277	1272	1272	1272	1272	1272	1277	1277	1277	1272	1272	1272	1272	1272	1272	1272	1272	1272	1272	1272	1268	1268	1268	1268	1268	1268	1268	1268	1268	1268	1268	1268	1272	1277	1277	1277	1282	1287	1287	1287	1287	1287	1287	1287	1287	1291	1287	1287	1287	1287	1287	1287	1287	1287	1282	1282	1282	1282	1287	1287	1287	1287	1287	1287	1287	1287	1287	1282	1282	1282	1282	1282	1282	1282	1282	1282	1287	1287	1287	1287	1282	1282	1282	1282	1282	1282	1282	1282	1282	1282	1282	1282	1282	1282	1282	1282	1287	1287	1282	1282	1282	1282	1282	1282	1282	1282	1282	1282	1282	1287	1287	1282	1282	1287	1282	1282	1282	1282	1282	1287	1287	1291	1291	1291	1291	1291	1291	1193	1189	1189	1189	1189	1189	1189	1185	1181	1177	1173	1173	1173	1173	1169	1169	1169	1165	1165	1165	1165	1165	0	0	0	0	0	0	0	0	0	0	0	0	0	0	0	0	0	0	0
0	0	0	0	0	0	0	0	0	0	0	0	0	0	0	0	0	0	0	0	0	0	0	0	0	0	0	0	1153	1150	1150	1150	1150	1153	1153	1150	1150	1153	1153	1153	1153	1153	1153	1153	1153	1153	1153	1150	1150	1150	1150	1153	1153	1153	1153	1153	1153	1153	1153	1153	1153	1153	1153	1157	1157	1157	1157	1157	1157	1157	1157	1157	1157	1157	1157	1157	1157	1157	1157	1157	1157	1157	1157	1157	1157	1157	1157	1157	1157	1157	1157	1157	1157	1157	1157	1157	1161	1157	1157	1161	1161	1161	1161	1161	1161	1161	1161	1161	1161	1161	1161	1161	1161	1161	1161	1161	1161	1161	1161	1161	1161	1161	1161	1161	1161	1161	1161	1161	1161	1161	1161	1161	1161	1161	1161	1161	1161	1157	1157	1157	1157	1157	1157	1157	1153	1153	1153	1157	1157	1157	1157	1157	1157	1157	1157	1157	1157	1157	1161	1161	1161	1161	1161	1161	1157	1157	1161	1161	1161	1161	1161	1161	1165	1165	1165	1165	1169	1169	1169	1169	1169	1169	1169	1169	1311	1311	1316	1321	1321	1321	1321	1321	1326	1326	1321	1321	1321	1321	1321	1321	1321	1321	1321	1326	1326	1326	1326	1326	1326	1326	1326	1326	1321	1321	1321	1321	1321	1321	1321	1321	1321	1321	1321	1321	1321	1321	1321	1321	1321	1321	1321	1321	1321	1321	1321	1321	1316	1316	1311	1311	1311	1316	1311	1311	1311	1311	1311	1311	1316	1316	1316	1316	1321	1321	1321	1321	1316	1316	1316	1316	1316	1316	1316	1316	1316	1316	1316	1316	1316	1316	1316	1316	1316	1316	1311	1311	1311	1311	1311	1311	1316	1316	1316	1316	1316	1316	1316	1316	1316	1316	1316	1316	1316	1316	1316	1311	1311	1311	1311	1311	1311	1311	1311	1311	1311	1311	1311	1311	1316	1316	1316	1316	1316	1316	1316	1316	1316	1316	1316	1306	1306	1306	1306	1306	1306	1306	1306	1306	1306	1306	1306	1306	1306	1306	1306	1306	1306	1306	1306	1306	1306	1306	1306	1306	1306	1306	1306	1306	1306	1306	1306	1306	1306	1306	1306	1306	1306	1306	1306	1306	1306	1306	1306	1306	1306	1306	1306	1306	1301	1301	1301	1301	1301	1301	1301	1301	1301	1301	1306	1306	1306	1306	1306	1306	1306	1306	1306	1306	1301	1301	1301	1301	1301	1301	1301	1301	1301	1301	1301	1301	1301	1301	1301	1301	1301	1301	1301	1306	1306	1301	1301	1301	1301	1301	1296	1296	1296	1296	1296	1296	1296	1291	1291	1291	1291	1291	1291	1291	1291	1291	1291	1291	1291	1291	1291	1291	1291	1291	1291	1287	1287	1287	1287	1287	1287	1287	1287	1287	1287	1287	1287	1287	1287	1282	1282	1287	1287	1287	1282	1282	1282	1287	1282	1282	1282	1282	1282	1282	1282	1277	1277	1277	1277	1272	1272	1272	1272	1272	1272	1277	1272	1272	1272	1272	1272	1272	1272	1272	1272	1272	1272	1272	1268	1268	1268	1268	1268	1268	1268	1268	1268	1268	1268	1268	1272	1277	1277	1282	1282	1287	1287	1287	1287	1287	1287	1287	1287	1291	1287	1287	1287	1287	1287	1287	1287	1287	1282	1282	1282	1282	1282	1282	1282	1287	1287	1287	1287	1287	1287	1282	1282	1282	1282	1282	1282	1282	1282	1282	1287	1287	1282	1282	1282	1282	1282	1282	1282	1287	1282	1282	1282	1287	1287	1287	1287	1287	1287	1287	1287	1287	1282	1282	1282	1282	1282	1282	1282	1282	1287	1287	1287	1287	1287	1287	1287	1287	1282	1282	1282	1282	1282	1287	1287	1291	1291	1291	1291	1296	1296	1193	1189	1189	1189	1189	1189	1189	1185	1181	1177	1173	1173	1173	1173	1169	1169	1165	1165	1165	1165	1165	1165	0	0	0	0	0	0	0	0	0	0	0	0	0	0	0	0	0	0	0
0	0	0	0	0	0	0	0	0	0	0	0	0	0	0	0	0	0	0	0	0	0	0	0	0	0	0	0	1153	1150	1150	1150	1150	1153	1153	1150	1150	1153	1153	1153	1153	1150	1150	1153	1153	1153	1153	1150	1150	1150	1150	1153	1153	1153	1153	1153	1153	1153	1153	1153	1153	1153	1153	1157	1157	1157	1157	1157	1157	1157	1157	1153	1153	1157	1157	1157	1157	1157	1157	1157	1157	1157	1157	1157	1161	1161	1161	1157	1157	1157	1157	1157	1157	1157	1157	1157	1157	1157	1157	1161	1161	1161	1161	1161	1161	1161	1161	1161	1161	1161	1161	1161	1161	1161	1161	1161	1161	1161	1161	1161	1161	1161	1161	1161	1161	1161	1161	1161	1161	1161	1161	1161	1161	1161	1161	1161	1161	1161	1161	1157	1157	1157	1157	1157	1153	1153	1153	1157	1157	1157	1157	1157	1157	1161	1161	1157	1157	1157	1161	1161	1161	1161	1161	1161	1161	1161	1161	1161	1161	1161	1161	1161	1165	1165	1165	1165	1169	1169	1169	1169	1169	1169	1173	1173	1316	1316	1316	1321	1321	1321	1321	1321	1321	1326	1321	1321	1321	1321	1321	1321	1321	1321	1326	1326	1326	1326	1326	1326	1326	1326	1321	1321	1321	1321	1321	1321	1321	1321	1321	1321	1321	1321	1321	1321	1321	1321	1321	1321	1321	1321	1321	1321	1321	1321	1321	1316	1316	1316	1311	1311	1311	1316	1316	1316	1316	1316	1316	1316	1316	1316	1316	1321	1321	1321	1321	1321	1316	1316	1316	1316	1316	1316	1316	1316	1316	1321	1316	1316	1316	1316	1316	1316	1316	1316	1311	1311	1311	1311	1311	1311	1316	1316	1316	1316	1316	1316	1316	1316	1316	1316	1316	1316	1316	1316	1316	1316	1316	1311	1311	1311	1311	1311	1311	1311	1311	1311	1311	1311	1316	1316	1316	1316	1316	1316	1316	1316	1316	1316	1316	1306	1306	1306	1306	1306	1306	1306	1306	1306	1306	1306	1306	1306	1306	1306	1306	1306	1306	1306	1306	1306	1306	1306	1306	1306	1306	1306	1306	1306	1306	1306	1306	1306	1306	1306	1306	1306	1306	1306	1306	1306	1306	1306	1306	1306	1306	1306	1306	1306	1306	1306	1306	1301	1301	1306	1306	1306	1306	1306	1306	1306	1306	1306	1306	1306	1306	1301	1301	1306	1301	1301	1301	1301	1301	1301	1301	1301	1301	1301	1301	1301	1301	1301	1301	1301	1301	1301	1301	1301	1301	1301	1301	1301	1301	1301	1296	1296	1296	1296	1296	1296	1296	1296	1296	1291	1291	1291	1291	1291	1291	1296	1296	1296	1296	1296	1296	1296	1291	1291	1291	1291	1287	1287	1287	1287	1287	1287	1287	1287	1287	1287	1287	1287	1287	1287	1287	1287	1287	1287	1282	1282	1282	1287	1282	1282	1282	1282	1282	1282	1282	1277	1277	1277	1277	1272	1272	1272	1272	1272	1272	1272	1272	1272	1272	1272	1272	1272	1272	1272	1272	1272	1272	1272	1268	1268	1268	1268	1268	1268	1268	1268	1268	1272	1268	1268	1272	1277	1277	1282	1287	1287	1291	1287	1287	1291	1287	1287	1287	1291	1287	1287	1287	1287	1287	1287	1287	1287	1287	1287	1287	1287	1282	1282	1282	1287	1287	1287	1287	1287	1287	1282	1282	1282	1282	1282	1282	1282	1282	1282	1287	1287	1282	1282	1282	1282	1282	1282	1287	1287	1287	1287	1287	1287	1287	1287	1282	1282	1287	1287	1287	1287	1282	1282	1282	1282	1282	1282	1282	1282	1282	1287	1287	1287	1287	1287	1287	1287	1282	1282	1282	1282	1282	1287	1287	1291	1291	1291	1296	1296	1296	1296	1189	1189	1189	1189	1189	1189	1185	1185	1177	1173	1173	1173	1173	1169	1169	1165	1165	1165	1165	1165	1165	0	0	0	0	0	0	0	0	0	0	0	0	0	0	0	0	0	0	0
0	0	0	0	0	0	0	0	0	0	0	0	0	0	0	0	0	0	0	0	0	0	0	0	0	0	0	0	1153	1150	1150	1153	1153	1153	1153	1153	1153	1153	1153	1150	1150	1150	1150	1150	1150	1150	1150	1153	1153	1153	1153	1153	1153	1153	1153	1153	1153	1153	1153	1153	1153	1153	1153	1157	1157	1157	1157	1157	1157	1153	1153	1153	1153	1153	1157	1157	1157	1157	1157	1157	1157	1157	1157	1157	1161	1161	1161	1157	1157	1157	1157	1157	1157	1157	1157	1157	1157	1157	1157	1157	1157	1161	1161	1161	1161	1161	1161	1161	1161	1161	1161	1161	1161	1161	1161	1161	1161	1161	1161	1161	1161	1161	1161	1161	1161	1161	1161	1161	1161	1161	1161	1161	1165	1161	1161	1161	1165	1161	1161	1157	1157	1157	1157	1157	1153	1153	1157	1157	1157	1161	1161	1161	1161	1161	1161	1161	1157	1157	1161	1161	1161	1161	1161	1161	1161	1161	1161	1161	1161	1161	1161	1161	1161	1165	1165	1165	1169	1169	1169	1169	1169	1173	1173	1316	1316	1316	1321	1321	1321	1321	1321	1321	1321	1321	1321	1321	1321	1321	1321	1321	1321	1321	1321	1321	1321	1321	1321	1321	1326	1326	1321	1321	1321	1321	1321	1321	1321	1321	1321	1321	1321	1321	1321	1321	1321	1321	1321	1321	1321	1321	1321	1321	1321	1321	1321	1316	1316	1316	1311	1311	1316	1316	1316	1316	1316	1316	1316	1316	1316	1316	1316	1321	1321	1321	1321	1321	1316	1316	1316	1316	1316	1316	1316	1316	1316	1316	1316	1316	1316	1316	1316	1316	1316	1316	1311	1311	1311	1311	1311	1311	1316	1316	1316	1316	1316	1316	1316	1316	1316	1316	1316	1316	1316	1316	1316	1316	1311	1311	1311	1311	1311	1311	1311	1311	1311	1311	1311	1311	1316	1316	1316	1316	1316	1316	1316	1316	1316	1316	1316	1306	1306	1306	1306	1306	1306	1306	1306	1306	1306	1306	1306	1306	1306	1306	1306	1306	1306	1306	1306	1306	1306	1306	1306	1306	1306	1306	1306	1306	1306	1306	1306	1306	1306	1306	1306	1306	1306	1306	1306	1306	1306	1306	1306	1306	1306	1306	1306	1306	1306	1306	1306	1306	1306	1306	1306	1306	1306	1306	1306	1306	1306	1306	1306	1306	1306	1301	1301	1306	1306	1301	1301	1301	1301	1301	1301	1301	1301	1301	1301	1301	1301	1301	1301	1301	1301	1301	1301	1301	1301	1301	1301	1301	1301	1301	1296	1296	1296	1296	1296	1296	1296	1296	1296	1296	1296	1296	1296	1296	1296	1296	1296	1296	1291	1291	1296	1291	1291	1291	1291	1291	1287	1287	1287	1287	1287	1287	1287	1287	1287	1287	1287	1287	1287	1282	1282	1282	1287	1287	1287	1287	1287	1287	1287	1287	1287	1282	1282	1282	1282	1277	1277	1277	1277	1272	1272	1272	1272	1272	1272	1272	1272	1272	1272	1272	1272	1272	1272	1272	1272	1272	1272	1272	1268	1268	1268	1268	1268	1268	1268	1268	1268	1272	1268	1268	1272	1277	1277	1282	1287	1291	1291	1291	1291	1291	1291	1287	1287	1291	1287	1287	1287	1287	1287	1287	1287	1287	1287	1287	1287	1287	1287	1282	1282	1282	1282	1287	1287	1287	1287	1287	1287	1287	1282	1282	1287	1287	1287	1287	1287	1287	1287	1287	1287	1287	1282	1282	1287	1287	1287	1287	1287	1287	1287	1287	1282	1282	1287	1287	1287	1287	1282	1282	1282	1282	1282	1287	1287	1287	1287	1287	1287	1287	1287	1287	1287	1287	1282	1282	1282	1282	1282	1287	1287	1291	1291	1291	1296	1296	1296	1189	1189	1189	1189	1193	1193	1189	1185	1185	1177	1173	1173	1173	1173	1169	1169	1169	1165	1165	1165	1165	1165	0	0	0	0	0	0	0	0	0	0	0	0	0	0	0	0	0	0	0
0	0	0	0	0	0	0	0	0	0	0	0	0	0	0	0	0	0	0	0	0	0	0	0	0	0	0	0	1153	1150	1150	1150	1153	1153	1153	1153	1153	1153	1150	1150	1150	1150	1150	1150	1150	1150	1150	1150	1150	1150	1150	1150	1150	1153	1153	1153	1153	1153	1153	1153	1157	1157	1157	1157	1157	1153	1153	1157	1157	1153	1153	1153	1153	1153	1157	1157	1157	1157	1157	1157	1157	1157	1157	1157	1161	1161	1161	1157	1157	1157	1157	1157	1153	1153	1153	1157	1157	1157	1157	1157	1157	1161	1161	1161	1161	1161	1161	1161	1161	1161	1161	1161	1161	1161	1161	1161	1161	1161	1161	1161	1161	1161	1161	1161	1161	1161	1161	1161	1161	1161	1161	1161	1165	1165	1165	1165	1165	1157	1157	1157	1157	1157	1157	1157	1157	1157	1157	1157	1161	1161	1161	1161	1161	1161	1161	1161	1157	1157	1161	1161	1161	1161	1161	1161	1161	1161	1161	1161	1161	1161	1161	1161	1161	1165	1165	1165	1169	1169	1173	1173	1177	1177	1181	1181	1316	1316	1321	1321	1321	1321	1321	1321	1321	1321	1321	1321	1321	1321	1321	1321	1321	1321	1321	1321	1321	1321	1321	1326	1326	1321	1321	1321	1321	1321	1321	1321	1321	1321	1321	1321	1321	1321	1321	1321	1321	1321	1321	1321	1321	1321	1321	1321	1321	1321	1321	1316	1316	1316	1316	1316	1316	1316	1316	1316	1316	1316	1316	1316	1321	1321	1321	1321	1321	1321	1321	1321	1316	1316	1316	1316	1316	1316	1316	1316	1316	1316	1316	1316	1316	1316	1316	1316	1316	1316	1316	1311	1311	1316	1316	1316	1316	1316	1316	1316	1316	1316	1316	1316	1316	1316	1316	1316	1316	1316	1316	1316	1311	1311	1311	1311	1311	1311	1311	1311	1311	1311	1311	1311	1316	1316	1316	1316	1316	1316	1316	1316	1316	1316	1316	1306	1306	1306	1306	1306	1306	1306	1306	1306	1306	1306	1306	1306	1306	1306	1306	1306	1306	1306	1306	1306	1306	1306	1306	1306	1306	1306	1306	1306	1306	1306	1306	1306	1306	1306	1306	1306	1306	1306	1306	1306	1306	1306	1306	1306	1306	1306	1306	1306	1306	1306	1306	1306	1306	1306	1306	1306	1306	1306	1306	1306	1306	1306	1306	1306	1306	1301	1301	1306	1306	1301	1301	1301	1301	1301	1301	1301	1301	1301	1301	1301	1301	1301	1301	1301	1301	1301	1306	1301	1301	1301	1301	1301	1301	1301	1296	1296	1296	1296	1296	1296	1296	1296	1296	1296	1296	1296	1296	1296	1296	1296	1296	1296	1291	1291	1296	1291	1291	1291	1291	1291	1291	1287	1287	1287	1287	1287	1287	1287	1287	1287	1287	1287	1287	1282	1282	1282	1282	1287	1287	1287	1287	1287	1287	1287	1287	1282	1282	1282	1282	1277	1277	1277	1277	1272	1272	1272	1272	1272	1272	1272	1272	1272	1272	1272	1272	1272	1272	1272	1268	1268	1268	1268	1268	1268	1268	1268	1268	1268	1268	1268	1268	1268	1268	1268	1272	1277	1282	1287	1291	1291	1291	1291	1291	1291	1291	1291	1291	1291	1291	1291	1287	1287	1291	1287	1287	1287	1287	1287	1287	1287	1287	1282	1282	1282	1282	1287	1287	1287	1287	1287	1287	1287	1287	1287	1287	1287	1287	1287	1287	1287	1287	1287	1287	1287	1287	1287	1287	1287	1287	1287	1287	1287	1287	1287	1282	1282	1287	1287	1282	1282	1282	1282	1282	1282	1282	1282	1282	1287	1287	1287	1287	1287	1287	1287	1287	1287	1287	1282	1282	1282	1282	1287	1287	1291	1291	1291	1296	1296	1296	1189	1189	1193	1193	1193	1193	1189	1189	1185	1181	1173	1173	1173	1173	1169	1169	1169	1169	1169	1169	1169	1169	0	0	0	0	0	0	0	0	0	0	0	0	0	0	0	0	0	0	0
0	0	0	0	0	0	0	0	0	0	0	0	0	0	0	0	0	0	0	0	0	0	0	0	0	0	0	0	1153	1150	1150	1150	1153	1153	1153	1153	1153	1153	1150	1150	1146	1146	1146	1146	1146	1150	1150	1150	1150	1150	1150	1150	1150	1153	1153	1153	1153	1153	1153	1153	1157	1157	1157	1157	1157	1153	1153	1153	1153	1153	1153	1153	1153	1153	1157	1157	1157	1157	1157	1157	1157	1157	1157	1161	1161	1161	1161	1161	1157	1157	1157	1157	1153	1153	1157	1157	1157	1157	1157	1157	1157	1161	1161	1161	1161	1161	1161	1161	1161	1161	1161	1161	1161	1161	1161	1165	1165	1161	1161	1161	1161	1161	1161	1161	1161	1161	1161	1161	1161	1161	1165	1165	1165	1161	1161	1161	1165	1157	1157	1157	1157	1157	1157	1157	1157	1157	1157	1161	1161	1161	1161	1161	1161	1161	1161	1161	1161	1161	1161	1161	1161	1161	1161	1161	1161	1161	1161	1161	1161	1161	1161	1161	1161	1165	1165	1165	1169	1169	1173	1173	1177	1177	1181	1181	1181	1321	1321	1321	1321	1321	1321	1321	1321	1326	1321	1321	1321	1321	1321	1321	1321	1321	1321	1321	1321	1321	1321	1326	1326	1321	1321	1321	1321	1321	1321	1321	1321	1321	1321	1321	1321	1321	1321	1321	1321	1321	1321	1321	1316	1316	1321	1321	1316	1316	1316	1321	1316	1316	1316	1316	1316	1316	1316	1316	1316	1316	1316	1316	1321	1321	1321	1321	1321	1321	1321	1321	1316	1316	1316	1316	1316	1316	1316	1316	1316	1321	1316	1316	1316	1316	1316	1316	1316	1316	1316	1316	1316	1316	1316	1316	1316	1316	1316	1316	1316	1316	1316	1316	1316	1316	1316	1316	1316	1316	1316	1316	1316	1316	1316	1311	1311	1311	1311	1311	1311	1311	1311	1311	1316	1316	1316	1316	1316	1321	1316	1316	1316	1316	1316	1306	1306	1306	1311	1306	1306	1306	1306	1306	1306	1306	1306	1306	1306	1306	1306	1306	1306	1306	1306	1306	1306	1306	1306	1306	1306	1306	1306	1306	1306	1306	1306	1306	1306	1306	1306	1306	1306	1306	1306	1306	1306	1306	1306	1306	1306	1306	1306	1306	1306	1306	1306	1306	1306	1306	1306	1306	1306	1306	1306	1306	1306	1306	1306	1306	1306	1306	1306	1306	1306	1306	1306	1301	1301	1301	1301	1301	1301	1301	1301	1301	1301	1301	1301	1301	1301	1301	1306	1301	1301	1301	1301	1301	1301	1301	1301	1301	1296	1296	1296	1296	1296	1296	1296	1296	1296	1296	1296	1296	1296	1296	1296	1296	1296	1296	1296	1296	1291	1291	1291	1291	1291	1287	1287	1287	1287	1287	1287	1287	1287	1287	1287	1287	1287	1282	1282	1282	1282	1287	1287	1287	1287	1287	1287	1282	1282	1282	1282	1282	1282	1277	1277	1277	1277	1272	1272	1272	1272	1272	1272	1272	1272	1272	1272	1272	1272	1272	1272	1272	1268	1268	1268	1268	1268	1268	1268	1268	1268	1268	1268	1268	1268	1268	1268	1268	1268	1277	1282	1287	1291	1291	1291	1291	1291	1291	1291	1291	1291	1291	1291	1291	1291	1291	1291	1291	1287	1287	1287	1291	1287	1287	1287	1282	1282	1287	1287	1287	1287	1282	1282	1287	1287	1287	1287	1287	1287	1287	1287	1287	1287	1287	1287	1287	1287	1287	1287	1287	1287	1287	1287	1287	1287	1287	1287	1287	1282	1282	1282	1287	1282	1282	1282	1282	1282	1282	1282	1282	1282	1282	1287	1287	1287	1287	1287	1287	1291	1291	1291	1291	1287	1287	1291	1291	1291	1291	1291	1291	1291	1291	1189	1189	1189	1193	1193	1193	1193	1189	1189	1181	1177	1173	1169	1169	1173	1169	1169	1169	1169	1173	1169	1169	1169	0	0	0	0	0	0	0	0	0	0	0	0	0	0	0	0	0	0	0
0	0	0	0	0	0	0	0	0	0	0	0	0	0	0	0	0	0	0	0	0	0	0	0	0	0	0	0	1153	1150	1150	1150	1150	1150	1150	1153	1150	1150	1150	1150	1146	1146	1146	1146	1146	1150	1150	1150	1150	1150	1150	1150	1150	1153	1153	1153	1153	1153	1153	1153	1157	1157	1157	1153	1153	1153	1153	1153	1153	1153	1153	1153	1153	1153	1153	1157	1157	1157	1157	1157	1157	1157	1157	1161	1161	1161	1161	1161	1161	1157	1157	1157	1157	1157	1157	1157	1157	1157	1157	1157	1157	1157	1157	1157	1161	1161	1161	1161	1161	1161	1161	1161	1161	1161	1161	1165	1165	1161	1161	1161	1161	1161	1161	1161	1161	1161	1161	1161	1161	1165	1165	1165	1165	1161	1161	1161	1161	1157	1157	1157	1157	1157	1157	1157	1157	1157	1161	1161	1161	1161	1161	1161	1161	1161	1161	1161	1161	1161	1161	1161	1161	1161	1161	1161	1161	1161	1161	1161	1161	1161	1161	1161	1165	1165	1165	1165	1165	1169	1173	1173	1177	1177	1185	1185	1321	1321	1321	1321	1321	1321	1321	1321	1321	1321	1321	1321	1321	1321	1321	1321	1321	1321	1321	1326	1326	1326	1321	1321	1321	1321	1321	1321	1321	1321	1321	1321	1321	1321	1321	1321	1321	1321	1321	1321	1321	1321	1321	1316	1316	1316	1316	1316	1316	1316	1316	1321	1316	1316	1316	1316	1316	1316	1316	1316	1316	1316	1316	1316	1321	1321	1321	1321	1321	1321	1321	1321	1316	1316	1316	1316	1316	1316	1316	1316	1316	1316	1316	1316	1316	1316	1316	1316	1321	1321	1321	1316	1316	1316	1316	1316	1316	1316	1316	1316	1311	1311	1316	1316	1316	1316	1316	1316	1316	1316	1316	1316	1316	1316	1316	1311	1311	1311	1311	1311	1311	1311	1311	1311	1316	1316	1316	1316	1316	1316	1316	1316	1316	1316	1316	1306	1306	1306	1306	1306	1306	1306	1306	1306	1306	1306	1306	1306	1306	1306	1306	1306	1306	1306	1306	1306	1306	1306	1306	1306	1306	1306	1306	1306	1306	1306	1306	1306	1306	1306	1306	1306	1306	1306	1306	1306	1306	1306	1306	1306	1306	1306	1306	1306	1306	1306	1306	1306	1306	1306	1306	1306	1306	1306	1306	1306	1306	1306	1306	1306	1306	1306	1306	1306	1306	1306	1306	1301	1301	1301	1301	1301	1301	1301	1301	1301	1301	1301	1306	1301	1301	1301	1306	1301	1301	1301	1301	1301	1301	1301	1301	1301	1296	1296	1296	1296	1296	1296	1296	1296	1296	1296	1296	1296	1296	1296	1296	1296	1296	1296	1296	1296	1296	1291	1291	1291	1291	1287	1287	1287	1287	1287	1287	1287	1287	1287	1287	1287	1287	1282	1282	1282	1282	1287	1287	1287	1287	1282	1282	1282	1282	1282	1282	1282	1282	1277	1277	1277	1277	1272	1272	1272	1272	1272	1272	1272	1272	1272	1272	1272	1272	1277	1272	1272	1272	1272	1268	1268	1268	1268	1268	1268	1268	1268	1268	1268	1268	1268	1268	1268	1272	1282	1282	1287	1287	1291	1291	1291	1291	1291	1291	1291	1291	1291	1291	1291	1291	1291	1291	1291	1287	1287	1291	1291	1291	1287	1287	1287	1287	1287	1287	1287	1287	1282	1282	1287	1287	1287	1287	1287	1291	1291	1287	1287	1287	1287	1287	1287	1287	1287	1287	1287	1287	1287	1287	1287	1287	1287	1287	1287	1287	1282	1282	1287	1282	1282	1282	1282	1282	1282	1282	1282	1282	1282	1287	1287	1287	1287	1287	1287	1291	1291	1291	1291	1287	1287	1291	1291	1291	1291	1291	1291	1291	1291	1189	1189	1189	1189	1193	1193	1193	1193	1185	1177	1177	1169	1169	1169	1173	1169	1169	1169	1169	1173	1173	1173	1173	0	0	0	0	0	0	0	0	0	0	0	0	0	0	0	0	0	0	0
0	0	0	0	0	0	0	0	0	0	0	0	0	0	0	0	0	0	0	0	0	0	0	0	0	0	0	0	1150	1150	1150	1150	1150	1150	1150	1150	1150	1150	1146	1146	1146	1146	1146	1146	1146	1150	1150	1150	1150	1150	1150	1150	1150	1153	1153	1153	1153	1153	1157	1157	1157	1157	1153	1153	1153	1153	1153	1153	1153	1153	1153	1153	1153	1153	1153	1157	1157	1157	1157	1157	1157	1157	1161	1161	1161	1161	1161	1161	1161	1157	1157	1157	1157	1157	1157	1157	1157	1157	1157	1157	1157	1157	1157	1157	1161	1161	1161	1161	1161	1161	1165	1161	1161	1161	1161	1165	1161	1161	1161	1161	1161	1161	1161	1161	1161	1161	1161	1161	1161	1165	1165	1165	1165	1161	1161	1165	1161	1157	1157	1157	1157	1157	1157	1157	1157	1161	1161	1161	1161	1161	1161	1161	1161	1161	1161	1161	1161	1161	1161	1161	1161	1161	1161	1161	1161	1161	1161	1161	1161	1161	1161	1161	1161	1165	1165	1165	1169	1173	1173	1177	1177	1181	1185	1185	1321	1321	1321	1321	1321	1321	1321	1321	1321	1321	1321	1321	1321	1321	1326	1321	1321	1321	1321	1326	1326	1326	1321	1321	1321	1321	1321	1321	1321	1321	1321	1321	1321	1321	1321	1321	1321	1321	1321	1321	1321	1321	1321	1316	1316	1316	1316	1316	1316	1316	1316	1316	1316	1316	1316	1316	1316	1316	1316	1316	1316	1321	1316	1316	1321	1321	1321	1321	1321	1321	1321	1321	1321	1316	1316	1321	1321	1321	1321	1316	1316	1316	1316	1316	1316	1316	1316	1316	1321	1321	1321	1316	1316	1316	1316	1316	1316	1316	1316	1316	1311	1311	1316	1316	1316	1316	1311	1311	1316	1316	1316	1316	1316	1316	1316	1311	1311	1311	1311	1311	1311	1311	1311	1311	1316	1316	1316	1316	1316	1316	1316	1316	1316	1316	1316	1306	1306	1306	1306	1306	1306	1306	1306	1306	1306	1306	1306	1306	1306	1306	1306	1306	1306	1306	1306	1306	1306	1306	1306	1306	1306	1306	1306	1306	1306	1306	1306	1306	1306	1306	1306	1306	1306	1306	1306	1306	1306	1306	1306	1306	1306	1306	1306	1306	1306	1306	1306	1306	1306	1306	1306	1306	1306	1306	1306	1306	1306	1306	1306	1306	1306	1306	1306	1306	1306	1306	1306	1306	1306	1301	1301	1301	1301	1301	1301	1301	1301	1301	1306	1301	1301	1301	1306	1301	1301	1301	1301	1301	1301	1301	1301	1301	1296	1296	1296	1296	1296	1296	1296	1296	1296	1296	1296	1296	1296	1296	1296	1296	1296	1296	1296	1296	1296	1291	1291	1291	1291	1287	1287	1287	1287	1287	1287	1287	1287	1287	1287	1287	1287	1282	1282	1282	1282	1287	1287	1282	1282	1282	1282	1282	1282	1282	1282	1282	1282	1277	1277	1277	1277	1272	1272	1272	1277	1277	1277	1272	1272	1272	1272	1277	1277	1277	1272	1268	1268	1268	1268	1268	1268	1268	1268	1268	1268	1268	1268	1268	1268	1268	1268	1268	1272	1282	1282	1287	1291	1291	1291	1291	1291	1291	1291	1291	1291	1291	1291	1291	1291	1291	1291	1291	1287	1287	1291	1291	1287	1287	1287	1287	1287	1282	1282	1287	1287	1287	1287	1287	1287	1287	1287	1287	1291	1291	1287	1287	1287	1287	1287	1287	1287	1287	1287	1287	1287	1287	1287	1287	1287	1287	1287	1287	1287	1287	1287	1282	1282	1282	1282	1282	1282	1282	1282	1282	1282	1287	1287	1287	1287	1291	1291	1291	1291	1291	1291	1291	1291	1291	1291	1291	1291	1291	1291	1296	1291	1291	1202	1197	1197	1202	1202	1202	1193	1193	1185	1177	1177	1169	1169	1169	1173	1173	1173	1173	1173	1173	1173	1173	1173	0	0	0	0	0	0	0	0	0	0	0	0	0	0	0	0	0	0	0
0	0	0	0	0	0	0	0	0	0	0	0	0	0	0	0	0	0	0	0	0	0	0	0	0	0	0	0	1150	1150	1150	1150	1150	1150	1150	1150	1150	1150	1146	1146	1146	1146	1146	1146	1150	1150	1150	1150	1150	1150	1150	1150	1150	1153	1153	1153	1157	1157	1157	1157	1157	1157	1153	1153	1153	1153	1153	1153	1153	1153	1153	1153	1153	1153	1153	1157	1157	1157	1157	1157	1157	1157	1161	1157	1157	1161	1161	1161	1157	1157	1157	1157	1157	1157	1157	1157	1157	1157	1157	1157	1157	1157	1157	1157	1161	1161	1161	1161	1161	1161	1165	1161	1161	1161	1161	1161	1161	1161	1161	1161	1161	1161	1161	1161	1161	1161	1161	1161	1165	1165	1165	1165	1165	1161	1161	1165	1161	1157	1157	1157	1157	1157	1157	1157	1157	1161	1161	1161	1161	1165	1161	1161	1161	1161	1161	1161	1161	1161	1161	1161	1161	1161	1161	1161	1161	1165	1161	1161	1161	1161	1161	1165	1165	1165	1165	1165	1169	1173	1173	1177	1177	1181	1181	1185	1321	1326	1321	1321	1321	1321	1321	1321	1321	1321	1321	1321	1321	1321	1326	1321	1321	1321	1321	1326	1326	1326	1321	1321	1321	1321	1321	1321	1321	1321	1321	1321	1321	1321	1321	1321	1321	1321	1321	1321	1321	1321	1321	1321	1321	1321	1316	1316	1316	1316	1316	1316	1316	1316	1316	1321	1316	1316	1316	1316	1316	1321	1321	1321	1321	1321	1321	1321	1321	1321	1321	1321	1316	1316	1316	1316	1321	1321	1321	1316	1316	1316	1316	1316	1316	1316	1316	1316	1321	1321	1321	1321	1321	1321	1321	1321	1316	1316	1316	1316	1311	1311	1316	1316	1316	1316	1311	1311	1316	1316	1316	1316	1316	1316	1316	1316	1311	1311	1311	1311	1311	1311	1311	1311	1316	1316	1316	1316	1316	1316	1311	1311	1311	1316	1316	1311	1306	1311	1311	1311	1311	1311	1311	1311	1306	1306	1306	1306	1306	1306	1306	1306	1306	1306	1306	1306	1306	1306	1306	1306	1306	1306	1306	1306	1306	1306	1306	1306	1306	1306	1306	1306	1306	1306	1306	1306	1306	1306	1306	1306	1306	1306	1306	1306	1306	1306	1306	1306	1306	1306	1306	1306	1306	1306	1306	1306	1306	1306	1306	1306	1306	1306	1306	1306	1306	1306	1306	1306	1306	1301	1301	1301	1301	1301	1301	1301	1301	1306	1306	1301	1301	1301	1306	1301	1301	1301	1301	1301	1301	1301	1301	1301	1296	1296	1296	1296	1296	1296	1296	1296	1296	1296	1296	1296	1296	1296	1296	1296	1296	1296	1296	1296	1296	1291	1291	1291	1291	1287	1287	1287	1287	1287	1287	1287	1287	1287	1287	1287	1287	1282	1282	1282	1282	1287	1287	1282	1282	1282	1282	1282	1282	1282	1282	1282	1282	1277	1277	1277	1277	1277	1272	1272	1277	1277	1277	1277	1277	1277	1277	1277	1277	1277	1272	1268	1268	1268	1268	1268	1268	1268	1268	1268	1268	1268	1268	1268	1268	1268	1268	1268	1272	1277	1282	1287	1291	1291	1291	1291	1291	1291	1291	1291	1291	1291	1291	1291	1291	1291	1291	1291	1291	1291	1291	1291	1287	1287	1287	1287	1287	1282	1282	1287	1287	1287	1287	1287	1287	1287	1287	1287	1287	1287	1287	1287	1287	1287	1287	1287	1287	1287	1287	1287	1287	1287	1287	1287	1291	1287	1287	1287	1287	1287	1287	1282	1282	1282	1282	1282	1282	1282	1282	1282	1282	1287	1287	1287	1287	1291	1291	1291	1291	1291	1291	1291	1291	1291	1291	1291	1291	1291	1291	1291	1291	1291	1202	1202	1202	1202	1202	1202	1197	1193	1181	1177	1177	1177	1169	1169	1173	1173	1173	1173	1173	1177	1177	1177	1177	0	0	0	0	0	0	0	0	0	0	0	0	0	0	0	0	0	0	0
0	0	0	0	0	0	0	0	0	0	0	0	0	0	0	0	0	0	0	0	0	0	0	0	0	0	0	0	1150	1150	1150	1150	1150	1150	1150	1150	1150	1150	1150	1146	1146	1146	1146	1150	1150	1150	1150	1150	1150	1150	1150	1150	1153	1153	1153	1153	1157	1157	1157	1157	1157	1157	1153	1153	1153	1153	1153	1153	1153	1153	1153	1153	1153	1153	1153	1157	1157	1157	1157	1157	1157	1157	1161	1157	1157	1161	1161	1157	1157	1157	1157	1157	1157	1157	1157	1157	1157	1157	1157	1157	1157	1157	1161	1161	1161	1161	1161	1161	1161	1161	1161	1161	1161	1161	1161	1161	1165	1161	1161	1161	1161	1161	1161	1161	1161	1161	1161	1161	1165	1165	1165	1161	1161	1161	1161	1161	1161	1153	1153	1157	1157	1157	1157	1157	1157	1161	1161	1161	1161	1165	1161	1161	1161	1161	1161	1161	1161	1161	1161	1165	1161	1161	1161	1161	1161	1161	1161	1161	1161	1161	1161	1165	1165	1165	1165	1169	1169	1173	1173	1177	1177	1181	1181	1185	1326	1326	1321	1321	1326	1321	1321	1321	1321	1321	1321	1321	1321	1321	1326	1321	1321	1321	1321	1326	1326	1326	1321	1321	1321	1321	1321	1321	1321	1321	1321	1321	1321	1321	1321	1321	1326	1321	1321	1321	1321	1321	1321	1321	1321	1321	1316	1316	1316	1316	1316	1316	1316	1316	1316	1321	1316	1316	1316	1316	1316	1316	1316	1316	1321	1321	1321	1321	1321	1321	1321	1321	1316	1316	1316	1316	1321	1321	1321	1316	1316	1316	1316	1316	1316	1316	1316	1316	1321	1321	1321	1321	1321	1321	1321	1321	1321	1316	1316	1316	1311	1311	1316	1316	1316	1316	1311	1311	1316	1316	1316	1316	1316	1316	1316	1316	1311	1311	1311	1311	1311	1311	1311	1311	1316	1316	1316	1316	1316	1316	1311	1311	1311	1316	1316	1311	1311	1311	1311	1311	1311	1311	1311	1311	1311	1306	1306	1306	1306	1306	1306	1306	1306	1306	1306	1306	1306	1306	1306	1306	1306	1306	1306	1306	1306	1306	1306	1306	1306	1306	1306	1306	1306	1306	1306	1306	1306	1306	1306	1306	1306	1306	1306	1306	1306	1306	1306	1306	1306	1306	1306	1306	1306	1306	1306	1306	1306	1306	1306	1306	1306	1306	1306	1306	1306	1306	1306	1306	1306	1301	1301	1301	1301	1301	1301	1306	1306	1306	1306	1306	1306	1306	1306	1301	1301	1301	1301	1301	1301	1301	1301	1301	1296	1296	1296	1296	1296	1296	1296	1296	1296	1296	1296	1296	1296	1296	1296	1296	1291	1291	1291	1291	1291	1291	1291	1291	1291	1287	1287	1287	1287	1287	1287	1287	1287	1287	1287	1287	1287	1282	1282	1282	1282	1287	1287	1287	1287	1282	1282	1282	1282	1282	1282	1282	1282	1277	1277	1277	1277	1277	1277	1277	1277	1277	1277	1277	1277	1277	1277	1277	1277	1272	1272	1268	1268	1268	1268	1268	1268	1268	1268	1268	1268	1268	1268	1268	1268	1268	1268	1268	1272	1277	1282	1287	1287	1291	1291	1291	1291	1291	1291	1291	1291	1291	1291	1291	1291	1296	1291	1291	1291	1291	1291	1291	1291	1291	1291	1287	1287	1287	1287	1287	1287	1287	1287	1287	1287	1287	1287	1287	1287	1287	1287	1287	1287	1287	1287	1287	1282	1282	1287	1287	1287	1287	1287	1287	1291	1287	1287	1287	1287	1287	1287	1282	1282	1282	1282	1282	1282	1282	1287	1287	1287	1287	1291	1291	1291	1291	1291	1291	1291	1291	1291	1291	1291	1291	1291	1291	1291	1291	1291	1291	1291	1291	1206	1202	1202	1206	1202	1202	1197	1185	1181	1177	1177	1173	1173	1173	1173	1173	1173	1173	1173	1173	1177	1177	1177	0	0	0	0	0	0	0	0	0	0	0	0	0	0	0	0	0	0	0
0	0	0	0	0	0	0	0	0	0	0	0	0	0	0	0	0	0	0	0	0	0	0	0	0	0	0	0	1150	1150	1150	1150	1150	1150	1150	1150	1150	1150	1150	1146	1146	1146	1150	1150	1150	1150	1150	1150	1150	1150	1150	1153	1153	1153	1153	1157	1157	1157	1157	1157	1157	1157	1153	1153	1153	1153	1153	1153	1153	1153	1153	1153	1153	1153	1157	1157	1157	1157	1157	1157	1157	1157	1161	1157	1157	1161	1161	1157	1157	1157	1157	1157	1157	1157	1157	1157	1157	1157	1157	1157	1157	1157	1157	1157	1161	1161	1161	1161	1161	1161	1161	1161	1161	1161	1161	1161	1161	1161	1161	1161	1161	1161	1161	1157	1157	1161	1161	1161	1161	1165	1165	1161	1161	1161	1161	1161	1161	1153	1153	1157	1153	1153	1153	1157	1157	1157	1161	1161	1161	1161	1161	1161	1161	1161	1161	1161	1161	1161	1161	1165	1161	1161	1161	1161	1161	1161	1161	1161	1161	1161	1161	1165	1165	1165	1165	1169	1169	1169	1173	1173	1177	1177	1181	1185	1326	1326	1326	1326	1326	1326	1321	1321	1321	1326	1321	1321	1321	1326	1326	1321	1321	1321	1321	1326	1326	1326	1321	1321	1321	1321	1321	1321	1321	1321	1321	1321	1321	1321	1321	1321	1326	1321	1321	1321	1321	1321	1321	1321	1321	1321	1321	1321	1321	1321	1316	1321	1321	1321	1321	1321	1316	1316	1316	1316	1316	1316	1316	1316	1321	1321	1321	1321	1321	1321	1321	1316	1316	1316	1316	1316	1321	1321	1321	1316	1316	1316	1316	1316	1316	1316	1316	1316	1321	1321	1321	1321	1321	1321	1321	1321	1321	1321	1316	1316	1316	1316	1316	1316	1316	1316	1311	1311	1316	1316	1316	1311	1311	1311	1316	1316	1316	1316	1316	1316	1316	1316	1316	1316	1316	1316	1316	1311	1311	1311	1311	1311	1311	1311	1316	1311	1311	1311	1311	1311	1311	1311	1311	1311	1311	1306	1306	1306	1306	1306	1306	1306	1306	1306	1306	1306	1306	1306	1306	1306	1306	1306	1306	1306	1306	1306	1306	1306	1306	1306	1306	1306	1306	1306	1306	1306	1306	1306	1306	1306	1306	1306	1306	1306	1306	1306	1306	1306	1306	1306	1306	1306	1306	1306	1306	1306	1306	1306	1306	1306	1306	1306	1306	1306	1306	1306	1306	1306	1306	1301	1301	1306	1306	1306	1306	1306	1306	1306	1306	1306	1306	1306	1306	1301	1301	1301	1301	1301	1301	1301	1301	1301	1296	1296	1296	1296	1296	1296	1296	1296	1296	1296	1296	1296	1296	1291	1291	1296	1291	1291	1291	1291	1291	1291	1291	1291	1291	1287	1287	1287	1287	1287	1287	1287	1287	1282	1282	1282	1282	1282	1282	1282	1282	1287	1282	1282	1282	1282	1282	1282	1282	1282	1282	1282	1282	1282	1282	1282	1277	1277	1277	1277	1277	1277	1277	1277	1277	1277	1277	1277	1277	1272	1272	1268	1268	1268	1268	1268	1268	1268	1268	1268	1268	1268	1268	1268	1268	1268	1268	1268	1268	1277	1277	1282	1287	1291	1291	1287	1287	1291	1291	1291	1291	1291	1291	1291	1291	1291	1291	1291	1291	1291	1291	1291	1291	1291	1291	1287	1287	1287	1291	1291	1291	1291	1291	1291	1291	1287	1287	1291	1291	1287	1287	1287	1287	1287	1287	1282	1282	1282	1282	1287	1287	1287	1287	1291	1291	1291	1287	1287	1287	1287	1287	1287	1287	1287	1287	1282	1282	1282	1287	1287	1287	1287	1291	1291	1291	1291	1291	1291	1296	1296	1296	1296	1291	1291	1291	1291	1291	1291	1291	1291	1291	1291	1206	1206	1206	1206	1202	1202	1197	1181	1177	1173	1173	1173	1173	1173	1173	1173	1173	1173	1173	1177	1177	1177	1177	0	0	0	0	0	0	0	0	0	0	0	0	0	0	0	0	0	0	0
0	0	0	0	0	0	0	0	0	0	0	0	0	0	0	0	0	0	0	0	0	0	0	0	0	0	0	0	1150	1150	1150	1150	1150	1150	1150	1150	1150	1150	1150	1150	1150	1150	1150	1150	1150	1150	1150	1150	1150	1150	1150	1150	1153	1153	1153	1157	1157	1157	1157	1153	1153	1153	1153	1153	1153	1153	1153	1153	1153	1153	1153	1153	1153	1153	1157	1157	1157	1157	1157	1157	1157	1157	1157	1157	1157	1157	1157	1157	1157	1157	1157	1157	1157	1157	1157	1157	1157	1157	1157	1157	1157	1157	1157	1157	1161	1161	1161	1161	1161	1161	1161	1161	1161	1161	1161	1161	1161	1161	1161	1161	1161	1161	1161	1157	1157	1161	1161	1161	1161	1165	1165	1161	1161	1161	1161	1161	1161	1153	1153	1153	1153	1153	1153	1157	1157	1161	1161	1161	1161	1161	1161	1161	1161	1161	1161	1161	1161	1161	1161	1165	1161	1161	1161	1161	1161	1161	1161	1161	1161	1161	1161	1165	1165	1165	1165	1169	1169	1169	1173	1173	1177	1177	1181	1185	1326	1326	1326	1326	1326	1326	1321	1321	1326	1326	1326	1326	1326	1326	1326	1326	1326	1326	1326	1326	1326	1326	1326	1326	1321	1321	1321	1321	1321	1321	1321	1321	1321	1321	1321	1321	1326	1321	1326	1321	1321	1321	1321	1321	1321	1321	1321	1321	1321	1321	1316	1321	1321	1321	1321	1321	1316	1316	1316	1316	1316	1316	1316	1316	1321	1321	1321	1321	1321	1321	1321	1316	1316	1316	1316	1316	1321	1321	1321	1316	1316	1316	1316	1316	1316	1316	1316	1316	1316	1316	1316	1321	1321	1321	1321	1321	1321	1321	1316	1316	1316	1316	1316	1316	1316	1316	1316	1316	1316	1316	1316	1316	1316	1316	1321	1321	1316	1316	1316	1316	1316	1316	1316	1316	1316	1316	1316	1311	1311	1311	1311	1311	1311	1316	1316	1311	1311	1311	1311	1311	1311	1311	1311	1311	1311	1306	1306	1306	1306	1306	1306	1306	1306	1306	1306	1306	1306	1306	1306	1306	1306	1306	1306	1306	1306	1306	1306	1306	1311	1311	1311	1311	1311	1306	1306	1306	1306	1306	1306	1306	1306	1306	1306	1306	1306	1306	1306	1306	1306	1306	1306	1306	1306	1306	1306	1306	1306	1306	1306	1306	1306	1306	1306	1306	1306	1306	1306	1306	1306	1301	1301	1306	1306	1306	1306	1306	1306	1306	1306	1306	1306	1306	1306	1306	1301	1301	1301	1301	1301	1301	1301	1301	1296	1296	1296	1296	1291	1291	1296	1296	1296	1296	1296	1296	1296	1291	1291	1296	1291	1291	1291	1291	1291	1291	1291	1291	1291	1287	1287	1287	1287	1287	1287	1287	1287	1282	1282	1282	1282	1282	1282	1282	1282	1287	1282	1282	1282	1282	1282	1282	1282	1282	1282	1282	1282	1282	1282	1282	1282	1277	1277	1277	1277	1277	1277	1277	1277	1277	1277	1277	1277	1272	1272	1272	1268	1268	1268	1268	1268	1268	1268	1268	1268	1268	1268	1268	1268	1268	1268	1268	1268	1277	1277	1282	1282	1287	1291	1287	1287	1291	1291	1291	1291	1291	1291	1291	1291	1291	1291	1291	1291	1291	1291	1291	1291	1291	1291	1291	1291	1291	1291	1291	1291	1291	1291	1291	1287	1287	1287	1287	1291	1287	1287	1287	1287	1287	1287	1282	1282	1282	1282	1287	1287	1287	1287	1291	1291	1291	1291	1287	1287	1287	1287	1287	1287	1287	1287	1287	1287	1287	1287	1287	1287	1287	1291	1291	1291	1291	1296	1296	1296	1296	1296	1296	1291	1291	1291	1291	1291	1291	1291	1291	1291	1291	1291	1206	1206	1206	1202	1202	1197	1181	1177	1173	1173	1173	1173	1173	1173	1173	1173	1173	1173	1177	1177	1177	1177	0	0	0	0	0	0	0	0	0	0	0	0	0	0	0	0	0	0	0
0	0	0	0	0	0	0	0	0	0	0	0	0	0	0	0	0	0	0	0	0	0	0	0	0	0	0	0	1150	1150	1150	1150	1150	1150	1150	1150	1150	1150	1150	1150	1150	1150	1150	1150	1150	1150	1150	1150	1150	1150	1150	1150	1153	1153	1153	1153	1157	1157	1153	1153	1153	1153	1153	1153	1153	1153	1153	1153	1153	1153	1153	1153	1153	1153	1157	1157	1157	1157	1157	1157	1157	1157	1157	1157	1157	1157	1157	1157	1157	1157	1157	1157	1157	1157	1157	1157	1157	1157	1157	1157	1157	1157	1161	1161	1161	1161	1161	1161	1161	1161	1161	1161	1161	1161	1161	1161	1161	1161	1161	1161	1161	1161	1161	1161	1161	1161	1161	1161	1161	1161	1161	1161	1161	1161	1161	1161	1161	1157	1157	1157	1157	1157	1157	1157	1161	1161	1161	1161	1161	1161	1161	1161	1161	1161	1161	1161	1157	1157	1161	1161	1161	1161	1161	1161	1161	1161	1161	1161	1161	1161	1165	1165	1165	1165	1169	1169	1169	1169	1173	1173	1177	1177	1177	1326	1326	1326	1326	1326	1326	1326	1326	1326	1326	1326	1326	1326	1326	1326	1326	1321	1321	1326	1326	1326	1326	1326	1326	1326	1321	1321	1321	1321	1321	1321	1321	1321	1321	1321	1321	1321	1321	1321	1321	1321	1321	1321	1321	1321	1321	1321	1321	1321	1321	1321	1321	1321	1321	1321	1321	1321	1316	1316	1316	1316	1316	1316	1316	1316	1321	1321	1321	1321	1321	1321	1321	1321	1316	1316	1321	1316	1316	1316	1316	1316	1316	1316	1316	1316	1316	1316	1316	1316	1316	1316	1316	1316	1321	1321	1321	1321	1326	1321	1321	1321	1321	1321	1316	1316	1316	1316	1316	1316	1316	1316	1316	1316	1316	1316	1321	1321	1321	1321	1321	1321	1321	1321	1316	1316	1316	1316	1316	1316	1316	1316	1311	1311	1311	1316	1316	1311	1311	1311	1311	1311	1311	1311	1311	1311	1311	1311	1311	1311	1311	1311	1306	1306	1306	1306	1306	1306	1306	1306	1306	1306	1306	1306	1306	1306	1306	1311	1306	1306	1311	1311	1311	1311	1311	1306	1306	1306	1306	1306	1306	1306	1306	1306	1306	1306	1306	1306	1306	1306	1306	1306	1306	1306	1306	1306	1306	1306	1306	1306	1306	1306	1306	1306	1306	1306	1306	1306	1306	1306	1306	1306	1306	1306	1306	1306	1306	1306	1306	1306	1306	1306	1306	1306	1306	1306	1306	1306	1306	1301	1301	1301	1301	1301	1296	1296	1296	1296	1291	1291	1296	1296	1296	1296	1296	1296	1296	1291	1291	1291	1296	1296	1291	1291	1291	1291	1291	1291	1287	1287	1287	1287	1287	1287	1287	1287	1287	1287	1287	1287	1287	1282	1282	1282	1282	1287	1282	1282	1282	1282	1282	1282	1282	1282	1282	1282	1282	1282	1282	1282	1282	1277	1277	1277	1277	1277	1277	1277	1277	1277	1277	1277	1277	1277	1272	1272	1268	1268	1268	1268	1268	1268	1268	1268	1268	1268	1268	1268	1268	1268	1263	1263	1268	1272	1277	1277	1282	1282	1291	1291	1291	1291	1291	1291	1291	1291	1291	1291	1291	1291	1296	1291	1291	1291	1291	1291	1291	1291	1291	1291	1291	1291	1291	1291	1291	1291	1291	1291	1287	1287	1287	1287	1287	1287	1287	1287	1287	1287	1287	1282	1282	1282	1287	1287	1287	1291	1291	1291	1291	1291	1291	1287	1287	1287	1287	1287	1287	1287	1287	1287	1287	1287	1287	1287	1287	1291	1291	1291	1291	1296	1296	1296	1296	1296	1296	1296	1291	1291	1291	1291	1291	1291	1291	1291	1291	1291	1291	1206	1206	1202	1197	1197	1193	1181	1181	1177	1173	1173	1173	1173	1173	1173	1173	1173	1173	1177	1177	1177	1177	0	0	0	0	0	0	0	0	0	0	0	0	0	0	0	0	0	0	0
0	0	0	0	0	0	0	0	0	0	0	0	0	0	0	0	0	0	0	0	0	0	0	0	0	0	0	0	1150	1150	1150	1150	1150	1150	1150	1150	1150	1150	1150	1150	1150	1150	1153	1153	1150	1150	1150	1153	1153	1150	1150	1153	1153	1153	1153	1157	1157	1157	1153	1153	1153	1153	1153	1153	1153	1153	1153	1153	1153	1153	1153	1153	1153	1153	1157	1157	1157	1157	1157	1157	1157	1157	1157	1157	1157	1157	1157	1157	1157	1157	1157	1157	1157	1157	1157	1157	1157	1157	1157	1161	1157	1157	1161	1161	1157	1157	1161	1161	1161	1161	1161	1161	1161	1161	1161	1161	1161	1161	1161	1161	1161	1161	1161	1157	1157	1161	1161	1161	1161	1161	1161	1161	1161	1161	1161	1161	1161	1157	1157	1157	1157	1157	1157	1157	1161	1161	1161	1161	1165	1161	1161	1161	1161	1161	1161	1161	1157	1157	1161	1161	1161	1161	1161	1161	1161	1157	1157	1157	1161	1161	1165	1165	1165	1165	1165	1165	1169	1169	1169	1173	1173	1173	1173	1326	1326	1326	1326	1326	1326	1326	1326	1326	1326	1326	1326	1326	1326	1326	1321	1321	1321	1321	1326	1326	1326	1326	1326	1321	1321	1321	1321	1321	1321	1321	1321	1321	1321	1321	1321	1321	1321	1321	1321	1321	1321	1321	1321	1321	1326	1321	1321	1321	1321	1321	1321	1321	1321	1321	1321	1321	1316	1316	1316	1316	1316	1316	1316	1321	1321	1321	1321	1321	1321	1321	1321	1321	1321	1321	1321	1321	1321	1321	1321	1316	1316	1316	1316	1316	1316	1316	1316	1316	1316	1316	1316	1316	1321	1321	1321	1321	1326	1326	1321	1321	1321	1321	1321	1321	1316	1316	1316	1316	1316	1316	1316	1316	1316	1321	1321	1321	1321	1321	1321	1321	1321	1321	1316	1316	1316	1316	1316	1316	1316	1316	1316	1316	1316	1316	1316	1311	1311	1316	1311	1311	1311	1311	1311	1311	1311	1311	1311	1311	1311	1311	1311	1311	1311	1311	1311	1311	1311	1311	1311	1311	1311	1311	1311	1306	1306	1311	1311	1311	1311	1311	1311	1311	1311	1311	1306	1306	1306	1306	1306	1306	1306	1306	1311	1306	1306	1306	1306	1306	1306	1306	1306	1306	1306	1306	1306	1306	1306	1306	1306	1306	1306	1306	1306	1306	1306	1306	1306	1306	1306	1306	1306	1306	1306	1306	1306	1306	1306	1306	1306	1306	1306	1306	1306	1306	1306	1306	1306	1301	1301	1301	1301	1301	1301	1296	1296	1296	1296	1296	1296	1296	1296	1296	1296	1296	1296	1291	1291	1296	1296	1291	1291	1291	1291	1291	1291	1287	1287	1287	1287	1287	1287	1287	1287	1287	1287	1287	1287	1287	1287	1282	1282	1287	1287	1287	1282	1282	1282	1282	1282	1282	1282	1282	1282	1282	1282	1282	1282	1282	1277	1277	1277	1277	1277	1277	1277	1282	1282	1282	1277	1277	1277	1272	1272	1272	1268	1268	1268	1268	1268	1268	1268	1268	1268	1268	1268	1268	1268	1268	1263	1263	1268	1272	1277	1277	1282	1282	1287	1287	1287	1287	1291	1291	1291	1291	1291	1291	1291	1291	1296	1291	1291	1291	1291	1291	1291	1291	1291	1291	1291	1291	1291	1291	1291	1291	1291	1291	1287	1287	1287	1287	1287	1287	1287	1287	1287	1287	1287	1282	1282	1287	1287	1287	1287	1287	1291	1291	1291	1291	1291	1291	1291	1291	1291	1291	1291	1291	1291	1287	1287	1287	1287	1287	1287	1291	1291	1291	1291	1296	1296	1296	1296	1296	1296	1296	1291	1291	1291	1291	1291	1291	1291	1291	1291	1291	1296	1296	1202	1197	1197	1193	1189	1181	1181	1177	1173	1173	1173	1173	1173	1173	1173	1173	1173	1173	1177	1177	1177	0	0	0	0	0	0	0	0	0	0	0	0	0	0	0	0	0	0	0
0	0	0	0	0	0	0	0	0	0	0	0	0	0	0	0	0	0	0	0	0	0	0	0	0	0	0	0	1150	1150	1150	1153	1153	1153	1153	1153	1153	1153	1150	1150	1150	1150	1153	1150	1150	1150	1150	1150	1153	1153	1153	1153	1153	1153	1153	1153	1153	1153	1153	1153	1153	1153	1153	1153	1153	1153	1157	1153	1153	1153	1153	1153	1153	1153	1153	1153	1157	1157	1157	1157	1157	1157	1157	1157	1157	1157	1157	1157	1157	1157	1157	1157	1157	1157	1157	1161	1161	1161	1161	1161	1161	1161	1161	1161	1157	1157	1161	1161	1161	1161	1161	1161	1161	1161	1161	1161	1161	1161	1161	1161	1161	1157	1157	1157	1157	1161	1161	1161	1161	1161	1161	1161	1161	1165	1161	1161	1165	1157	1157	1157	1157	1157	1157	1157	1161	1161	1161	1161	1161	1161	1161	1161	1161	1161	1161	1161	1157	1157	1161	1157	1157	1157	1161	1161	1161	1157	1157	1157	1161	1161	1165	1165	1165	1165	1165	1165	1169	1169	1169	1173	1173	1173	1173	1326	1326	1326	1326	1326	1326	1326	1326	1326	1326	1326	1326	1326	1326	1326	1321	1321	1321	1321	1321	1321	1321	1321	1321	1321	1321	1321	1321	1321	1321	1321	1321	1321	1321	1321	1321	1326	1321	1321	1321	1321	1321	1326	1321	1321	1326	1321	1321	1321	1321	1321	1321	1321	1321	1321	1321	1321	1321	1321	1321	1316	1316	1321	1321	1321	1321	1321	1321	1321	1321	1326	1326	1326	1321	1321	1321	1321	1321	1321	1321	1321	1321	1321	1321	1321	1321	1316	1316	1316	1316	1316	1316	1316	1321	1321	1321	1321	1326	1326	1326	1321	1321	1321	1321	1321	1316	1316	1316	1316	1316	1316	1316	1316	1316	1321	1321	1321	1321	1321	1321	1321	1321	1321	1316	1316	1316	1316	1316	1316	1316	1316	1316	1316	1316	1321	1321	1311	1311	1316	1316	1311	1311	1311	1311	1311	1311	1311	1311	1311	1311	1316	1311	1311	1311	1311	1311	1311	1311	1311	1311	1311	1311	1311	1311	1311	1311	1311	1311	1311	1311	1311	1311	1306	1306	1306	1306	1306	1306	1306	1306	1306	1306	1306	1311	1311	1306	1306	1306	1306	1306	1306	1306	1306	1306	1306	1306	1306	1306	1306	1306	1306	1306	1306	1306	1306	1306	1306	1306	1306	1306	1306	1306	1306	1306	1306	1306	1306	1306	1306	1306	1306	1306	1306	1306	1306	1306	1306	1306	1306	1301	1301	1301	1301	1301	1296	1296	1296	1296	1296	1296	1296	1296	1296	1296	1296	1296	1291	1291	1296	1296	1291	1291	1291	1291	1291	1291	1287	1287	1287	1287	1287	1287	1287	1287	1287	1287	1287	1287	1287	1282	1282	1282	1282	1282	1287	1282	1282	1282	1282	1282	1282	1282	1282	1282	1282	1282	1282	1282	1277	1277	1277	1277	1277	1277	1277	1277	1282	1282	1277	1277	1277	1277	1272	1272	1272	1272	1268	1268	1268	1268	1268	1268	1268	1268	1268	1268	1268	1268	1268	1263	1263	1268	1272	1277	1277	1282	1282	1287	1287	1287	1287	1291	1291	1291	1291	1291	1291	1291	1296	1296	1291	1291	1291	1291	1291	1291	1291	1291	1291	1291	1291	1291	1291	1291	1291	1291	1291	1287	1287	1287	1291	1291	1291	1287	1287	1287	1287	1287	1287	1287	1287	1287	1287	1287	1291	1291	1291	1291	1291	1291	1291	1291	1291	1291	1291	1291	1291	1291	1291	1291	1291	1291	1291	1291	1291	1291	1296	1296	1296	1296	1296	1296	1296	1296	1296	1296	1296	1291	1291	1291	1291	1291	1291	1296	1296	1296	1296	1202	1197	1197	1193	1185	1181	1177	1177	1173	1173	1173	1173	1173	1173	1173	1173	1173	1173	1177	1177	1177	0	0	0	0	0	0	0	0	0	0	0	0	0	0	0	0	0	0	0
0	0	0	0	0	0	0	0	0	0	0	0	0	0	0	0	0	0	0	0	0	0	0	0	0	0	0	0	1150	1150	1150	1153	1153	1153	1153	1153	1153	1153	1153	1150	1150	1150	1153	1150	1150	1150	1153	1153	1153	1153	1153	1153	1153	1153	1153	1153	1153	1153	1153	1153	1153	1153	1153	1153	1153	1153	1153	1153	1153	1153	1153	1153	1153	1153	1153	1153	1153	1157	1157	1157	1157	1157	1157	1157	1157	1157	1157	1157	1157	1157	1157	1157	1157	1157	1157	1157	1157	1161	1161	1161	1161	1161	1161	1161	1161	1161	1161	1161	1165	1161	1161	1161	1161	1161	1161	1161	1161	1157	1157	1161	1161	1157	1157	1161	1161	1161	1161	1161	1161	1161	1161	1161	1161	1165	1165	1165	1165	1161	1157	1157	1157	1157	1157	1157	1161	1161	1161	1161	1161	1161	1161	1161	1161	1161	1161	1161	1157	1157	1161	1157	1157	1157	1161	1161	1161	1157	1157	1157	1161	1161	1161	1165	1165	1165	1165	1165	1169	1169	1173	1173	1173	1177	1177	1321	1326	1326	1326	1326	1326	1326	1326	1326	1326	1326	1326	1326	1326	1326	1321	1321	1321	1321	1321	1321	1321	1321	1321	1321	1321	1321	1321	1321	1321	1321	1321	1321	1321	1326	1326	1326	1326	1326	1326	1326	1326	1321	1321	1326	1326	1321	1321	1321	1326	1321	1321	1321	1321	1321	1321	1321	1321	1321	1321	1321	1321	1321	1321	1321	1321	1321	1321	1321	1321	1326	1326	1326	1326	1321	1321	1321	1321	1321	1321	1321	1321	1321	1321	1321	1316	1316	1316	1316	1316	1316	1316	1316	1321	1321	1321	1321	1326	1326	1326	1326	1326	1321	1321	1321	1316	1316	1316	1316	1316	1316	1316	1316	1316	1316	1321	1321	1321	1321	1321	1321	1321	1321	1316	1316	1321	1316	1316	1316	1316	1316	1316	1316	1316	1321	1316	1316	1316	1316	1316	1311	1311	1311	1311	1311	1311	1311	1311	1311	1311	1316	1311	1311	1311	1311	1311	1311	1311	1311	1311	1311	1311	1311	1311	1311	1311	1316	1311	1311	1311	1311	1311	1306	1306	1306	1306	1306	1306	1306	1306	1306	1306	1306	1311	1311	1306	1306	1306	1306	1306	1306	1306	1306	1306	1306	1306	1306	1306	1306	1306	1306	1306	1306	1306	1306	1306	1306	1306	1306	1306	1306	1306	1306	1306	1306	1306	1306	1306	1306	1306	1306	1306	1306	1306	1306	1306	1306	1306	1306	1306	1306	1301	1301	1301	1301	1296	1296	1296	1296	1296	1296	1296	1296	1296	1296	1296	1291	1291	1296	1296	1296	1291	1291	1287	1287	1287	1287	1287	1287	1287	1287	1287	1287	1287	1287	1287	1287	1287	1287	1282	1282	1282	1282	1287	1282	1282	1282	1282	1282	1282	1282	1282	1282	1282	1282	1282	1282	1282	1277	1277	1277	1277	1277	1277	1277	1277	1277	1277	1277	1277	1277	1272	1272	1272	1272	1272	1268	1268	1268	1268	1268	1268	1268	1268	1268	1268	1268	1268	1268	1268	1268	1268	1272	1277	1277	1282	1282	1291	1291	1291	1291	1291	1291	1291	1291	1291	1291	1291	1291	1291	1291	1291	1291	1291	1291	1291	1291	1291	1291	1291	1291	1291	1291	1291	1291	1291	1291	1287	1287	1291	1291	1291	1291	1291	1291	1291	1287	1287	1287	1287	1287	1287	1287	1291	1291	1291	1291	1291	1291	1291	1291	1291	1291	1291	1291	1291	1291	1291	1291	1291	1291	1291	1291	1291	1291	1291	1291	1291	1296	1296	1296	1296	1296	1296	1296	1296	1296	1291	1291	1291	1291	1291	1291	1296	1296	1296	1206	1202	1197	1197	1193	1185	1177	1177	1177	1173	1173	1173	1173	1173	1173	1173	1173	1173	1173	1173	1177	1177	0	0	0	0	0	0	0	0	0	0	0	0	0	0	0	0	0	0	0
