2237	2237	2237	2252	2252	2252	2252	2252	2252	2252	2252	2252	2252	2266	2266	2252	2252	2252	2266	2266	2266	2266	2266	2266	2266	2266	2266	2266	2266	2266	2266	2266	2266	2266	2266	2266	2266	2266	2266	2266	2266	2281	2281	2281	2281	2281	2281	2281	2297	2297	2297	2297	2312	2312	2312	2312	2312	2312	2312	2312	2312	2312	2312	2312	2312	2297	2297	2297	2297	2312	2312	2297	2297	2297	2297	2297	2312	2312	2312	2312	2312	2312	2312	2312	2312	2312	2312	2312	2312	2312	2327	2312	2312	2312	2312	2327	2327	2327	2327	2327	2327	2343	2343	2343	2343	2343	2343	2343	2343	2343	2343	2343	2343	2343	2343	2343	2359	2359	2359	2359	2359	2359	2359	2343	2343	2343	2343	2343	2343	2343	2359	2359	2359	2359	2359	2343	2343	2343	2343	2343	2343	2343	2359	2359	2359	2359	2359	2359	2359	2359	2343	2343	2343	2343	2343	2343	2343	2359	2359	2359	2359	2359	2359	2376	2376	2359	2359	2359	2376	2376	2376	2376	2376	2376	2376	2376	2376	2376	2376	2376	2376	2359	2359	2359	2359	2376	2376	2392	2392	2392	2392	2392	2392	2392	2392	2392	2392	2392	2392	2392	2392	2392	2392	2392	2392	2392	2392	2392	2392	2392	2392	2409	2409	2409	2409	2409	2409	2409	2409	2409	2409	2409	2409	2409	2409	2409	2409	2426	2409	2409	2409	2409	2409	2409	2409	2426	2426	2426	2409	2409	2409	2409	2409	2409	2409	2409	2409	2426	2409	2409	2426	2426	2426	2409	2409	2426	2426	2426	2426	2426	2426	2443	2443	2443	2443	2443	2443	2443	2443	2443	2443	2443	2460	2460	2460	2460	2460	2460	2478	2460	2460	2460	2460	2460	2460	2460	2460	2460	2460	2460	2460	2460	2478	2478	2478	2478	2460	2460	2443	2443	2443	2443	2443	2443	2460	2460	2460	2460	2460	2460	2460	2460	2478	2478	2478	2478	2478	2478	2478	2478	2478	2478	2478	2478	2478	2496	2496	2496	2478	2478	2478	2478	2478	2478	2496	2496	2496	2496	2496	2496	2496	2496	2496	2496	2496	2496	2496	2514	2514	2514	2514	2514	2514	2496	2496	2496	2496	2496	2496	2496	2496	2496	2496	2496	2496	2496	2496	2496	2496	2496	2496	2496	2496	2496	2514	2514	2514	2514	2514	2514	2514	2496	2496	2496	2514	2514	2514	2514	2514	2514	2514	2514	2514	2514	2514	2514	2514	2532	2532	2532	2532	2532	2532	2532	2532	2532	2551	2551	2551	2551	2551	2532	2532	2532	2532	2532	2532	2532	2532	2532	2532	2532	2532	2532	2551	2551	2551	2551	2551	2551	2551	2551	2551	2551	2551	2551	2551	2551	2551	2551	2551	2570	2570	2570	2570	2570	2570	2551	2551	2551	2551	2551	2570	2570	2570	2570	2570	2570	2570	2570	2570	2570	2570	2570	2570	2570	2570	2570	2570	2551	2551	2570	2570	2570	2570	2570	2570	2570	2570	2570	2570	2570	2570	2570	2589	2589	2589	2589	2589	2589	2589	2570	2570	2570	2570	2570	2570	2589	2570	2570	2589	2589	2609	2609	2589	2589	2589	2589	2589	2609	2609	2609	2609	2609	2609	2629	2629	2609	2609	2609	2609	2609	2629	2629	2629	2629	2609	2609	2609	2609	2609	2609	2609	2609	2609	2609	2609	2609	2609	2609	2609	2609	2609	2609	2609	2609	2609	2629	2629	2629	2629	2649	2649	2649	2629	2629	2629	2629	2649	2649	2649	2649	2649	2649	2649	2669	2669	2669	2669	2669	2669	2690	2690	2690	2669	2669	2669	2669	2690	2690	2690	2669	2669	2669	2669	2669	2669	2669	2669	2669	2669	2669	2669	2669	2669	2669	2669	2669	2669	2669	2669
2237	2237	2237	2237	2252	2252	2252	2237	2237	2237	2237	2252	2252	2252	2252	2252	2252	2252	2266	2266	2266	2266	2266	2266	2266	2266	2266	2266	2266	2266	2266	2266	2266	2266	2266	2266	2266	2266	2266	2266	2266	2281	2281	2281	2281	2281	2281	2281	2281	2281	2297	2297	2297	2312	2312	2312	2312	2312	2312	2312	2312	2312	2312	2312	2312	2297	2297	2297	2297	2312	2312	2312	2312	2312	2312	2312	2312	2312	2312	2312	2312	2312	2312	2312	2312	2312	2312	2312	2312	2312	2327	2312	2312	2327	2327	2327	2327	2327	2327	2327	2327	2343	2343	2343	2343	2343	2343	2343	2343	2343	2343	2343	2343	2343	2343	2343	2359	2359	2359	2359	2359	2359	2359	2343	2343	2343	2343	2359	2359	2359	2359	2359	2359	2359	2359	2359	2359	2359	2359	2359	2359	2359	2359	2359	2359	2359	2359	2359	2359	2359	2359	2359	2359	2359	2359	2359	2359	2359	2359	2359	2359	2359	2359	2376	2376	2376	2376	2376	2376	2376	2376	2376	2376	2376	2376	2376	2376	2376	2376	2376	2376	2376	2376	2376	2376	2376	2376	2392	2392	2392	2392	2392	2392	2392	2392	2392	2409	2392	2392	2392	2392	2392	2392	2392	2392	2392	2392	2392	2392	2392	2409	2409	2409	2409	2409	2409	2409	2409	2409	2409	2409	2409	2409	2409	2409	2426	2426	2426	2426	2426	2426	2426	2426	2409	2409	2426	2426	2443	2426	2426	2409	2409	2426	2426	2426	2426	2426	2426	2443	2443	2443	2426	2426	2443	2443	2443	2443	2443	2443	2443	2443	2443	2460	2443	2443	2460	2443	2443	2443	2460	2460	2460	2460	2460	2460	2460	2478	2478	2478	2478	2460	2460	2460	2460	2460	2460	2460	2460	2460	2478	2460	2460	2478	2478	2478	2478	2460	2460	2460	2460	2443	2443	2460	2460	2460	2460	2460	2478	2478	2478	2478	2478	2478	2478	2478	2478	2478	2478	2478	2478	2478	2496	2496	2496	2496	2496	2496	2514	2496	2496	2496	2496	2496	2496	2496	2496	2496	2496	2514	2514	2496	2496	2514	2514	2514	2496	2496	2514	2514	2514	2514	2514	2514	2496	2496	2496	2496	2496	2496	2496	2496	2496	2496	2496	2496	2496	2496	2496	2514	2514	2514	2514	2514	2514	2514	2514	2514	2514	2514	2514	2514	2514	2514	2514	2514	2514	2514	2514	2514	2514	2514	2514	2514	2514	2514	2514	2514	2532	2532	2532	2532	2551	2551	2551	2551	2551	2551	2551	2551	2551	2551	2551	2532	2532	2532	2532	2551	2551	2532	2532	2532	2532	2532	2532	2551	2551	2551	2551	2551	2551	2551	2551	2551	2551	2551	2551	2551	2551	2551	2551	2570	2570	2570	2570	2570	2570	2570	2570	2551	2551	2551	2570	2570	2570	2570	2570	2570	2570	2570	2570	2570	2570	2570	2570	2570	2589	2589	2589	2570	2570	2570	2570	2570	2570	2570	2570	2570	2570	2570	2570	2570	2570	2570	2589	2589	2589	2589	2589	2589	2589	2589	2589	2589	2570	2570	2589	2589	2589	2589	2589	2589	2609	2609	2609	2609	2609	2609	2609	2609	2609	2609	2609	2609	2629	2629	2629	2629	2629	2629	2629	2629	2629	2629	2629	2629	2629	2609	2609	2609	2609	2609	2609	2609	2609	2609	2609	2609	2609	2609	2609	2609	2609	2609	2609	2609	2609	2609	2629	2629	2629	2629	2649	2649	2649	2629	2629	2649	2649	2649	2649	2649	2669	2669	2669	2669	2649	2649	2649	2649	2669	2669	2690	2690	2690	2690	2690	2690	2690	2690	2690	2690	2690	2690	2690	2690	2669	2669	2669	2669	2669	2690	2690	2690	2669	2669	2669	2669	2690	2690	2690	2690
2237	2237	2237	2237	2237	2237	2237	2237	2237	2237	2237	2237	2237	2237	2237	2237	2252	2252	2252	2266	2266	2266	2266	2266	2266	2266	2266	2266	2266	2266	2266	2266	2266	2266	2266	2266	2266	2266	2266	2266	2266	2281	2281	2281	2281	2281	2281	2281	2281	2281	2297	2297	2297	2312	2312	2312	2312	2312	2312	2312	2312	2312	2312	2312	2312	2297	2297	2297	2297	2312	2312	2312	2297	2297	2297	2297	2312	2312	2312	2312	2312	2312	2327	2327	2327	2327	2327	2327	2327	2327	2327	2327	2327	2327	2327	2327	2327	2327	2327	2327	2327	2343	2343	2343	2343	2343	2343	2343	2343	2343	2343	2343	2343	2343	2343	2359	2359	2359	2359	2359	2359	2359	2359	2343	2343	2343	2359	2359	2359	2359	2359	2359	2359	2359	2359	2359	2359	2359	2359	2359	2359	2359	2359	2359	2359	2359	2359	2359	2359	2359	2343	2343	2359	2359	2359	2359	2359	2359	2359	2359	2359	2376	2376	2376	2376	2376	2376	2376	2376	2376	2376	2376	2376	2376	2376	2376	2376	2376	2376	2376	2376	2376	2376	2392	2392	2392	2392	2392	2392	2392	2392	2392	2392	2392	2392	2409	2409	2409	2409	2409	2409	2409	2409	2409	2392	2392	2409	2409	2409	2409	2409	2409	2409	2409	2409	2409	2409	2409	2409	2409	2409	2409	2409	2409	2426	2426	2426	2426	2426	2426	2426	2426	2426	2426	2426	2426	2443	2460	2443	2443	2426	2426	2443	2443	2443	2443	2443	2443	2460	2460	2460	2460	2460	2460	2460	2460	2460	2460	2460	2460	2460	2460	2460	2460	2460	2460	2460	2460	2460	2460	2460	2460	2460	2460	2460	2478	2478	2478	2478	2478	2478	2460	2460	2460	2460	2478	2478	2478	2478	2478	2478	2478	2478	2478	2478	2478	2460	2460	2460	2460	2460	2460	2478	2478	2478	2478	2478	2478	2478	2478	2478	2478	2478	2478	2478	2496	2496	2496	2496	2496	2496	2496	2496	2496	2496	2514	2514	2514	2514	2514	2496	2496	2496	2496	2496	2496	2496	2514	2514	2514	2514	2514	2514	2514	2514	2514	2514	2514	2514	2514	2514	2514	2514	2496	2496	2496	2496	2496	2496	2496	2496	2496	2496	2496	2514	2514	2514	2514	2514	2514	2514	2514	2514	2514	2514	2514	2514	2514	2514	2514	2514	2514	2514	2514	2514	2514	2514	2514	2514	2514	2532	2532	2514	2514	2514	2514	2514	2532	2532	2532	2532	2551	2551	2551	2551	2551	2551	2570	2570	2570	2551	2551	2551	2551	2551	2551	2551	2551	2551	2551	2551	2551	2551	2551	2551	2551	2551	2551	2551	2551	2551	2551	2551	2551	2551	2551	2551	2551	2551	2551	2570	2570	2570	2570	2570	2570	2570	2570	2570	2570	2570	2570	2570	2570	2570	2570	2570	2570	2570	2570	2570	2570	2570	2570	2589	2589	2589	2589	2570	2570	2570	2589	2589	2589	2589	2589	2589	2589	2589	2589	2589	2589	2589	2589	2609	2609	2589	2589	2589	2609	2609	2589	2589	2589	2589	2589	2589	2589	2589	2589	2609	2609	2609	2609	2609	2609	2609	2609	2609	2629	2629	2629	2629	2629	2629	2629	2629	2629	2629	2629	2629	2629	2629	2629	2629	2629	2609	2609	2609	2609	2609	2609	2609	2609	2609	2609	2609	2609	2609	2609	2629	2609	2609	2629	2629	2629	2629	2629	2649	2649	2649	2649	2649	2649	2649	2649	2649	2649	2649	2649	2649	2669	2669	2669	2669	2649	2649	2649	2649	2669	2669	2690	2690	2690	2690	2690	2690	2690	2690	2690	2690	2690	2690	2711	2711	2690	2690	2690	2690	2690	2690	2690	2690	2690	2690	2690	2690	2690	2690	2690	2690
2237	2237	2237	2237	2237	2237	2237	2223	2223	2223	2237	2237	2237	2237	2237	2237	2252	2252	2252	2252	2252	2252	2266	2252	2252	2266	2252	2252	2252	2266	2266	2266	2266	2266	2266	2266	2266	2281	2281	2281	2281	2281	2281	2281	2281	2281	2281	2281	2281	2281	2297	2297	2297	2312	2312	2312	2312	2312	2312	2312	2312	2312	2312	2312	2312	2297	2297	2297	2297	2297	2312	2297	2297	2297	2297	2297	2312	2312	2312	2312	2312	2312	2312	2312	2327	2327	2327	2327	2327	2327	2327	2327	2327	2327	2327	2327	2327	2327	2327	2327	2343	2343	2343	2343	2343	2343	2343	2343	2343	2343	2343	2343	2343	2343	2359	2359	2359	2359	2359	2359	2359	2359	2359	2343	2343	2343	2359	2359	2359	2359	2359	2359	2359	2359	2359	2359	2359	2359	2359	2359	2359	2359	2359	2359	2359	2359	2359	2359	2359	2359	2343	2343	2359	2359	2359	2359	2359	2359	2359	2359	2359	2376	2376	2376	2376	2376	2376	2376	2376	2376	2376	2376	2376	2376	2376	2376	2376	2376	2376	2376	2392	2392	2392	2392	2376	2376	2376	2392	2392	2392	2392	2392	2392	2392	2409	2409	2409	2409	2409	2409	2409	2409	2409	2409	2409	2409	2409	2409	2409	2426	2426	2426	2426	2426	2426	2426	2426	2426	2426	2409	2409	2426	2426	2426	2426	2426	2426	2443	2426	2426	2443	2443	2443	2426	2426	2443	2460	2460	2443	2443	2426	2426	2443	2460	2460	2460	2460	2460	2460	2460	2460	2460	2460	2460	2460	2460	2460	2460	2460	2460	2460	2460	2460	2460	2460	2460	2460	2460	2460	2460	2460	2460	2460	2460	2460	2478	2478	2478	2478	2478	2478	2478	2478	2478	2478	2478	2478	2478	2478	2478	2478	2478	2478	2478	2478	2496	2478	2478	2460	2460	2478	2478	2478	2478	2478	2478	2478	2478	2478	2496	2496	2478	2478	2478	2496	2496	2496	2496	2496	2496	2496	2496	2496	2514	2514	2514	2514	2514	2514	2514	2514	2514	2514	2496	2496	2514	2514	2514	2514	2514	2514	2514	2514	2514	2514	2514	2514	2514	2514	2514	2514	2514	2514	2496	2496	2496	2496	2496	2496	2496	2496	2496	2514	2514	2514	2514	2514	2514	2514	2514	2514	2514	2514	2514	2514	2514	2514	2514	2514	2514	2532	2514	2514	2514	2532	2532	2532	2532	2532	2532	2532	2532	2532	2532	2532	2532	2532	2532	2532	2532	2551	2551	2551	2570	2570	2570	2570	2570	2570	2570	2570	2551	2551	2551	2551	2551	2551	2551	2551	2551	2551	2551	2551	2551	2551	2551	2551	2551	2570	2570	2570	2570	2570	2570	2551	2551	2551	2551	2551	2551	2570	2570	2570	2570	2570	2570	2570	2570	2570	2570	2570	2570	2570	2570	2570	2570	2570	2570	2570	2570	2570	2589	2570	2570	2589	2589	2589	2589	2589	2570	2570	2589	2589	2589	2589	2609	2609	2609	2609	2609	2609	2609	2609	2609	2609	2609	2609	2609	2609	2609	2609	2609	2609	2589	2589	2609	2609	2609	2609	2609	2609	2609	2609	2609	2629	2629	2629	2629	2629	2629	2629	2629	2629	2629	2629	2629	2629	2629	2629	2629	2629	2629	2629	2629	2629	2629	2609	2609	2609	2609	2609	2609	2609	2629	2629	2629	2629	2629	2629	2629	2629	2629	2629	2629	2629	2629	2649	2649	2649	2649	2649	2649	2669	2649	2649	2649	2649	2649	2649	2649	2669	2669	2669	2669	2669	2669	2669	2649	2649	2669	2669	2690	2690	2690	2690	2690	2690	2690	2711	2711	2711	2711	2733	2733	2711	2711	2690	2690	2690	2690	2690	2690	2690	2690	2690	2690	2690	2690	2690	2690	2690
2237	2237	2237	2237	2237	2237	2237	2223	2223	2223	2223	2223	2223	2237	2237	2237	2237	2237	2252	2252	2252	2252	2252	2252	2252	2252	2252	2252	2252	2252	2252	2266	2252	2252	2266	2266	2266	2266	2266	2266	2281	2281	2281	2281	2281	2281	2281	2281	2281	2281	2297	2297	2297	2297	2297	2312	2297	2297	2297	2297	2312	2312	2312	2312	2312	2297	2297	2297	2297	2297	2297	2297	2297	2297	2297	2297	2312	2312	2312	2312	2312	2312	2312	2312	2312	2312	2327	2327	2327	2327	2327	2327	2327	2327	2327	2327	2327	2327	2327	2327	2343	2343	2343	2343	2343	2343	2343	2343	2343	2343	2343	2343	2343	2343	2343	2359	2359	2359	2359	2359	2359	2359	2359	2343	2343	2343	2359	2359	2359	2359	2359	2359	2359	2359	2359	2359	2359	2359	2359	2359	2359	2359	2359	2359	2359	2359	2359	2359	2359	2359	2343	2343	2359	2359	2359	2359	2359	2359	2359	2359	2359	2376	2359	2359	2359	2359	2376	2376	2376	2376	2376	2376	2376	2376	2376	2376	2376	2376	2376	2376	2392	2392	2392	2392	2376	2376	2376	2392	2392	2392	2392	2392	2409	2409	2409	2409	2409	2409	2409	2409	2409	2409	2409	2409	2409	2409	2409	2426	2426	2426	2426	2426	2426	2426	2426	2426	2426	2426	2426	2426	2426	2426	2426	2426	2426	2426	2443	2443	2443	2443	2443	2460	2460	2478	2478	2460	2460	2460	2443	2443	2443	2443	2460	2460	2460	2460	2460	2460	2460	2460	2460	2460	2460	2460	2460	2460	2460	2460	2460	2460	2478	2478	2478	2460	2460	2460	2460	2460	2460	2460	2460	2460	2460	2460	2478	2478	2478	2478	2478	2478	2478	2478	2478	2478	2478	2478	2478	2478	2478	2478	2478	2478	2478	2496	2496	2496	2496	2496	2496	2478	2478	2478	2478	2478	2478	2496	2496	2496	2496	2496	2496	2496	2496	2496	2496	2496	2496	2496	2496	2496	2496	2514	2514	2514	2514	2514	2514	2514	2514	2514	2514	2514	2514	2514	2514	2514	2514	2514	2514	2514	2514	2514	2496	2496	2514	2514	2514	2496	2496	2496	2496	2514	2514	2496	2496	2496	2496	2496	2496	2496	2496	2514	2514	2514	2514	2514	2514	2514	2514	2514	2514	2514	2514	2514	2514	2514	2514	2514	2532	2532	2532	2532	2532	2532	2532	2532	2532	2532	2532	2532	2532	2532	2532	2532	2532	2532	2532	2551	2551	2551	2551	2551	2570	2570	2570	2570	2570	2570	2570	2570	2570	2570	2551	2551	2570	2570	2570	2570	2570	2551	2551	2551	2551	2551	2551	2551	2570	2570	2570	2570	2570	2570	2570	2570	2551	2551	2551	2551	2551	2551	2570	2570	2570	2570	2570	2570	2570	2570	2570	2570	2570	2589	2570	2570	2589	2570	2570	2570	2570	2570	2570	2589	2589	2589	2609	2609	2609	2609	2609	2589	2589	2589	2589	2589	2589	2609	2609	2609	2609	2609	2609	2609	2609	2609	2609	2609	2609	2609	2609	2609	2629	2629	2609	2609	2609	2609	2609	2609	2609	2609	2609	2609	2629	2629	2629	2629	2629	2629	2629	2629	2629	2629	2629	2629	2629	2629	2629	2629	2629	2629	2629	2629	2629	2629	2629	2629	2609	2609	2609	2609	2609	2609	2609	2629	2629	2629	2629	2629	2649	2649	2649	2649	2649	2649	2649	2649	2649	2649	2649	2649	2669	2669	2669	2669	2649	2649	2649	2649	2669	2669	2669	2669	2669	2669	2669	2669	2669	2669	2669	2669	2669	2690	2690	2690	2690	2690	2690	2690	2711	2711	2711	2711	2733	2733	2711	2711	2711	2711	2711	2711	2711	2711	2711	2711	2690	2690	2711	2711	2711	2711	2711
2237	2223	2223	2223	2223	2237	2237	2223	2223	2223	2223	2223	2223	2223	2223	2237	2237	2237	2237	2237	2237	2252	2252	2252	2252	2252	2252	2237	2237	2252	2252	2252	2252	2252	2266	2266	2266	2266	2266	2266	2266	2281	2281	2281	2281	2281	2281	2281	2281	2281	2281	2297	2297	2297	2297	2297	2297	2297	2297	2297	2312	2312	2312	2312	2297	2297	2297	2297	2297	2297	2297	2297	2297	2297	2297	2297	2312	2312	2312	2312	2312	2312	2312	2312	2312	2312	2327	2327	2327	2327	2327	2327	2327	2327	2327	2327	2327	2327	2327	2327	2327	2327	2343	2343	2343	2343	2343	2343	2343	2343	2343	2343	2343	2343	2343	2359	2359	2343	2343	2359	2359	2359	2359	2343	2343	2343	2359	2359	2359	2359	2359	2359	2359	2359	2359	2359	2359	2359	2359	2359	2359	2359	2359	2359	2359	2359	2359	2359	2359	2359	2359	2359	2359	2359	2359	2359	2359	2359	2359	2359	2359	2376	2359	2359	2359	2359	2359	2376	2376	2376	2376	2376	2376	2376	2376	2376	2376	2376	2376	2376	2376	2376	2376	2376	2392	2392	2392	2392	2392	2392	2392	2392	2409	2409	2409	2409	2409	2409	2409	2409	2409	2409	2409	2409	2409	2409	2409	2409	2426	2426	2426	2426	2426	2426	2426	2426	2426	2426	2426	2426	2426	2426	2426	2426	2443	2443	2443	2443	2443	2443	2460	2460	2478	2478	2478	2460	2460	2460	2460	2460	2443	2443	2460	2460	2460	2460	2460	2460	2460	2460	2460	2460	2460	2460	2460	2460	2460	2460	2460	2460	2460	2478	2478	2478	2478	2478	2460	2460	2460	2460	2460	2460	2460	2460	2478	2478	2478	2496	2496	2496	2496	2496	2496	2496	2496	2496	2496	2496	2496	2496	2496	2496	2496	2496	2496	2514	2496	2496	2496	2496	2496	2496	2496	2496	2496	2496	2496	2496	2496	2496	2514	2514	2496	2496	2514	2514	2514	2514	2496	2496	2514	2514	2514	2514	2514	2514	2514	2514	2514	2514	2514	2514	2514	2514	2514	2514	2514	2514	2514	2514	2514	2514	2496	2496	2514	2514	2514	2496	2496	2496	2496	2514	2514	2496	2496	2496	2496	2496	2514	2496	2496	2514	2514	2514	2514	2514	2514	2514	2514	2514	2514	2514	2532	2532	2532	2532	2532	2532	2551	2551	2532	2532	2532	2532	2532	2532	2532	2551	2551	2551	2551	2551	2551	2551	2551	2551	2551	2551	2551	2551	2570	2570	2570	2570	2570	2570	2570	2570	2570	2589	2589	2551	2551	2551	2570	2570	2570	2570	2570	2570	2570	2570	2570	2570	2551	2551	2570	2570	2570	2570	2570	2570	2570	2570	2551	2551	2551	2551	2551	2551	2570	2570	2570	2570	2570	2570	2570	2589	2589	2589	2589	2589	2589	2589	2589	2589	2589	2589	2589	2589	2589	2589	2589	2589	2609	2609	2609	2609	2609	2589	2589	2609	2609	2609	2609	2609	2609	2609	2609	2609	2609	2609	2609	2609	2609	2629	2609	2609	2609	2629	2629	2629	2609	2609	2609	2609	2609	2609	2609	2609	2609	2609	2629	2629	2629	2629	2649	2629	2629	2629	2629	2629	2629	2629	2629	2629	2629	2629	2629	2629	2649	2649	2649	2649	2649	2649	2629	2609	2609	2629	2629	2629	2629	2649	2649	2649	2649	2649	2669	2669	2649	2649	2649	2649	2669	2669	2669	2669	2669	2669	2669	2669	2669	2669	2669	2669	2649	2649	2669	2669	2669	2669	2669	2669	2669	2669	2669	2669	2669	2669	2690	2690	2690	2690	2690	2711	2711	2711	2711	2711	2733	2733	2733	2733	2733	2733	2711	2711	2711	2711	2711	2711	2711	2711	2711	2711	2711	2711	2711	2711	2711
2223	2223	2223	2223	2223	2237	2237	2223	2223	2223	2223	2223	2223	2223	2223	2223	2237	2237	2237	2237	2237	2237	2237	2237	2237	2252	2237	2237	2237	2252	2252	2252	2252	2252	2252	2266	2266	2266	2266	2266	2266	2266	2266	2266	2281	2281	2281	2281	2281	2281	2281	2281	2281	2297	2297	2297	2297	2297	2297	2297	2297	2297	2312	2297	2297	2297	2297	2297	2297	2297	2297	2297	2297	2297	2312	2312	2312	2312	2312	2312	2312	2312	2312	2312	2312	2312	2312	2327	2327	2327	2327	2327	2327	2327	2327	2327	2327	2327	2327	2327	2327	2327	2343	2343	2343	2343	2343	2343	2343	2343	2343	2343	2343	2343	2343	2343	2343	2343	2343	2359	2359	2359	2359	2343	2343	2343	2343	2359	2359	2359	2359	2359	2359	2359	2359	2359	2359	2359	2359	2359	2359	2359	2359	2359	2359	2359	2359	2359	2359	2359	2359	2359	2359	2359	2359	2359	2359	2359	2359	2359	2359	2376	2359	2359	2359	2359	2359	2376	2376	2376	2376	2376	2376	2376	2376	2376	2376	2376	2376	2376	2376	2376	2376	2376	2376	2376	2376	2392	2392	2392	2392	2392	2409	2409	2409	2409	2409	2409	2409	2409	2409	2409	2409	2409	2409	2409	2409	2409	2409	2426	2426	2426	2426	2426	2426	2426	2426	2426	2426	2426	2426	2426	2426	2426	2426	2426	2426	2443	2443	2460	2460	2460	2478	2478	2478	2478	2478	2478	2460	2460	2460	2460	2460	2460	2460	2460	2460	2460	2460	2460	2460	2460	2460	2460	2460	2460	2460	2460	2460	2460	2460	2478	2478	2478	2478	2478	2460	2460	2460	2460	2460	2460	2478	2478	2478	2478	2496	2496	2496	2496	2496	2496	2496	2496	2496	2496	2496	2496	2496	2496	2496	2496	2496	2496	2514	2514	2496	2496	2496	2496	2496	2496	2496	2514	2514	2514	2514	2514	2514	2514	2514	2514	2514	2514	2514	2514	2514	2514	2514	2514	2514	2514	2514	2514	2514	2514	2514	2532	2514	2514	2532	2532	2532	2532	2532	2532	2514	2514	2514	2514	2514	2514	2514	2514	2514	2514	2514	2496	2496	2496	2496	2514	2514	2496	2496	2496	2496	2496	2514	2514	2514	2514	2514	2514	2514	2514	2514	2514	2514	2514	2514	2532	2532	2532	2551	2551	2532	2532	2551	2551	2551	2551	2551	2532	2532	2532	2532	2551	2551	2551	2551	2551	2551	2551	2551	2551	2551	2570	2570	2570	2570	2570	2570	2570	2570	2570	2570	2570	2589	2570	2570	2551	2551	2551	2570	2570	2570	2570	2570	2570	2570	2570	2570	2570	2570	2570	2570	2570	2570	2570	2570	2570	2570	2570	2570	2570	2551	2551	2570	2570	2570	2570	2570	2570	2570	2589	2589	2589	2589	2589	2589	2609	2609	2609	2609	2589	2589	2589	2609	2609	2609	2609	2609	2609	2629	2629	2629	2629	2629	2609	2609	2609	2609	2609	2609	2609	2609	2609	2609	2609	2609	2609	2609	2609	2609	2629	2629	2629	2629	2629	2629	2629	2609	2609	2609	2609	2609	2609	2609	2609	2609	2629	2629	2629	2649	2649	2649	2649	2649	2649	2649	2629	2629	2629	2629	2629	2629	2649	2649	2649	2649	2649	2649	2649	2649	2649	2629	2629	2629	2629	2629	2629	2629	2649	2649	2649	2669	2669	2669	2669	2669	2669	2669	2669	2669	2669	2669	2669	2669	2669	2669	2669	2669	2669	2669	2669	2669	2669	2669	2669	2669	2669	2669	2669	2669	2690	2690	2690	2690	2690	2690	2711	2711	2711	2711	2711	2711	2711	2711	2711	2733	2733	2733	2733	2733	2733	2733	2733	2733	2733	2733	2733	2733	2711	2711	2711	2733	2733	2711	2711	2711
2223	2223	2223	2223	2223	2223	2223	2208	2208	2223	2223	2223	2223	2223	2223	2223	2223	2223	2237	2237	2237	2237	2237	2237	2237	2237	2237	2237	2237	2237	2252	2252	2252	2252	2252	2252	2266	2266	2266	2266	2266	2266	2266	2266	2266	2281	2281	2281	2281	2281	2281	2281	2281	2281	2281	2281	2297	2297	2297	2297	2297	2297	2297	2297	2297	2297	2297	2297	2297	2297	2297	2297	2297	2297	2312	2297	2297	2297	2312	2312	2312	2312	2312	2312	2312	2312	2312	2327	2327	2327	2327	2327	2327	2327	2327	2327	2327	2327	2327	2327	2327	2327	2327	2327	2343	2343	2343	2343	2343	2343	2343	2343	2343	2343	2343	2343	2343	2343	2343	2359	2359	2359	2359	2343	2343	2343	2343	2343	2343	2343	2343	2343	2343	2343	2343	2359	2359	2359	2359	2359	2359	2359	2359	2359	2359	2359	2359	2359	2359	2359	2359	2359	2359	2359	2359	2359	2359	2359	2359	2359	2359	2376	2376	2376	2376	2376	2376	2376	2376	2376	2376	2376	2376	2376	2376	2376	2376	2376	2376	2376	2376	2376	2376	2376	2376	2376	2376	2392	2409	2409	2409	2409	2409	2409	2409	2409	2409	2409	2409	2409	2409	2409	2409	2409	2409	2409	2409	2409	2409	2426	2426	2426	2426	2426	2426	2426	2426	2426	2426	2426	2426	2426	2426	2426	2426	2426	2426	2443	2443	2460	2460	2460	2478	2478	2478	2478	2478	2478	2460	2460	2460	2460	2460	2460	2460	2460	2460	2460	2460	2460	2460	2460	2460	2460	2460	2460	2460	2478	2478	2478	2478	2478	2478	2478	2478	2478	2478	2478	2478	2478	2478	2478	2478	2478	2496	2496	2496	2496	2496	2496	2496	2496	2496	2514	2514	2514	2514	2514	2496	2496	2514	2514	2514	2514	2514	2514	2514	2514	2514	2514	2514	2514	2514	2514	2514	2514	2514	2514	2514	2514	2514	2514	2514	2514	2514	2514	2514	2514	2514	2514	2514	2514	2514	2514	2514	2532	2532	2532	2532	2532	2532	2532	2532	2532	2532	2532	2514	2514	2514	2514	2514	2514	2514	2514	2514	2514	2514	2514	2514	2514	2514	2514	2514	2496	2496	2496	2496	2496	2514	2514	2514	2514	2514	2514	2514	2514	2514	2514	2514	2514	2532	2532	2532	2551	2551	2551	2551	2551	2551	2551	2551	2551	2551	2551	2551	2551	2551	2551	2551	2551	2551	2551	2551	2551	2570	2570	2570	2570	2570	2570	2570	2589	2570	2570	2589	2589	2570	2570	2570	2570	2570	2570	2570	2570	2570	2570	2570	2570	2570	2570	2570	2570	2570	2570	2570	2570	2570	2570	2570	2589	2589	2589	2589	2589	2589	2589	2570	2570	2570	2570	2570	2570	2570	2570	2589	2589	2589	2589	2609	2609	2609	2629	2629	2629	2629	2609	2609	2609	2609	2609	2609	2609	2609	2609	2629	2629	2629	2629	2629	2609	2609	2609	2609	2609	2609	2609	2609	2609	2629	2629	2629	2629	2629	2629	2629	2629	2629	2629	2629	2629	2629	2629	2629	2629	2629	2609	2609	2629	2629	2629	2629	2629	2629	2649	2649	2649	2669	2669	2649	2649	2649	2649	2629	2629	2629	2649	2649	2649	2649	2649	2649	2669	2669	2669	2669	2649	2629	2629	2629	2629	2629	2629	2629	2649	2649	2669	2669	2669	2690	2690	2669	2669	2669	2669	2669	2669	2669	2669	2669	2669	2669	2669	2669	2669	2669	2669	2669	2669	2669	2669	2669	2690	2690	2690	2690	2690	2690	2690	2690	2690	2690	2711	2711	2711	2711	2711	2711	2711	2711	2711	2733	2733	2733	2733	2733	2733	2733	2733	2733	2733	2733	2733	2733	2733	2733	2733	2733	2733	2733	2733	2733
2223	2237	2237	2223	2223	2223	2223	2208	2208	2208	2208	2223	2223	2223	2223	2223	2223	2223	2223	2223	2223	2237	2237	2237	2237	2237	2237	2237	2237	2237	2252	2252	2237	2237	2237	2252	2252	2252	2252	2266	2266	2266	2266	2266	2266	2266	2266	2266	2266	2266	2266	2266	2281	2281	2281	2281	2281	2297	2297	2297	2297	2297	2297	2297	2297	2297	2281	2281	2297	2281	2281	2281	2297	2297	2297	2297	2297	2297	2297	2312	2312	2312	2312	2312	2312	2312	2327	2312	2312	2312	2312	2327	2327	2327	2327	2327	2327	2327	2327	2327	2327	2327	2327	2327	2327	2327	2327	2343	2343	2343	2343	2343	2343	2343	2343	2343	2343	2343	2343	2359	2359	2359	2359	2343	2343	2343	2343	2343	2343	2343	2343	2343	2343	2343	2343	2343	2343	2359	2359	2359	2359	2359	2359	2359	2359	2359	2359	2359	2359	2376	2376	2359	2359	2359	2359	2359	2359	2359	2359	2359	2359	2359	2376	2376	2376	2376	2376	2376	2376	2376	2376	2376	2376	2376	2392	2376	2376	2392	2392	2392	2376	2376	2376	2376	2376	2376	2392	2392	2409	2409	2409	2409	2409	2409	2409	2409	2409	2409	2409	2409	2409	2409	2409	2409	2409	2409	2409	2426	2426	2426	2426	2426	2426	2426	2426	2426	2426	2426	2426	2426	2426	2426	2426	2426	2426	2443	2443	2460	2460	2460	2460	2460	2478	2478	2478	2478	2478	2478	2460	2460	2460	2460	2460	2460	2460	2460	2460	2460	2460	2460	2460	2460	2460	2460	2460	2460	2460	2460	2460	2478	2478	2478	2478	2478	2478	2478	2478	2478	2478	2478	2478	2478	2478	2478	2496	2496	2496	2496	2496	2496	2514	2514	2514	2514	2514	2514	2514	2514	2496	2496	2514	2514	2532	2532	2532	2532	2514	2514	2514	2514	2514	2514	2514	2514	2514	2514	2514	2514	2514	2514	2514	2514	2514	2514	2514	2514	2514	2514	2514	2514	2514	2514	2514	2514	2514	2532	2532	2532	2532	2532	2532	2532	2532	2532	2532	2532	2514	2514	2514	2514	2514	2514	2514	2514	2514	2514	2514	2514	2514	2514	2514	2514	2514	2496	2496	2496	2496	2496	2514	2514	2514	2514	2514	2514	2514	2514	2514	2514	2514	2532	2532	2532	2532	2551	2551	2551	2551	2551	2551	2551	2551	2551	2551	2551	2551	2551	2551	2551	2551	2551	2551	2551	2551	2570	2570	2570	2570	2570	2570	2589	2589	2589	2589	2589	2589	2589	2570	2570	2570	2589	2589	2570	2570	2570	2570	2570	2570	2570	2570	2570	2570	2570	2570	2570	2570	2570	2570	2570	2589	2589	2589	2589	2589	2589	2589	2589	2589	2570	2570	2589	2589	2589	2589	2589	2589	2609	2609	2609	2609	2609	2609	2629	2629	2629	2629	2629	2609	2609	2629	2609	2609	2629	2629	2629	2629	2629	2629	2629	2629	2609	2609	2609	2609	2609	2609	2629	2609	2609	2629	2629	2629	2629	2629	2629	2629	2629	2629	2629	2629	2629	2629	2629	2629	2629	2629	2609	2609	2629	2629	2629	2629	2629	2649	2649	2669	2669	2669	2669	2649	2649	2649	2649	2649	2649	2649	2649	2649	2669	2669	2669	2669	2669	2669	2690	2669	2669	2629	2629	2629	2629	2629	2629	2629	2649	2649	2669	2669	2669	2690	2669	2669	2669	2690	2669	2669	2669	2669	2669	2669	2669	2669	2669	2669	2669	2690	2690	2690	2690	2690	2690	2690	2690	2690	2690	2690	2690	2690	2690	2711	2711	2711	2733	2733	2733	2733	2733	2733	2733	2733	2733	2733	2733	2754	2754	2733	2733	2733	2733	2733	2733	2733	2733	2733	2733	2733	2733	2733	2733	2733	2733	2733
2223	2223	2237	2223	2223	2223	2223	2208	2208	2208	2208	2223	2223	2223	2223	2223	2223	2223	2223	2223	2223	2223	2223	2223	2223	2237	2237	2237	2237	2237	2237	2237	2237	2237	2237	2237	2252	2252	2252	2252	2266	2266	2266	2266	2266	2266	2266	2266	2266	2266	2266	2266	2266	2281	2281	2281	2281	2281	2281	2297	2281	2281	2297	2297	2297	2281	2281	2281	2281	2281	2281	2281	2297	2297	2297	2297	2297	2297	2297	2297	2297	2297	2312	2312	2312	2312	2312	2312	2312	2312	2312	2312	2312	2312	2312	2312	2327	2327	2327	2327	2327	2327	2327	2327	2327	2327	2327	2343	2343	2343	2343	2343	2343	2343	2343	2343	2343	2343	2343	2359	2359	2359	2359	2343	2343	2343	2343	2343	2343	2343	2343	2343	2343	2343	2343	2343	2343	2343	2359	2359	2359	2359	2359	2359	2359	2359	2359	2359	2359	2376	2376	2376	2359	2359	2359	2359	2359	2359	2359	2359	2359	2359	2359	2376	2376	2376	2376	2376	2376	2376	2376	2376	2376	2376	2376	2376	2376	2376	2392	2392	2376	2376	2376	2376	2392	2392	2392	2392	2409	2409	2409	2409	2409	2409	2409	2409	2409	2409	2409	2409	2409	2409	2409	2409	2409	2409	2426	2426	2426	2426	2426	2426	2426	2426	2426	2426	2426	2443	2426	2426	2426	2443	2443	2443	2443	2443	2443	2460	2460	2460	2460	2460	2478	2478	2478	2478	2478	2478	2460	2460	2460	2460	2460	2460	2460	2460	2460	2460	2460	2460	2460	2460	2460	2460	2460	2460	2460	2460	2460	2478	2478	2478	2478	2478	2478	2478	2478	2478	2478	2478	2478	2496	2496	2496	2496	2496	2496	2514	2514	2514	2514	2514	2514	2514	2514	2514	2514	2514	2514	2514	2532	2532	2532	2532	2532	2532	2532	2514	2514	2514	2514	2514	2514	2514	2514	2514	2514	2514	2514	2514	2514	2514	2514	2532	2532	2514	2514	2514	2514	2532	2514	2514	2514	2532	2532	2532	2532	2532	2532	2532	2551	2551	2551	2551	2532	2532	2532	2514	2514	2514	2514	2514	2514	2514	2514	2514	2514	2514	2514	2514	2514	2514	2514	2496	2496	2514	2514	2514	2514	2514	2514	2514	2514	2514	2514	2514	2514	2514	2514	2532	2532	2532	2532	2551	2551	2551	2551	2551	2551	2551	2551	2551	2551	2551	2551	2551	2551	2551	2551	2551	2551	2570	2570	2570	2570	2570	2570	2589	2589	2589	2589	2589	2589	2589	2589	2589	2570	2570	2589	2589	2589	2570	2570	2570	2570	2589	2570	2570	2570	2589	2570	2570	2570	2570	2589	2570	2570	2570	2589	2589	2589	2589	2589	2589	2609	2609	2589	2589	2589	2589	2589	2589	2589	2589	2589	2609	2609	2609	2609	2609	2629	2629	2629	2629	2629	2629	2629	2629	2629	2629	2629	2629	2629	2629	2629	2629	2629	2629	2629	2609	2609	2609	2609	2609	2609	2609	2609	2609	2629	2629	2629	2629	2629	2629	2629	2629	2629	2629	2629	2629	2629	2629	2629	2629	2629	2629	2629	2629	2629	2629	2629	2629	2649	2649	2669	2669	2669	2669	2669	2649	2649	2649	2649	2649	2669	2669	2669	2669	2690	2669	2669	2690	2690	2690	2690	2669	2649	2629	2629	2649	2629	2629	2649	2649	2669	2669	2669	2669	2669	2669	2669	2669	2690	2669	2669	2669	2669	2669	2669	2669	2669	2669	2690	2690	2690	2690	2690	2690	2690	2690	2690	2711	2690	2690	2711	2711	2711	2711	2733	2733	2733	2733	2733	2733	2733	2733	2733	2733	2733	2733	2754	2754	2754	2754	2733	2733	2733	2733	2733	2733	2733	2733	2733	2733	2733	2733	2733	2733	2733	2754	2754
2223	2223	2223	2223	2223	2223	2223	2208	2208	2208	2208	2223	2223	2223	2223	2223	2223	2223	2223	2223	2223	2223	2223	2223	2223	2223	2237	2237	2237	2237	2237	2237	2237	2223	2223	2223	2237	2237	2237	2237	2252	2252	2266	2266	2266	2266	2266	2266	2266	2266	2266	2266	2266	2266	2266	2281	2281	2281	2281	2281	2281	2281	2281	2297	2281	2281	2281	2281	2281	2281	2281	2281	2281	2297	2297	2297	2297	2297	2297	2297	2297	2297	2297	2297	2312	2312	2312	2312	2312	2312	2312	2312	2312	2312	2312	2312	2312	2312	2327	2327	2327	2327	2327	2327	2327	2327	2327	2327	2327	2343	2327	2327	2327	2327	2327	2327	2327	2327	2343	2343	2343	2343	2359	2343	2343	2343	2343	2343	2343	2343	2343	2343	2343	2343	2343	2343	2343	2343	2343	2359	2359	2359	2359	2359	2359	2359	2376	2376	2376	2376	2376	2376	2376	2359	2359	2359	2359	2359	2359	2359	2359	2359	2359	2376	2376	2376	2376	2376	2376	2376	2376	2376	2376	2376	2376	2376	2376	2376	2392	2392	2376	2376	2376	2376	2392	2392	2392	2392	2409	2409	2409	2409	2409	2409	2409	2409	2409	2409	2409	2409	2409	2409	2409	2409	2409	2409	2409	2426	2409	2409	2426	2426	2426	2426	2426	2426	2426	2443	2443	2443	2443	2443	2443	2443	2443	2443	2443	2443	2460	2460	2460	2460	2478	2478	2478	2478	2478	2478	2460	2460	2460	2460	2460	2460	2460	2460	2460	2460	2460	2460	2460	2460	2460	2460	2460	2460	2460	2460	2460	2478	2478	2478	2478	2478	2478	2478	2478	2478	2478	2478	2496	2496	2496	2496	2496	2496	2514	2514	2514	2514	2514	2514	2514	2532	2514	2514	2514	2514	2514	2514	2532	2532	2532	2532	2532	2532	2532	2532	2532	2532	2532	2514	2514	2514	2514	2532	2514	2514	2514	2514	2514	2514	2532	2532	2532	2514	2514	2514	2514	2532	2532	2532	2532	2532	2532	2532	2532	2532	2532	2532	2551	2551	2551	2551	2532	2532	2532	2514	2514	2514	2514	2514	2514	2514	2514	2514	2514	2514	2514	2514	2514	2514	2514	2514	2514	2514	2514	2514	2514	2514	2514	2514	2514	2514	2514	2514	2514	2514	2514	2532	2532	2532	2532	2532	2551	2551	2551	2551	2551	2551	2551	2551	2532	2532	2551	2551	2551	2551	2570	2570	2570	2570	2570	2570	2570	2570	2589	2589	2589	2589	2589	2589	2589	2589	2589	2589	2589	2589	2589	2589	2589	2570	2570	2570	2589	2589	2589	2589	2589	2589	2589	2570	2570	2570	2589	2570	2570	2589	2609	2609	2609	2609	2609	2609	2609	2609	2609	2589	2589	2609	2609	2609	2589	2589	2609	2609	2609	2609	2629	2629	2629	2629	2629	2629	2629	2629	2629	2629	2629	2629	2629	2629	2629	2629	2629	2629	2649	2649	2649	2609	2609	2609	2609	2609	2609	2609	2609	2609	2629	2629	2629	2629	2629	2629	2629	2629	2629	2629	2629	2629	2649	2649	2649	2649	2629	2629	2629	2629	2629	2629	2629	2629	2649	2649	2669	2669	2669	2669	2669	2669	2669	2669	2669	2669	2669	2669	2669	2690	2690	2690	2690	2690	2690	2690	2690	2690	2649	2649	2649	2649	2649	2649	2669	2669	2669	2669	2669	2669	2669	2669	2669	2669	2690	2690	2690	2669	2669	2669	2669	2690	2690	2690	2690	2690	2690	2711	2711	2711	2711	2711	2711	2711	2711	2711	2733	2733	2733	2733	2733	2733	2733	2733	2733	2733	2754	2754	2754	2754	2754	2754	2754	2754	2754	2754	2733	2733	2733	2733	2733	2733	2733	2733	2733	2733	2733	2733	2754	2754	2754	2754	2754
2208	2208	2223	2208	2208	2208	2208	2208	2208	2208	2208	2223	2223	2223	2223	2208	2208	2208	2208	2208	2223	2223	2223	2223	2223	2223	2223	2223	2223	2237	2223	2223	2223	2223	2223	2223	2237	2237	2237	2237	2252	2252	2252	2266	2266	2266	2266	2266	2266	2266	2266	2266	2266	2266	2266	2266	2281	2281	2281	2281	2281	2281	2281	2281	2281	2281	2281	2281	2281	2281	2281	2281	2281	2281	2281	2281	2281	2281	2297	2297	2297	2297	2297	2297	2312	2312	2312	2312	2312	2312	2312	2312	2312	2312	2312	2312	2312	2312	2312	2312	2312	2327	2327	2327	2327	2327	2327	2327	2327	2327	2327	2327	2327	2327	2327	2327	2327	2327	2327	2343	2343	2343	2343	2343	2343	2343	2343	2343	2327	2327	2327	2327	2327	2327	2327	2327	2327	2343	2343	2343	2343	2343	2359	2359	2359	2359	2376	2376	2376	2376	2376	2376	2359	2359	2359	2359	2359	2359	2359	2359	2359	2359	2359	2376	2376	2376	2376	2376	2376	2376	2376	2376	2376	2376	2376	2376	2376	2376	2392	2392	2376	2376	2376	2376	2392	2392	2392	2392	2409	2409	2409	2409	2409	2409	2409	2409	2409	2409	2409	2409	2409	2409	2409	2409	2409	2409	2409	2409	2409	2409	2409	2426	2426	2426	2426	2426	2426	2426	2443	2443	2443	2443	2443	2443	2443	2443	2443	2443	2460	2460	2460	2460	2478	2460	2460	2478	2478	2460	2460	2460	2460	2460	2460	2460	2460	2460	2460	2460	2460	2460	2460	2460	2460	2460	2460	2460	2460	2460	2460	2478	2478	2478	2478	2478	2478	2478	2478	2478	2478	2496	2496	2496	2496	2496	2514	2514	2514	2514	2514	2514	2532	2532	2532	2532	2532	2514	2514	2532	2532	2532	2532	2532	2532	2532	2532	2532	2532	2532	2532	2532	2532	2532	2532	2514	2514	2532	2532	2532	2514	2514	2514	2514	2532	2532	2532	2532	2532	2532	2532	2532	2532	2532	2532	2532	2532	2532	2532	2532	2532	2551	2551	2551	2551	2551	2551	2532	2532	2514	2514	2514	2514	2514	2514	2514	2514	2514	2514	2514	2514	2514	2514	2514	2514	2514	2514	2514	2514	2514	2514	2514	2514	2514	2514	2514	2514	2514	2514	2514	2514	2532	2532	2532	2532	2532	2532	2551	2532	2532	2532	2551	2551	2551	2532	2532	2551	2551	2551	2551	2551	2570	2570	2570	2570	2570	2589	2589	2589	2589	2589	2589	2609	2609	2609	2589	2589	2589	2589	2589	2589	2589	2589	2570	2570	2570	2589	2589	2589	2589	2589	2589	2589	2589	2589	2589	2589	2589	2589	2589	2609	2609	2609	2609	2609	2609	2609	2609	2609	2609	2609	2609	2609	2609	2609	2609	2609	2629	2629	2629	2629	2629	2629	2629	2629	2629	2629	2629	2629	2629	2629	2629	2629	2629	2629	2629	2629	2649	2649	2649	2649	2629	2629	2629	2629	2629	2609	2609	2629	2629	2629	2629	2629	2629	2629	2629	2649	2649	2649	2649	2649	2649	2649	2649	2649	2649	2649	2649	2649	2649	2649	2649	2649	2649	2669	2669	2669	2669	2669	2669	2669	2669	2669	2669	2690	2690	2690	2690	2690	2690	2690	2690	2690	2690	2690	2690	2690	2690	2669	2669	2669	2669	2669	2669	2669	2669	2669	2669	2669	2669	2690	2690	2690	2690	2690	2690	2690	2690	2690	2690	2690	2690	2690	2690	2690	2690	2711	2711	2733	2711	2711	2711	2711	2733	2711	2711	2733	2733	2733	2733	2733	2711	2711	2733	2733	2733	2754	2754	2754	2754	2754	2754	2754	2754	2754	2754	2733	2733	2733	2733	2733	2733	2733	2733	2754	2754	2754	2754	2754	2754	2754	2754	2754
2208	2208	2208	2208	2208	2208	2208	2208	2208	2208	2208	2208	2208	2208	2208	2208	2208	2208	2208	2208	2208	2223	2223	2223	2223	2223	2223	2223	2223	2223	2223	2223	2223	2223	2223	2223	2223	2223	2223	2237	2237	2252	2252	2252	2266	2266	2266	2266	2266	2266	2266	2266	2266	2266	2266	2266	2266	2281	2281	2281	2281	2281	2281	2281	2281	2266	2266	2266	2266	2266	2266	2266	2281	2281	2281	2281	2281	2281	2297	2297	2281	2281	2297	2297	2312	2312	2312	2312	2312	2312	2312	2312	2312	2312	2312	2312	2312	2312	2312	2312	2312	2312	2327	2327	2327	2327	2327	2327	2327	2327	2327	2327	2327	2327	2327	2327	2327	2327	2327	2343	2343	2343	2343	2327	2327	2343	2327	2327	2327	2327	2327	2327	2327	2327	2327	2327	2327	2343	2343	2343	2343	2343	2343	2343	2359	2359	2359	2359	2359	2376	2376	2359	2359	2359	2359	2359	2359	2359	2359	2359	2359	2359	2376	2376	2376	2376	2376	2376	2376	2376	2376	2376	2376	2376	2376	2376	2376	2376	2392	2392	2376	2376	2376	2376	2392	2392	2392	2392	2392	2392	2392	2392	2392	2409	2409	2409	2409	2409	2409	2409	2409	2409	2409	2409	2409	2409	2409	2409	2409	2409	2409	2426	2426	2426	2426	2426	2426	2426	2426	2426	2443	2443	2443	2443	2443	2443	2443	2443	2460	2460	2460	2460	2478	2460	2460	2478	2478	2460	2460	2460	2460	2460	2460	2460	2460	2460	2460	2460	2460	2460	2460	2460	2460	2460	2460	2460	2460	2478	2478	2478	2478	2478	2478	2478	2478	2478	2478	2478	2496	2496	2496	2496	2496	2496	2496	2496	2496	2514	2514	2514	2514	2514	2514	2514	2532	2514	2514	2532	2532	2532	2532	2532	2532	2551	2551	2551	2532	2532	2532	2532	2532	2532	2532	2514	2514	2532	2532	2532	2532	2532	2532	2532	2532	2532	2532	2532	2532	2532	2532	2532	2532	2532	2532	2532	2532	2532	2551	2532	2532	2551	2570	2570	2551	2551	2551	2532	2532	2514	2514	2514	2514	2514	2514	2514	2514	2514	2514	2514	2514	2514	2532	2514	2514	2514	2514	2514	2514	2514	2514	2514	2514	2514	2514	2514	2514	2514	2514	2514	2514	2532	2532	2532	2532	2532	2532	2532	2532	2532	2532	2551	2551	2551	2532	2532	2551	2551	2551	2551	2551	2570	2570	2570	2570	2589	2589	2589	2589	2609	2609	2609	2609	2609	2609	2609	2589	2589	2609	2589	2589	2609	2609	2589	2589	2589	2589	2589	2589	2589	2589	2609	2609	2589	2589	2589	2609	2609	2609	2609	2629	2629	2629	2629	2629	2629	2629	2629	2629	2629	2629	2629	2629	2629	2629	2629	2629	2629	2629	2629	2629	2629	2629	2629	2629	2629	2649	2649	2629	2629	2629	2629	2629	2649	2649	2649	2649	2649	2649	2649	2649	2629	2629	2629	2629	2629	2629	2629	2629	2629	2629	2629	2629	2649	2649	2649	2649	2649	2649	2649	2649	2649	2649	2649	2649	2649	2649	2649	2649	2649	2649	2649	2649	2649	2669	2669	2669	2669	2669	2690	2690	2690	2690	2690	2690	2690	2690	2690	2690	2690	2690	2690	2690	2690	2690	2690	2690	2690	2669	2669	2669	2669	2669	2669	2669	2669	2669	2669	2690	2690	2690	2690	2690	2690	2690	2690	2690	2690	2690	2690	2690	2690	2711	2711	2711	2711	2711	2733	2733	2711	2711	2733	2733	2733	2733	2733	2733	2733	2733	2733	2733	2711	2711	2733	2733	2754	2754	2754	2754	2754	2754	2754	2754	2754	2754	2754	2754	2754	2754	2733	2733	2754	2754	2754	2754	2754	2754	2754	2754	2754	2754	2754	2754
2208	2208	2208	2208	2208	2194	2194	2208	2208	2208	2208	2208	2208	2208	2208	2208	2208	2208	2208	2208	2208	2208	2223	2223	2223	2223	2223	2223	2223	2223	2223	2223	2223	2223	2223	2223	2223	2223	2223	2237	2237	2252	2252	2252	2252	2252	2252	2252	2266	2266	2266	2266	2266	2266	2266	2266	2266	2281	2281	2281	2281	2281	2281	2281	2281	2266	2266	2266	2266	2266	2266	2266	2266	2281	2281	2281	2281	2281	2297	2297	2281	2281	2297	2297	2312	2297	2297	2312	2312	2312	2312	2312	2312	2312	2312	2312	2312	2312	2312	2312	2312	2312	2312	2312	2327	2327	2327	2327	2327	2327	2327	2327	2327	2327	2327	2327	2327	2327	2327	2327	2327	2343	2343	2327	2327	2327	2327	2327	2327	2327	2327	2327	2343	2343	2343	2327	2327	2327	2343	2343	2343	2343	2343	2343	2359	2359	2359	2359	2359	2359	2359	2359	2359	2359	2359	2359	2359	2359	2359	2359	2359	2359	2359	2376	2376	2376	2376	2376	2376	2376	2376	2376	2376	2376	2376	2376	2376	2392	2392	2392	2376	2376	2376	2376	2392	2392	2392	2392	2392	2392	2392	2392	2392	2409	2392	2392	2409	2409	2409	2409	2409	2409	2409	2409	2409	2409	2409	2426	2409	2409	2426	2426	2426	2426	2426	2426	2426	2426	2426	2426	2443	2443	2443	2443	2443	2443	2443	2443	2460	2460	2460	2460	2478	2460	2460	2478	2478	2460	2460	2460	2460	2460	2460	2460	2460	2460	2460	2460	2460	2460	2460	2460	2460	2460	2478	2478	2478	2478	2478	2478	2478	2478	2478	2496	2478	2478	2478	2478	2496	2496	2496	2496	2496	2496	2496	2496	2496	2514	2514	2514	2514	2514	2514	2514	2514	2514	2514	2532	2532	2532	2532	2532	2551	2551	2551	2551	2532	2532	2532	2532	2532	2514	2514	2532	2532	2532	2532	2532	2532	2532	2532	2532	2532	2532	2532	2532	2532	2532	2532	2532	2551	2551	2551	2551	2551	2551	2551	2551	2551	2551	2570	2570	2570	2570	2570	2532	2532	2514	2514	2514	2514	2514	2514	2514	2514	2514	2514	2514	2514	2514	2514	2514	2514	2496	2496	2514	2514	2514	2514	2514	2514	2514	2514	2496	2496	2514	2514	2514	2514	2514	2532	2532	2532	2532	2532	2532	2532	2532	2532	2551	2551	2551	2532	2532	2551	2551	2551	2551	2570	2570	2570	2589	2589	2589	2589	2589	2609	2609	2609	2609	2609	2609	2609	2609	2609	2609	2609	2609	2609	2609	2609	2609	2609	2609	2609	2609	2609	2609	2609	2609	2609	2609	2629	2629	2629	2629	2629	2629	2629	2629	2629	2629	2629	2629	2629	2629	2629	2629	2629	2629	2629	2629	2629	2629	2629	2629	2629	2629	2629	2649	2649	2649	2629	2629	2649	2649	2649	2649	2649	2649	2649	2649	2649	2649	2649	2649	2649	2649	2649	2629	2629	2629	2629	2629	2629	2629	2629	2629	2629	2629	2649	2649	2649	2649	2669	2669	2669	2669	2669	2669	2669	2669	2669	2669	2669	2649	2649	2649	2649	2649	2649	2649	2669	2669	2669	2669	2690	2690	2690	2690	2690	2690	2690	2690	2690	2690	2690	2690	2690	2690	2690	2690	2690	2690	2690	2690	2669	2669	2669	2669	2669	2690	2690	2690	2690	2690	2690	2690	2690	2690	2690	2690	2690	2690	2711	2690	2690	2711	2711	2711	2711	2711	2711	2711	2733	2733	2733	2733	2733	2733	2733	2733	2733	2733	2733	2733	2754	2754	2754	2733	2733	2754	2754	2754	2754	2754	2754	2754	2754	2754	2754	2754	2754	2754	2754	2754	2754	2754	2754	2754	2754	2754	2754	2754	2754	2754	2754	2754	2754	2754	2754
2194	2194	2208	2208	2194	2194	2194	2208	2208	2208	2208	2208	2208	2208	2208	2208	2208	2208	2208	2208	2208	2208	2223	2223	2223	2223	2223	2223	2223	2223	2223	2208	2208	2208	2223	2223	2223	2223	2223	2237	2237	2237	2237	2252	2252	2252	2252	2252	2252	2252	2266	2266	2266	2266	2266	2266	2266	2281	2281	2281	2281	2281	2281	2281	2281	2266	2266	2266	2266	2266	2266	2266	2266	2266	2281	2281	2281	2281	2281	2281	2281	2297	2297	2297	2297	2297	2297	2297	2297	2297	2297	2297	2297	2312	2312	2312	2312	2312	2312	2312	2312	2312	2312	2312	2312	2312	2312	2312	2312	2312	2312	2312	2327	2327	2327	2327	2327	2327	2327	2327	2327	2327	2343	2327	2327	2327	2327	2327	2327	2327	2327	2327	2327	2327	2327	2327	2327	2327	2343	2343	2343	2343	2343	2343	2343	2359	2359	2359	2359	2359	2359	2359	2359	2359	2359	2359	2359	2359	2359	2359	2359	2359	2359	2359	2359	2376	2376	2376	2376	2376	2376	2376	2376	2376	2376	2376	2376	2376	2376	2376	2376	2376	2376	2376	2392	2392	2392	2392	2392	2392	2392	2392	2392	2392	2392	2392	2392	2409	2409	2409	2409	2409	2409	2409	2409	2409	2409	2426	2426	2426	2426	2426	2426	2426	2426	2426	2426	2426	2426	2426	2443	2443	2443	2443	2443	2443	2443	2443	2443	2443	2460	2460	2478	2460	2460	2478	2478	2460	2460	2460	2460	2460	2460	2460	2460	2460	2460	2460	2460	2460	2460	2460	2460	2460	2478	2478	2478	2478	2478	2478	2478	2478	2478	2478	2478	2478	2496	2496	2496	2496	2496	2496	2496	2496	2496	2496	2496	2496	2496	2496	2514	2514	2514	2514	2514	2514	2514	2514	2514	2532	2532	2532	2532	2551	2551	2551	2532	2514	2514	2514	2514	2514	2514	2532	2532	2532	2532	2532	2532	2532	2532	2532	2532	2532	2532	2532	2532	2532	2532	2532	2551	2551	2551	2551	2551	2551	2551	2551	2551	2551	2570	2570	2570	2570	2551	2532	2532	2532	2532	2514	2514	2514	2514	2514	2514	2514	2514	2514	2514	2514	2514	2514	2514	2496	2496	2496	2496	2496	2496	2496	2496	2496	2496	2496	2496	2514	2514	2514	2514	2514	2514	2514	2532	2532	2532	2532	2532	2532	2532	2532	2532	2532	2532	2532	2551	2551	2551	2551	2570	2570	2570	2589	2589	2589	2609	2609	2609	2629	2629	2629	2629	2629	2629	2629	2609	2609	2629	2609	2609	2609	2609	2609	2609	2609	2609	2609	2609	2609	2609	2609	2609	2609	2629	2629	2629	2629	2629	2629	2629	2629	2629	2629	2629	2629	2629	2629	2629	2629	2629	2629	2629	2629	2629	2629	2649	2649	2649	2649	2649	2649	2649	2649	2629	2629	2649	2649	2649	2649	2649	2649	2649	2649	2649	2649	2649	2649	2649	2649	2649	2629	2629	2629	2629	2629	2629	2629	2629	2629	2649	2649	2649	2649	2649	2669	2669	2669	2669	2669	2669	2669	2669	2669	2669	2669	2669	2669	2669	2669	2669	2669	2669	2669	2669	2669	2669	2669	2690	2690	2690	2690	2690	2690	2690	2690	2690	2690	2690	2690	2690	2690	2690	2690	2690	2690	2690	2711	2669	2669	2690	2690	2690	2690	2690	2690	2690	2690	2690	2690	2690	2690	2690	2690	2711	2711	2711	2711	2711	2711	2711	2711	2733	2733	2733	2733	2733	2733	2733	2733	2733	2733	2733	2733	2733	2733	2754	2754	2754	2754	2754	2754	2754	2754	2754	2754	2754	2754	2754	2754	2754	2754	2777	2777	2777	2777	2754	2754	2754	2754	2754	2754	2754	2754	2754	2754	2754	2754	2777	2754	2754	2777	2777
2194	2194	2194	2194	2194	2194	2194	2208	2194	2194	2208	2194	2194	2208	2208	2208	2208	2208	2208	2208	2208	2208	2208	2208	2208	2223	2223	2223	2223	2223	2223	2208	2208	2208	2223	2223	2223	2223	2223	2237	2237	2237	2237	2252	2252	2252	2252	2252	2252	2252	2266	2252	2252	2266	2266	2266	2266	2266	2266	2281	2281	2266	2266	2281	2281	2266	2252	2252	2266	2266	2266	2266	2266	2266	2266	2281	2281	2281	2281	2281	2281	2281	2281	2297	2297	2297	2297	2297	2297	2297	2297	2297	2297	2312	2312	2312	2312	2312	2312	2312	2312	2312	2312	2312	2312	2312	2312	2312	2312	2312	2312	2312	2312	2312	2312	2327	2327	2327	2327	2327	2327	2327	2327	2312	2312	2312	2312	2312	2312	2327	2327	2327	2327	2327	2327	2327	2327	2327	2343	2343	2343	2343	2343	2343	2343	2359	2359	2359	2359	2359	2359	2359	2359	2359	2359	2359	2359	2359	2359	2359	2359	2359	2359	2359	2359	2359	2359	2376	2376	2376	2376	2376	2359	2359	2359	2359	2359	2376	2376	2376	2359	2359	2376	2376	2376	2376	2376	2392	2392	2392	2392	2392	2392	2392	2392	2392	2392	2392	2409	2392	2392	2409	2409	2409	2409	2409	2409	2409	2409	2426	2426	2426	2426	2426	2426	2426	2426	2426	2443	2443	2443	2443	2443	2443	2443	2443	2443	2443	2443	2443	2460	2478	2478	2460	2460	2478	2478	2478	2460	2460	2460	2460	2460	2460	2460	2460	2460	2460	2460	2460	2460	2460	2460	2460	2478	2478	2478	2478	2478	2478	2478	2478	2478	2478	2478	2478	2478	2478	2496	2496	2496	2496	2496	2496	2496	2496	2496	2496	2496	2496	2514	2514	2514	2514	2514	2514	2514	2514	2514	2532	2532	2532	2532	2532	2532	2532	2514	2514	2514	2514	2514	2514	2514	2532	2532	2532	2532	2532	2532	2532	2532	2532	2532	2532	2532	2532	2532	2532	2532	2532	2551	2551	2551	2551	2551	2551	2551	2551	2551	2551	2570	2570	2570	2570	2551	2532	2532	2532	2532	2514	2514	2514	2514	2514	2496	2496	2496	2496	2514	2514	2514	2514	2514	2496	2496	2496	2496	2496	2496	2496	2496	2496	2496	2496	2496	2514	2514	2514	2514	2514	2514	2514	2514	2514	2514	2532	2532	2532	2532	2532	2532	2532	2532	2532	2532	2532	2532	2551	2551	2570	2570	2589	2589	2609	2609	2609	2629	2629	2629	2629	2629	2629	2629	2649	2629	2629	2649	2629	2629	2629	2629	2609	2609	2609	2609	2609	2609	2609	2609	2629	2629	2629	2629	2629	2629	2629	2649	2649	2649	2649	2649	2649	2649	2649	2629	2629	2649	2629	2629	2629	2649	2649	2649	2649	2649	2649	2649	2649	2649	2649	2649	2649	2649	2649	2649	2649	2649	2649	2649	2649	2649	2649	2649	2649	2649	2649	2649	2649	2649	2629	2629	2629	2629	2629	2629	2629	2649	2649	2649	2649	2669	2669	2669	2669	2669	2690	2690	2690	2690	2690	2690	2690	2690	2690	2669	2669	2669	2669	2669	2669	2669	2669	2690	2690	2690	2690	2690	2690	2690	2690	2690	2690	2690	2690	2711	2690	2690	2690	2690	2711	2711	2711	2711	2711	2711	2711	2690	2690	2690	2690	2690	2711	2711	2711	2690	2690	2690	2690	2690	2690	2690	2711	2711	2711	2733	2733	2733	2733	2733	2733	2733	2733	2733	2733	2733	2733	2733	2733	2733	2733	2733	2733	2733	2733	2754	2754	2754	2754	2754	2754	2754	2754	2754	2777	2777	2777	2777	2777	2777	2777	2777	2777	2777	2777	2754	2754	2754	2754	2754	2754	2777	2777	2777	2777	2777	2777	2777	2754	2754	2777	2777
2194	2194	2181	2181	2194	2194	2194	2181	2181	2194	2194	2181	2181	2194	2194	2194	2194	2208	2208	2208	2208	2208	2208	2208	2208	2208	2208	2223	2223	2208	2208	2208	2208	2223	2223	2223	2223	2223	2223	2237	2237	2237	2237	2252	2252	2252	2252	2252	2252	2252	2266	2252	2252	2266	2266	2266	2266	2266	2266	2266	2266	2266	2266	2266	2266	2252	2252	2252	2266	2266	2266	2266	2266	2266	2266	2266	2266	2266	2266	2266	2281	2281	2281	2281	2281	2281	2281	2297	2297	2297	2297	2297	2297	2297	2297	2297	2297	2297	2312	2312	2312	2312	2312	2312	2312	2312	2312	2312	2312	2312	2312	2312	2312	2312	2312	2327	2327	2327	2327	2327	2327	2327	2327	2312	2312	2312	2312	2312	2312	2312	2312	2327	2327	2327	2327	2327	2327	2327	2343	2343	2327	2327	2327	2327	2343	2343	2343	2359	2359	2359	2359	2359	2359	2343	2343	2359	2359	2359	2359	2359	2359	2359	2359	2359	2359	2359	2359	2359	2359	2359	2376	2359	2359	2359	2359	2359	2359	2376	2376	2376	2359	2359	2359	2376	2376	2376	2376	2376	2376	2392	2392	2392	2392	2392	2376	2376	2392	2392	2392	2392	2392	2409	2409	2409	2409	2409	2409	2409	2409	2426	2426	2409	2409	2426	2426	2426	2426	2426	2426	2426	2426	2426	2443	2443	2426	2426	2443	2443	2443	2443	2460	2478	2478	2460	2460	2478	2478	2478	2460	2460	2460	2460	2460	2460	2460	2460	2460	2460	2460	2460	2460	2460	2460	2460	2478	2478	2478	2478	2478	2478	2478	2478	2478	2478	2478	2478	2478	2478	2478	2478	2478	2496	2496	2496	2496	2496	2496	2496	2496	2496	2496	2496	2496	2496	2496	2496	2514	2514	2514	2514	2514	2532	2532	2532	2532	2532	2514	2514	2514	2514	2514	2514	2514	2532	2532	2532	2532	2532	2532	2532	2532	2532	2532	2532	2532	2532	2532	2551	2551	2551	2551	2551	2551	2551	2551	2551	2551	2551	2551	2570	2570	2551	2551	2532	2532	2532	2532	2532	2532	2514	2514	2514	2514	2514	2496	2496	2496	2496	2514	2514	2514	2514	2514	2496	2496	2496	2496	2496	2496	2496	2496	2496	2496	2496	2496	2514	2514	2514	2514	2514	2514	2514	2514	2514	2514	2514	2532	2532	2532	2532	2532	2532	2532	2532	2532	2532	2532	2551	2551	2570	2570	2589	2609	2609	2609	2629	2629	2629	2629	2629	2649	2649	2649	2649	2649	2649	2649	2649	2649	2649	2649	2629	2629	2629	2609	2609	2629	2629	2629	2629	2629	2629	2629	2629	2629	2649	2649	2649	2649	2649	2649	2649	2649	2649	2649	2649	2649	2649	2649	2649	2649	2649	2649	2649	2649	2649	2649	2649	2649	2649	2649	2649	2649	2649	2649	2649	2649	2649	2649	2649	2649	2649	2649	2649	2649	2649	2669	2649	2649	2629	2629	2629	2629	2649	2649	2649	2649	2649	2669	2669	2690	2669	2669	2690	2690	2690	2690	2690	2690	2690	2690	2690	2690	2690	2690	2690	2690	2690	2690	2690	2690	2690	2690	2690	2690	2690	2690	2690	2690	2690	2690	2690	2690	2711	2711	2711	2711	2711	2711	2711	2711	2711	2711	2711	2711	2711	2690	2690	2690	2690	2711	2733	2733	2711	2711	2711	2711	2711	2690	2690	2711	2711	2711	2733	2733	2733	2733	2733	2733	2733	2733	2733	2733	2733	2733	2754	2733	2733	2733	2754	2733	2733	2754	2754	2754	2754	2754	2754	2754	2777	2777	2777	2777	2777	2777	2777	2777	2777	2777	2777	2777	2777	2777	2777	2754	2754	2754	2754	2777	2777	2777	2777	2777	2777	2777	2777	2777	2777	2777	2799	2799
2181	2181	2181	2181	2194	2194	2194	2181	2181	2181	2181	2181	2181	2194	2194	2194	2194	2194	2194	2194	2208	2208	2208	2208	2208	2208	2208	2223	2208	2208	2208	2208	2223	2208	2208	2223	2223	2223	2223	2237	2237	2237	2237	2237	2252	2252	2252	2252	2252	2252	2252	2252	2252	2266	2266	2266	2266	2266	2266	2266	2266	2266	2266	2266	2266	2252	2252	2252	2266	2266	2266	2266	2266	2266	2266	2266	2266	2266	2266	2266	2281	2281	2281	2281	2281	2281	2281	2297	2297	2297	2297	2297	2297	2297	2297	2297	2297	2297	2297	2297	2312	2312	2312	2312	2312	2312	2312	2312	2312	2312	2312	2312	2312	2312	2312	2327	2327	2327	2327	2327	2327	2327	2327	2312	2312	2312	2312	2312	2312	2312	2312	2327	2312	2312	2312	2312	2312	2312	2327	2343	2327	2327	2327	2327	2343	2343	2343	2343	2343	2343	2343	2343	2359	2343	2343	2343	2359	2359	2359	2359	2359	2359	2359	2359	2359	2359	2359	2359	2359	2359	2359	2359	2359	2359	2359	2359	2359	2376	2376	2376	2359	2359	2359	2376	2376	2359	2359	2376	2376	2376	2376	2376	2392	2392	2376	2376	2376	2392	2392	2392	2392	2392	2409	2409	2409	2409	2409	2409	2409	2409	2409	2409	2409	2409	2409	2426	2426	2426	2426	2426	2426	2426	2443	2443	2426	2426	2443	2443	2443	2443	2460	2460	2460	2460	2460	2478	2478	2478	2460	2460	2443	2443	2460	2460	2460	2460	2460	2460	2460	2460	2460	2460	2460	2460	2478	2478	2478	2478	2478	2478	2478	2478	2478	2478	2478	2478	2478	2478	2478	2478	2478	2478	2478	2496	2496	2496	2496	2496	2496	2496	2496	2496	2496	2496	2496	2496	2496	2496	2496	2514	2514	2514	2514	2532	2532	2532	2514	2514	2514	2514	2514	2514	2532	2532	2532	2532	2532	2532	2532	2532	2532	2532	2532	2532	2532	2532	2532	2532	2551	2551	2551	2551	2551	2551	2551	2570	2570	2551	2551	2551	2551	2551	2532	2532	2532	2514	2514	2532	2532	2514	2514	2514	2496	2496	2496	2496	2496	2496	2496	2496	2496	2496	2496	2496	2496	2496	2496	2496	2496	2496	2496	2496	2496	2496	2496	2496	2514	2514	2514	2514	2514	2514	2514	2514	2514	2514	2514	2514	2514	2514	2514	2514	2532	2532	2532	2532	2532	2551	2551	2570	2570	2589	2609	2609	2629	2629	2629	2649	2649	2649	2649	2649	2649	2649	2649	2649	2649	2669	2649	2649	2649	2629	2629	2629	2629	2629	2629	2629	2629	2629	2629	2629	2629	2649	2649	2649	2649	2649	2649	2649	2649	2649	2649	2649	2649	2649	2649	2649	2649	2649	2649	2649	2649	2649	2649	2649	2649	2649	2649	2649	2649	2649	2649	2649	2649	2649	2649	2649	2669	2669	2669	2669	2669	2669	2669	2669	2669	2669	2649	2629	2629	2629	2649	2649	2649	2649	2669	2669	2669	2669	2690	2690	2690	2690	2690	2690	2690	2690	2690	2690	2690	2690	2690	2690	2690	2690	2690	2690	2690	2690	2690	2690	2711	2690	2690	2690	2711	2711	2711	2711	2711	2711	2711	2711	2711	2711	2711	2711	2711	2711	2733	2733	2733	2733	2733	2733	2711	2690	2690	2690	2711	2733	2733	2733	2733	2733	2733	2733	2711	2711	2711	2711	2711	2733	2733	2733	2733	2754	2754	2754	2754	2754	2754	2754	2754	2754	2754	2754	2754	2754	2754	2754	2754	2754	2754	2754	2754	2777	2777	2777	2777	2777	2777	2799	2799	2799	2799	2777	2777	2777	2777	2777	2777	2777	2777	2777	2777	2777	2777	2777	2799	2799	2777	2777	2777	2799	2799	2777	2777	2799	2799
2181	2181	2181	2181	2181	2181	2181	2167	2167	2167	2167	2167	2167	2181	2181	2194	2194	2194	2194	2194	2194	2208	2208	2208	2208	2208	2208	2208	2208	2208	2208	2208	2208	2208	2208	2223	2223	2223	2223	2237	2237	2237	2237	2237	2252	2252	2252	2252	2252	2252	2252	2252	2252	2252	2252	2252	2266	2266	2266	2266	2266	2266	2266	2266	2266	2252	2252	2252	2252	2266	2266	2266	2252	2252	2266	2266	2266	2266	2266	2266	2266	2266	2266	2281	2281	2281	2281	2281	2281	2297	2297	2281	2281	2297	2281	2281	2281	2297	2297	2297	2297	2297	2312	2312	2312	2312	2312	2297	2297	2312	2312	2312	2312	2312	2312	2312	2312	2327	2327	2327	2327	2327	2327	2312	2312	2312	2312	2312	2312	2312	2312	2312	2312	2312	2312	2312	2312	2312	2327	2327	2327	2327	2327	2327	2327	2327	2327	2327	2327	2327	2343	2343	2359	2343	2343	2343	2359	2359	2359	2359	2359	2359	2359	2359	2359	2359	2359	2359	2359	2359	2359	2359	2359	2359	2359	2359	2359	2359	2359	2359	2359	2359	2359	2359	2359	2359	2359	2376	2376	2376	2376	2376	2376	2392	2376	2376	2376	2376	2376	2392	2392	2392	2392	2409	2409	2409	2409	2409	2409	2409	2409	2409	2409	2409	2409	2426	2426	2426	2426	2426	2426	2426	2426	2426	2426	2426	2426	2426	2443	2443	2443	2460	2460	2460	2460	2478	2478	2478	2443	2443	2443	2443	2443	2443	2460	2443	2443	2460	2460	2460	2460	2460	2460	2460	2478	2478	2478	2478	2478	2478	2478	2478	2478	2478	2478	2478	2478	2478	2478	2478	2478	2478	2478	2478	2496	2496	2496	2496	2478	2478	2496	2496	2478	2478	2496	2496	2496	2496	2496	2514	2514	2514	2514	2532	2532	2532	2514	2514	2514	2514	2514	2514	2514	2532	2532	2532	2532	2532	2514	2514	2532	2532	2532	2532	2532	2532	2532	2532	2532	2551	2551	2551	2551	2551	2551	2570	2551	2551	2551	2551	2551	2551	2532	2532	2532	2514	2514	2514	2514	2514	2514	2514	2496	2496	2496	2496	2496	2496	2496	2496	2496	2496	2496	2478	2478	2478	2478	2478	2478	2496	2496	2496	2496	2496	2496	2496	2496	2496	2514	2514	2514	2514	2514	2514	2514	2514	2514	2514	2514	2514	2514	2514	2514	2514	2514	2532	2532	2532	2551	2570	2570	2589	2609	2609	2629	2629	2649	2649	2649	2649	2649	2649	2649	2649	2649	2649	2649	2669	2649	2649	2649	2629	2629	2629	2629	2629	2629	2629	2629	2629	2629	2629	2649	2649	2649	2649	2649	2649	2649	2649	2649	2649	2649	2669	2669	2669	2669	2649	2649	2649	2649	2649	2649	2649	2649	2649	2669	2669	2649	2649	2669	2669	2649	2649	2669	2669	2669	2669	2669	2669	2669	2690	2690	2690	2669	2669	2690	2669	2669	2649	2649	2649	2669	2669	2669	2669	2669	2690	2690	2690	2690	2690	2690	2690	2690	2690	2690	2711	2711	2711	2690	2690	2690	2690	2690	2690	2690	2690	2690	2711	2711	2711	2711	2711	2711	2711	2711	2711	2711	2711	2711	2711	2711	2711	2711	2733	2733	2733	2733	2733	2733	2754	2754	2754	2733	2733	2733	2733	2711	2711	2711	2733	2733	2733	2733	2733	2733	2733	2711	2711	2733	2733	2733	2733	2733	2754	2754	2754	2754	2754	2754	2754	2754	2754	2754	2754	2754	2754	2754	2754	2754	2754	2754	2777	2777	2777	2777	2777	2777	2777	2777	2777	2777	2777	2799	2799	2799	2799	2799	2799	2799	2799	2799	2799	2799	2799	2777	2777	2799	2799	2799	2799	2777	2777	2777	2799	2799	2777	2777	2799	2799
2181	2181	2181	2181	2181	2181	2181	2167	2167	2167	2167	2167	2167	2181	2181	2181	2181	2194	2194	2194	2194	2208	2208	2208	2208	2208	2208	2208	2208	2208	2208	2208	2208	2208	2223	2223	2223	2223	2223	2223	2223	2223	2237	2237	2252	2252	2252	2252	2252	2252	2252	2252	2252	2252	2252	2252	2252	2266	2266	2266	2266	2266	2266	2266	2266	2252	2252	2252	2252	2252	2252	2252	2252	2252	2266	2266	2266	2266	2266	2266	2266	2266	2266	2266	2281	2281	2281	2281	2281	2281	2281	2281	2281	2281	2281	2281	2281	2281	2297	2297	2297	2297	2297	2297	2297	2297	2297	2297	2297	2297	2297	2312	2312	2312	2312	2312	2312	2312	2312	2327	2327	2327	2327	2312	2312	2312	2312	2312	2312	2312	2312	2312	2312	2312	2312	2312	2312	2312	2343	2327	2327	2327	2327	2327	2327	2327	2312	2312	2327	2327	2327	2343	2343	2343	2343	2343	2359	2359	2359	2359	2359	2359	2359	2359	2359	2359	2359	2359	2359	2359	2359	2359	2359	2359	2359	2359	2359	2359	2359	2359	2359	2359	2359	2359	2359	2359	2359	2359	2359	2359	2376	2376	2376	2376	2376	2376	2376	2376	2376	2392	2392	2392	2392	2392	2409	2409	2409	2409	2409	2409	2409	2409	2409	2409	2426	2426	2426	2426	2426	2426	2426	2426	2426	2426	2426	2426	2426	2426	2426	2426	2426	2426	2443	2443	2443	2460	2478	2478	2443	2443	2443	2443	2443	2443	2443	2443	2443	2460	2443	2443	2460	2460	2460	2460	2460	2460	2460	2478	2478	2478	2478	2478	2460	2460	2460	2478	2478	2478	2478	2478	2478	2478	2478	2478	2478	2478	2478	2478	2478	2478	2496	2496	2478	2478	2496	2496	2478	2478	2496	2514	2514	2532	2532	2532	2532	2532	2514	2514	2514	2514	2514	2514	2514	2532	2532	2532	2514	2514	2514	2514	2532	2532	2532	2532	2532	2532	2532	2532	2532	2551	2551	2551	2551	2551	2551	2570	2551	2551	2551	2551	2551	2532	2532	2532	2532	2514	2514	2514	2514	2514	2496	2496	2496	2496	2496	2496	2496	2496	2496	2496	2496	2496	2496	2478	2460	2460	2478	2478	2478	2478	2478	2478	2496	2496	2496	2496	2496	2496	2496	2514	2514	2514	2514	2514	2514	2514	2514	2514	2514	2514	2514	2514	2514	2514	2514	2514	2532	2532	2551	2570	2570	2589	2609	2609	2629	2629	2649	2649	2649	2649	2649	2649	2649	2669	2669	2669	2669	2669	2669	2669	2649	2629	2629	2629	2629	2629	2629	2629	2629	2629	2629	2629	2649	2649	2649	2649	2649	2649	2649	2649	2669	2669	2669	2669	2669	2669	2669	2649	2649	2649	2669	2649	2649	2669	2669	2669	2669	2669	2669	2669	2669	2669	2669	2669	2669	2669	2669	2669	2669	2690	2690	2690	2690	2690	2690	2690	2690	2690	2669	2669	2669	2669	2669	2669	2669	2669	2690	2690	2690	2690	2690	2690	2690	2690	2690	2690	2690	2711	2711	2711	2711	2711	2711	2711	2711	2711	2711	2711	2711	2711	2711	2711	2711	2711	2711	2711	2711	2711	2711	2711	2733	2733	2733	2733	2733	2733	2733	2733	2733	2733	2754	2754	2754	2754	2754	2754	2733	2733	2733	2711	2711	2733	2733	2733	2733	2733	2733	2733	2733	2733	2733	2733	2733	2733	2754	2754	2754	2754	2754	2754	2754	2754	2754	2754	2754	2754	2754	2754	2754	2754	2754	2754	2754	2777	2777	2777	2777	2777	2777	2777	2777	2777	2777	2777	2799	2799	2799	2799	2799	2799	2799	2799	2799	2799	2799	2799	2799	2799	2799	2799	2799	2799	2799	2799	2799	2799	2799	2777	2777	2799	2799
2181	2181	2181	2181	2181	2181	2181	2167	2167	2167	2167	2167	2167	2167	2181	2181	2181	2181	2194	2194	2194	2194	2194	2194	2194	2194	2208	2208	2208	2208	2208	2208	2208	2208	2223	2223	2223	2223	2223	2223	2223	2223	2237	2237	2237	2237	2237	2237	2237	2252	2252	2252	2252	2252	2252	2252	2252	2252	2252	2252	2252	2252	2252	2266	2266	2252	2252	2252	2252	2252	2252	2252	2252	2252	2252	2252	2252	2252	2266	2266	2266	2266	2266	2266	2266	2266	2266	2281	2281	2281	2281	2281	2281	2281	2281	2281	2281	2281	2281	2297	2297	2297	2297	2297	2297	2297	2297	2297	2297	2297	2297	2312	2312	2312	2312	2312	2312	2312	2312	2312	2312	2312	2312	2297	2297	2297	2312	2312	2312	2312	2312	2312	2312	2327	2312	2312	2312	2312	2327	2327	2327	2327	2327	2327	2327	2327	2312	2312	2312	2312	2327	2343	2343	2343	2343	2343	2343	2343	2359	2359	2359	2359	2359	2359	2359	2359	2359	2359	2359	2359	2359	2359	2359	2359	2359	2359	2359	2359	2359	2359	2343	2343	2359	2359	2359	2359	2359	2359	2359	2359	2359	2359	2376	2376	2376	2376	2376	2376	2376	2392	2392	2392	2392	2392	2409	2409	2409	2409	2409	2409	2409	2409	2409	2409	2409	2426	2426	2426	2426	2426	2426	2426	2426	2426	2426	2426	2426	2426	2426	2426	2426	2426	2443	2443	2443	2443	2460	2478	2443	2426	2426	2443	2443	2443	2443	2443	2443	2443	2443	2443	2443	2460	2460	2460	2460	2460	2460	2460	2478	2478	2478	2478	2460	2460	2460	2460	2460	2460	2460	2478	2478	2478	2478	2478	2478	2478	2478	2478	2478	2478	2496	2496	2496	2496	2496	2496	2478	2478	2478	2514	2514	2532	2532	2532	2532	2532	2514	2514	2514	2514	2514	2514	2514	2514	2514	2514	2514	2514	2514	2514	2514	2514	2532	2532	2532	2532	2532	2532	2532	2532	2532	2551	2551	2551	2551	2551	2551	2551	2551	2551	2551	2532	2532	2532	2532	2532	2532	2514	2514	2514	2496	2496	2496	2496	2478	2478	2478	2478	2478	2478	2478	2478	2478	2460	2460	2460	2460	2460	2478	2478	2478	2478	2478	2496	2496	2496	2496	2496	2496	2496	2496	2496	2496	2496	2496	2496	2496	2514	2514	2514	2514	2514	2514	2514	2514	2514	2532	2532	2532	2551	2570	2589	2609	2609	2629	2629	2649	2649	2649	2649	2649	2649	2649	2669	2669	2669	2669	2669	2669	2669	2669	2629	2629	2629	2629	2629	2629	2629	2629	2629	2649	2649	2649	2649	2649	2649	2649	2649	2649	2669	2669	2669	2669	2669	2669	2669	2669	2669	2669	2669	2669	2669	2669	2669	2669	2669	2669	2669	2669	2669	2690	2690	2690	2690	2690	2690	2690	2690	2690	2690	2690	2690	2690	2690	2690	2690	2690	2690	2690	2669	2669	2669	2690	2690	2690	2690	2690	2690	2690	2690	2690	2690	2690	2690	2690	2690	2711	2711	2711	2711	2711	2711	2711	2711	2711	2711	2711	2711	2711	2711	2711	2711	2711	2711	2711	2711	2711	2711	2711	2733	2733	2733	2733	2733	2733	2733	2733	2754	2754	2754	2754	2754	2777	2754	2754	2754	2733	2733	2733	2733	2733	2733	2733	2733	2733	2733	2733	2733	2733	2733	2754	2754	2754	2754	2754	2754	2754	2754	2754	2754	2754	2754	2777	2777	2777	2777	2777	2777	2777	2777	2777	2777	2777	2777	2777	2777	2777	2777	2777	2777	2777	2777	2777	2777	2799	2799	2799	2799	2799	2822	2822	2799	2799	2822	2799	2799	2799	2799	2799	2799	2799	2799	2799	2799	2799	2799	2799	2799	2799	2799	2799
2181	2181	2167	2167	2181	2181	2181	2167	2167	2167	2167	2167	2167	2167	2167	2181	2181	2181	2181	2194	2194	2194	2194	2194	2194	2194	2208	2208	2208	2208	2208	2208	2208	2208	2208	2223	2223	2223	2223	2223	2223	2223	2223	2223	2237	2237	2237	2237	2237	2237	2237	2237	2237	2252	2252	2252	2252	2252	2252	2252	2252	2252	2252	2252	2252	2252	2252	2252	2252	2252	2252	2252	2252	2252	2252	2252	2252	2252	2252	2252	2266	2266	2266	2266	2266	2266	2266	2281	2281	2266	2266	2266	2266	2281	2281	2281	2281	2281	2281	2297	2297	2297	2297	2297	2297	2297	2297	2297	2297	2297	2297	2312	2312	2312	2312	2312	2312	2312	2312	2312	2312	2312	2312	2297	2297	2297	2312	2312	2312	2312	2312	2312	2312	2312	2312	2312	2312	2312	2327	2327	2327	2327	2312	2312	2312	2327	2312	2312	2312	2312	2327	2327	2343	2327	2327	2343	2343	2343	2343	2343	2343	2343	2343	2343	2359	2343	2343	2343	2359	2359	2359	2359	2359	2359	2359	2359	2359	2359	2359	2359	2343	2343	2359	2359	2359	2359	2359	2359	2359	2359	2359	2359	2359	2376	2359	2359	2376	2376	2376	2376	2376	2376	2376	2392	2392	2392	2392	2392	2409	2409	2409	2409	2409	2409	2409	2409	2409	2409	2409	2409	2409	2426	2426	2426	2426	2426	2426	2426	2426	2426	2426	2426	2426	2426	2426	2443	2443	2443	2426	2426	2426	2426	2426	2426	2443	2443	2443	2443	2443	2443	2443	2443	2460	2460	2460	2460	2460	2460	2460	2460	2478	2478	2460	2460	2460	2460	2460	2460	2460	2478	2478	2478	2478	2478	2478	2478	2478	2478	2478	2478	2496	2496	2496	2496	2478	2478	2478	2478	2478	2514	2514	2514	2514	2532	2532	2532	2496	2496	2496	2514	2514	2514	2514	2514	2514	2514	2514	2514	2514	2514	2514	2514	2532	2532	2532	2532	2532	2532	2532	2532	2532	2532	2532	2551	2551	2551	2551	2551	2551	2551	2551	2532	2532	2532	2532	2532	2514	2514	2514	2496	2496	2496	2478	2478	2478	2478	2478	2478	2478	2478	2478	2478	2478	2460	2460	2460	2460	2460	2460	2478	2478	2478	2478	2496	2496	2496	2496	2496	2496	2496	2496	2496	2496	2496	2496	2496	2496	2496	2496	2496	2496	2514	2514	2514	2514	2514	2514	2514	2532	2551	2570	2589	2609	2629	2629	2649	2649	2649	2649	2649	2649	2649	2649	2649	2649	2669	2669	2669	2669	2669	2669	2629	2629	2629	2629	2629	2629	2629	2629	2629	2649	2649	2649	2649	2649	2649	2669	2669	2669	2669	2669	2669	2669	2669	2669	2669	2669	2669	2669	2669	2669	2669	2669	2669	2669	2669	2669	2669	2690	2690	2690	2690	2690	2690	2711	2690	2690	2711	2711	2711	2711	2711	2711	2711	2711	2711	2711	2711	2690	2690	2690	2690	2690	2690	2690	2690	2690	2690	2690	2690	2690	2690	2690	2690	2690	2690	2711	2711	2711	2711	2711	2711	2711	2711	2711	2711	2711	2711	2711	2711	2711	2711	2733	2733	2733	2733	2733	2733	2733	2733	2754	2733	2733	2754	2754	2754	2754	2754	2754	2777	2777	2777	2777	2754	2754	2754	2733	2733	2733	2733	2733	2733	2733	2754	2754	2754	2754	2754	2754	2754	2754	2754	2754	2754	2754	2754	2754	2777	2777	2777	2777	2777	2777	2777	2777	2777	2777	2777	2777	2777	2777	2777	2777	2777	2777	2777	2777	2777	2777	2777	2777	2777	2777	2799	2799	2799	2822	2822	2822	2822	2822	2822	2822	2822	2822	2822	2822	2822	2822	2822	2822	2822	2822	2822	2822	2822	2822	2822	2822	2822	2799
2167	2167	2167	2167	2181	2181	2181	2167	2167	2167	2167	2167	2167	2167	2167	2167	2167	2167	2167	2181	2181	2181	2194	2194	2194	2194	2194	2208	2208	2194	2194	2208	2208	2208	2208	2208	2208	2208	2223	2223	2223	2223	2223	2223	2223	2223	2223	2237	2237	2237	2237	2237	2237	2237	2237	2237	2237	2237	2252	2252	2252	2237	2237	2252	2252	2237	2237	2237	2252	2252	2252	2252	2252	2252	2252	2252	2252	2252	2252	2252	2252	2266	2266	2266	2266	2266	2266	2281	2281	2266	2266	2266	2266	2281	2281	2281	2281	2281	2281	2297	2297	2297	2297	2297	2297	2297	2297	2297	2297	2297	2297	2297	2297	2297	2297	2312	2312	2312	2312	2312	2312	2312	2312	2297	2297	2297	2297	2312	2312	2312	2312	2312	2312	2312	2312	2312	2312	2312	2312	2312	2312	2312	2312	2312	2312	2327	2312	2312	2312	2312	2327	2327	2327	2327	2327	2343	2343	2343	2343	2343	2343	2343	2343	2343	2343	2343	2343	2343	2343	2359	2359	2359	2359	2359	2359	2359	2359	2359	2359	2359	2343	2343	2359	2359	2359	2359	2359	2359	2359	2359	2359	2359	2359	2376	2359	2359	2376	2376	2376	2376	2376	2376	2376	2392	2392	2392	2392	2392	2392	2409	2409	2409	2409	2409	2409	2409	2409	2409	2409	2409	2409	2409	2409	2409	2409	2426	2409	2409	2409	2426	2426	2426	2426	2426	2426	2426	2426	2426	2426	2426	2426	2426	2426	2426	2426	2426	2426	2426	2426	2426	2443	2443	2443	2443	2460	2460	2460	2460	2460	2460	2478	2478	2460	2460	2460	2460	2460	2460	2460	2460	2478	2478	2478	2478	2478	2478	2478	2496	2478	2478	2478	2478	2478	2478	2478	2478	2478	2478	2496	2496	2496	2496	2496	2514	2514	2514	2496	2496	2496	2496	2514	2514	2514	2514	2514	2514	2514	2514	2496	2496	2514	2514	2514	2532	2532	2532	2532	2532	2532	2532	2532	2532	2532	2532	2551	2551	2551	2551	2551	2551	2551	2551	2532	2532	2532	2532	2514	2514	2514	2496	2478	2478	2478	2478	2478	2460	2460	2478	2478	2460	2460	2460	2460	2443	2443	2443	2443	2460	2460	2460	2460	2460	2478	2496	2496	2496	2496	2496	2496	2496	2496	2496	2496	2496	2496	2496	2496	2496	2496	2496	2496	2496	2496	2496	2514	2514	2514	2514	2514	2532	2551	2589	2609	2629	2629	2649	2649	2649	2649	2649	2649	2649	2649	2649	2649	2649	2669	2669	2669	2649	2649	2629	2629	2629	2629	2629	2629	2629	2649	2649	2649	2649	2649	2649	2649	2669	2669	2669	2669	2669	2669	2669	2669	2669	2690	2690	2690	2690	2690	2690	2690	2690	2690	2690	2690	2690	2690	2690	2690	2690	2711	2711	2711	2711	2711	2711	2711	2711	2711	2711	2711	2711	2711	2711	2711	2711	2711	2711	2711	2690	2690	2690	2690	2690	2690	2690	2690	2690	2690	2690	2690	2690	2690	2690	2690	2690	2711	2711	2711	2711	2711	2711	2711	2711	2711	2733	2711	2711	2711	2711	2711	2711	2733	2733	2733	2733	2733	2754	2754	2754	2754	2754	2754	2754	2754	2754	2754	2777	2777	2777	2777	2777	2777	2754	2754	2754	2733	2733	2733	2733	2733	2754	2754	2754	2754	2754	2754	2754	2754	2754	2754	2754	2754	2777	2777	2777	2777	2777	2777	2777	2777	2777	2777	2777	2777	2777	2777	2777	2777	2777	2777	2777	2777	2799	2799	2799	2799	2799	2799	2799	2799	2799	2799	2822	2822	2822	2822	2822	2822	2822	2822	2822	2822	2845	2822	2822	2822	2822	2822	2822	2822	2822	2822	2822	2822	2822	2822	2822	2822	2822	2799
2167	2167	2167	2167	2181	2181	2181	2167	2167	2167	2167	2167	2167	2167	2167	2167	2167	2167	2167	2181	2181	2181	2194	2194	2194	2194	2194	2194	2194	2194	2194	2208	2208	2208	2208	2208	2208	2208	2208	2208	2208	2208	2223	2223	2223	2223	2223	2223	2223	2223	2223	2223	2237	2237	2237	2237	2237	2237	2252	2252	2252	2237	2237	2252	2252	2237	2237	2237	2252	2252	2252	2252	2252	2252	2252	2252	2252	2252	2252	2252	2252	2266	2266	2266	2266	2266	2266	2281	2281	2266	2266	2266	2266	2266	2266	2266	2266	2281	2281	2281	2281	2297	2297	2297	2297	2297	2297	2297	2297	2297	2297	2297	2297	2297	2297	2297	2312	2312	2312	2312	2312	2312	2312	2297	2297	2297	2297	2312	2312	2312	2312	2312	2312	2312	2312	2312	2312	2312	2312	2312	2312	2312	2312	2312	2312	2312	2312	2312	2312	2312	2312	2327	2327	2327	2327	2343	2343	2343	2343	2343	2327	2327	2343	2343	2343	2343	2343	2343	2343	2359	2359	2359	2359	2359	2359	2359	2359	2359	2359	2359	2343	2343	2359	2359	2359	2359	2359	2359	2359	2359	2359	2359	2359	2359	2359	2359	2376	2376	2376	2376	2376	2376	2376	2376	2392	2392	2392	2392	2392	2392	2392	2392	2392	2409	2409	2409	2409	2409	2409	2409	2409	2409	2409	2409	2409	2426	2409	2409	2409	2409	2409	2409	2426	2426	2426	2426	2426	2426	2409	2409	2409	2409	2409	2409	2409	2409	2409	2426	2426	2426	2426	2426	2443	2443	2443	2443	2460	2460	2460	2460	2460	2460	2460	2460	2460	2460	2460	2460	2460	2460	2460	2460	2460	2478	2478	2478	2478	2478	2478	2478	2478	2478	2478	2478	2478	2478	2478	2478	2478	2478	2478	2478	2478	2496	2496	2496	2478	2478	2478	2496	2496	2496	2514	2514	2514	2496	2496	2496	2496	2496	2514	2514	2514	2514	2532	2532	2532	2532	2532	2532	2532	2532	2532	2532	2532	2532	2532	2532	2532	2532	2532	2532	2532	2532	2532	2532	2514	2514	2496	2496	2478	2460	2460	2460	2460	2460	2460	2460	2460	2460	2460	2460	2460	2443	2443	2443	2443	2443	2443	2460	2460	2460	2478	2478	2496	2496	2496	2496	2496	2496	2496	2496	2496	2496	2496	2496	2496	2496	2496	2496	2496	2496	2496	2496	2496	2514	2514	2514	2514	2532	2551	2570	2609	2609	2629	2629	2649	2649	2649	2649	2649	2649	2649	2649	2649	2649	2669	2669	2669	2649	2649	2649	2629	2629	2629	2629	2629	2629	2649	2649	2649	2649	2649	2649	2649	2669	2669	2669	2669	2669	2669	2669	2669	2669	2669	2669	2690	2690	2690	2690	2690	2690	2690	2690	2690	2690	2690	2690	2690	2690	2711	2711	2711	2711	2711	2711	2711	2711	2711	2711	2711	2711	2711	2711	2711	2711	2711	2733	2711	2690	2690	2690	2711	2711	2711	2711	2711	2711	2690	2690	2711	2711	2711	2711	2711	2711	2711	2711	2711	2711	2711	2733	2733	2733	2733	2733	2733	2733	2733	2733	2733	2733	2733	2733	2733	2733	2733	2754	2754	2754	2754	2754	2754	2754	2754	2754	2754	2777	2777	2777	2777	2777	2777	2777	2754	2754	2733	2733	2733	2754	2754	2754	2754	2754	2754	2754	2754	2754	2754	2754	2754	2777	2777	2777	2777	2777	2777	2777	2777	2777	2777	2777	2777	2777	2777	2777	2777	2777	2777	2799	2799	2799	2799	2822	2822	2822	2799	2799	2822	2822	2822	2799	2799	2822	2822	2822	2822	2822	2822	2845	2845	2845	2845	2845	2822	2822	2822	2822	2822	2822	2822	2822	2822	2822	2822	2822	2822	2822	2822	2822	2799
2153	2153	2167	2167	2181	2181	2181	2167	2167	2167	2167	2153	2153	2167	2167	2167	2167	2167	2167	2167	2167	2167	2181	2181	2181	2181	2194	2194	2194	2194	2194	2194	2194	2208	2208	2208	2208	2208	2208	2208	2208	2208	2208	2223	2223	2223	2223	2223	2223	2223	2223	2223	2223	2223	2237	2237	2237	2237	2237	2237	2237	2237	2237	2237	2237	2237	2237	2237	2252	2252	2252	2252	2252	2252	2252	2252	2252	2252	2252	2252	2252	2252	2252	2252	2266	2266	2266	2266	2266	2266	2266	2266	2266	2266	2266	2266	2266	2266	2281	2281	2281	2281	2281	2281	2281	2281	2281	2281	2281	2281	2297	2297	2297	2297	2297	2297	2297	2297	2297	2297	2312	2312	2312	2297	2297	2297	2297	2297	2297	2312	2312	2312	2312	2312	2312	2312	2297	2297	2312	2312	2312	2312	2312	2312	2312	2312	2312	2312	2312	2312	2312	2327	2327	2327	2327	2327	2327	2327	2343	2343	2327	2327	2343	2343	2343	2343	2343	2343	2343	2343	2359	2359	2359	2359	2359	2359	2359	2359	2359	2359	2343	2343	2343	2343	2343	2343	2343	2359	2359	2359	2359	2359	2359	2359	2359	2359	2359	2359	2359	2359	2376	2376	2376	2376	2376	2376	2376	2376	2376	2392	2392	2392	2392	2392	2392	2392	2392	2392	2392	2392	2409	2409	2409	2409	2409	2409	2409	2409	2409	2409	2409	2409	2409	2409	2426	2426	2426	2426	2409	2409	2409	2409	2409	2409	2409	2409	2409	2409	2409	2409	2426	2426	2426	2443	2443	2443	2443	2460	2460	2460	2460	2460	2460	2460	2460	2460	2460	2460	2460	2460	2460	2460	2460	2478	2478	2478	2478	2478	2478	2478	2478	2478	2478	2478	2478	2478	2478	2478	2478	2478	2478	2478	2478	2496	2496	2496	2478	2478	2478	2478	2478	2496	2496	2496	2496	2496	2496	2496	2478	2478	2496	2496	2514	2514	2514	2514	2514	2532	2532	2532	2532	2532	2532	2532	2532	2532	2532	2532	2532	2532	2532	2532	2532	2532	2532	2532	2514	2514	2496	2478	2478	2460	2460	2460	2460	2460	2460	2460	2460	2460	2460	2460	2460	2443	2443	2443	2443	2443	2443	2443	2460	2460	2478	2478	2478	2478	2478	2478	2478	2478	2478	2478	2478	2478	2478	2478	2478	2478	2478	2478	2496	2496	2496	2496	2496	2496	2496	2496	2514	2532	2551	2570	2609	2609	2629	2629	2649	2649	2629	2629	2629	2649	2649	2649	2649	2649	2669	2669	2669	2669	2669	2649	2649	2649	2629	2629	2649	2649	2649	2649	2649	2649	2649	2649	2649	2669	2669	2669	2669	2669	2669	2669	2669	2669	2669	2669	2690	2690	2690	2690	2690	2690	2690	2690	2690	2690	2690	2690	2711	2711	2711	2711	2711	2711	2711	2711	2711	2711	2711	2711	2711	2711	2711	2711	2711	2711	2733	2733	2733	2711	2711	2711	2711	2711	2711	2711	2711	2711	2690	2690	2711	2711	2711	2711	2711	2711	2711	2711	2711	2711	2711	2733	2733	2733	2733	2733	2733	2733	2733	2733	2733	2733	2733	2733	2733	2733	2754	2754	2754	2754	2754	2754	2754	2754	2754	2754	2777	2777	2777	2777	2777	2777	2777	2777	2777	2754	2733	2733	2754	2754	2754	2754	2754	2754	2754	2754	2754	2754	2754	2754	2777	2777	2777	2777	2777	2777	2777	2777	2777	2777	2777	2777	2777	2777	2777	2777	2799	2799	2799	2799	2799	2799	2799	2822	2822	2822	2799	2799	2822	2822	2822	2799	2799	2822	2822	2822	2845	2845	2845	2845	2845	2845	2845	2845	2822	2822	2822	2822	2822	2822	2822	2822	2822	2822	2822	2822	2822	2822	2822	2822	2799
2153	2153	2167	2167	2181	2181	2181	2167	2167	2167	2167	2153	2153	2153	2167	2167	2167	2167	2167	2167	2167	2167	2181	2181	2181	2181	2181	2181	2194	2181	2181	2194	2194	2194	2194	2208	2208	2208	2208	2208	2208	2208	2208	2208	2208	2208	2208	2208	2208	2208	2223	2223	2223	2223	2223	2237	2237	2237	2237	2237	2237	2237	2237	2237	2237	2223	2223	2223	2237	2237	2252	2252	2252	2252	2252	2252	2252	2252	2252	2252	2252	2252	2252	2252	2252	2266	2266	2266	2266	2266	2266	2266	2266	2266	2266	2266	2266	2266	2281	2281	2281	2281	2281	2281	2281	2281	2281	2281	2281	2281	2297	2297	2297	2281	2281	2297	2297	2297	2297	2297	2312	2312	2312	2297	2297	2297	2297	2297	2297	2297	2297	2312	2312	2297	2297	2297	2297	2297	2312	2312	2312	2312	2312	2312	2312	2312	2297	2297	2312	2312	2312	2327	2327	2327	2327	2327	2327	2327	2327	2327	2343	2343	2343	2343	2343	2343	2343	2343	2343	2343	2359	2359	2359	2359	2359	2359	2359	2359	2359	2359	2343	2343	2343	2343	2343	2343	2343	2343	2343	2343	2343	2359	2359	2359	2359	2359	2359	2359	2359	2359	2359	2359	2376	2376	2376	2376	2376	2376	2376	2376	2376	2376	2376	2392	2392	2392	2392	2392	2392	2392	2392	2392	2409	2409	2409	2409	2409	2409	2409	2409	2409	2409	2409	2409	2409	2426	2426	2426	2409	2409	2409	2409	2409	2409	2409	2409	2409	2409	2409	2409	2409	2409	2409	2426	2426	2426	2443	2443	2443	2460	2460	2460	2460	2460	2460	2460	2460	2460	2460	2460	2460	2460	2460	2460	2460	2478	2478	2478	2478	2478	2478	2478	2478	2478	2478	2478	2478	2478	2478	2496	2496	2478	2478	2496	2496	2496	2478	2460	2460	2478	2478	2478	2496	2496	2496	2478	2478	2478	2478	2478	2478	2478	2496	2514	2514	2514	2514	2532	2532	2532	2532	2532	2532	2532	2532	2532	2532	2532	2532	2532	2532	2532	2532	2532	2532	2532	2514	2514	2496	2478	2478	2460	2460	2460	2460	2443	2443	2460	2460	2460	2460	2460	2460	2443	2443	2443	2443	2443	2443	2443	2460	2460	2460	2478	2478	2478	2478	2478	2478	2478	2478	2478	2478	2478	2478	2460	2460	2460	2478	2478	2478	2496	2478	2478	2496	2496	2496	2496	2514	2532	2551	2570	2609	2629	2629	2629	2649	2649	2629	2629	2629	2649	2649	2649	2649	2649	2669	2669	2669	2649	2649	2649	2649	2649	2629	2629	2649	2649	2649	2649	2649	2649	2649	2649	2649	2649	2669	2669	2669	2669	2669	2669	2669	2669	2669	2669	2669	2690	2690	2690	2690	2690	2690	2711	2711	2690	2690	2690	2711	2711	2711	2711	2711	2711	2711	2711	2711	2711	2711	2711	2711	2711	2711	2733	2733	2733	2733	2733	2733	2711	2711	2711	2711	2711	2711	2711	2711	2711	2711	2711	2711	2711	2711	2711	2711	2711	2711	2711	2711	2711	2711	2733	2733	2733	2733	2754	2733	2733	2733	2733	2754	2754	2754	2754	2754	2754	2754	2754	2754	2754	2754	2754	2754	2777	2754	2754	2777	2777	2777	2777	2777	2777	2777	2777	2777	2777	2754	2754	2754	2754	2754	2754	2754	2754	2777	2754	2754	2754	2754	2777	2777	2777	2777	2777	2799	2799	2799	2777	2777	2799	2799	2799	2799	2799	2799	2799	2799	2799	2799	2799	2799	2799	2822	2822	2822	2822	2822	2822	2822	2822	2822	2799	2799	2822	2822	2845	2845	2845	2845	2845	2845	2845	2845	2845	2822	2822	2822	2822	2845	2845	2822	2822	2822	2845	2845	2845	2845	2845	2845	2845	2822
2167	2167	2167	2167	2181	2167	2167	2167	2167	2167	2153	2153	2153	2153	2167	2167	2167	2167	2167	2167	2167	2167	2167	2181	2181	2181	2181	2181	2181	2181	2181	2194	2194	2194	2194	2194	2208	2208	2208	2208	2208	2208	2208	2208	2208	2208	2208	2208	2208	2208	2223	2223	2223	2223	2223	2223	2237	2237	2237	2237	2237	2237	2237	2237	2237	2223	2223	2223	2237	2237	2237	2237	2252	2252	2252	2252	2252	2252	2252	2252	2252	2252	2252	2252	2252	2252	2252	2266	2266	2266	2266	2266	2266	2266	2266	2266	2266	2266	2281	2281	2281	2281	2266	2266	2281	2281	2281	2281	2281	2281	2281	2281	2281	2281	2281	2281	2281	2281	2281	2281	2297	2297	2297	2297	2297	2297	2297	2297	2297	2297	2297	2297	2297	2297	2297	2297	2297	2297	2297	2297	2297	2297	2312	2312	2312	2312	2297	2297	2312	2312	2312	2312	2312	2312	2312	2327	2327	2327	2327	2327	2327	2327	2327	2327	2327	2343	2343	2343	2343	2343	2359	2359	2359	2359	2359	2359	2359	2359	2359	2359	2343	2343	2343	2343	2343	2343	2343	2343	2343	2343	2343	2343	2343	2359	2359	2359	2359	2359	2359	2359	2359	2359	2359	2359	2359	2359	2359	2376	2376	2376	2376	2376	2376	2376	2376	2376	2376	2376	2376	2376	2392	2392	2392	2409	2409	2409	2409	2409	2409	2409	2409	2409	2409	2409	2409	2409	2409	2426	2409	2409	2409	2409	2409	2409	2409	2409	2409	2409	2409	2409	2409	2409	2409	2426	2426	2426	2426	2443	2443	2443	2443	2443	2443	2460	2460	2460	2460	2460	2460	2460	2478	2478	2478	2460	2460	2478	2478	2478	2460	2460	2478	2478	2478	2478	2478	2478	2478	2478	2478	2478	2496	2478	2478	2496	2496	2496	2478	2460	2460	2478	2478	2478	2496	2478	2478	2478	2478	2478	2460	2460	2478	2478	2496	2496	2514	2514	2514	2514	2532	2532	2532	2514	2514	2532	2532	2532	2532	2532	2532	2532	2532	2532	2532	2532	2532	2532	2514	2514	2496	2478	2460	2460	2460	2460	2460	2443	2443	2443	2443	2460	2460	2460	2460	2443	2443	2443	2443	2443	2443	2443	2443	2443	2460	2478	2478	2478	2478	2478	2478	2478	2460	2460	2460	2460	2478	2460	2460	2460	2460	2478	2478	2478	2478	2478	2496	2496	2496	2496	2514	2514	2532	2570	2589	2629	2629	2629	2649	2649	2629	2629	2629	2649	2649	2649	2649	2649	2649	2669	2669	2649	2649	2629	2629	2649	2629	2629	2649	2649	2649	2649	2649	2649	2649	2649	2649	2649	2649	2669	2669	2669	2669	2669	2669	2669	2669	2669	2669	2690	2690	2690	2690	2711	2711	2711	2711	2711	2711	2711	2711	2711	2711	2711	2711	2711	2711	2711	2711	2711	2711	2711	2711	2711	2711	2733	2733	2733	2733	2733	2733	2711	2711	2711	2711	2711	2711	2711	2711	2711	2711	2711	2711	2733	2733	2733	2711	2711	2711	2733	2733	2711	2711	2733	2733	2733	2754	2754	2754	2754	2733	2733	2754	2754	2754	2754	2754	2754	2777	2777	2777	2777	2754	2754	2777	2777	2777	2777	2777	2777	2777	2777	2777	2777	2777	2777	2777	2777	2754	2754	2754	2754	2754	2777	2777	2777	2777	2777	2777	2777	2777	2777	2777	2777	2777	2777	2799	2799	2799	2799	2799	2799	2799	2799	2777	2777	2799	2799	2799	2799	2799	2799	2799	2799	2822	2822	2822	2822	2822	2822	2845	2845	2822	2822	2822	2822	2845	2845	2845	2845	2845	2845	2845	2845	2845	2869	2845	2845	2845	2845	2845	2845	2845	2845	2845	2845	2845	2845	2845	2845	2845	2845	2845
2140	2167	2167	2167	2181	2167	2167	2167	2153	2153	2153	2153	2153	2153	2153	2153	2167	2167	2167	2167	2167	2167	2167	2167	2167	2167	2167	2167	2181	2167	2167	2181	2181	2194	2194	2194	2208	2208	2208	2208	2208	2208	2208	2208	2208	2208	2208	2208	2208	2208	2208	2208	2223	2223	2223	2223	2237	2237	2237	2237	2237	2223	2223	2237	2237	2223	2223	2223	2237	2237	2237	2237	2252	2252	2252	2252	2237	2237	2252	2252	2252	2252	2252	2252	2252	2252	2252	2252	2252	2266	2266	2266	2266	2266	2266	2266	2266	2266	2266	2281	2281	2281	2266	2266	2281	2281	2281	2281	2281	2281	2281	2281	2266	2266	2266	2281	2281	2281	2281	2281	2297	2297	2297	2281	2281	2281	2297	2297	2297	2297	2297	2297	2297	2297	2297	2297	2297	2297	2297	2297	2297	2297	2297	2297	2297	2312	2297	2297	2312	2312	2312	2312	2312	2312	2312	2327	2327	2327	2327	2327	2327	2327	2327	2327	2327	2343	2343	2343	2343	2343	2343	2359	2359	2359	2359	2359	2359	2359	2359	2359	2343	2343	2343	2343	2343	2343	2343	2343	2343	2343	2343	2343	2343	2343	2343	2343	2343	2343	2359	2359	2359	2359	2359	2359	2359	2359	2359	2376	2376	2376	2376	2376	2376	2359	2359	2359	2359	2359	2359	2376	2376	2376	2376	2409	2409	2409	2409	2409	2409	2409	2409	2409	2409	2409	2409	2409	2409	2426	2409	2409	2409	2409	2409	2409	2409	2409	2409	2409	2409	2409	2409	2409	2409	2409	2409	2426	2426	2426	2443	2443	2443	2443	2443	2460	2460	2460	2460	2460	2460	2460	2460	2460	2460	2460	2460	2460	2460	2460	2460	2460	2460	2460	2478	2478	2460	2460	2478	2478	2478	2478	2478	2478	2478	2478	2478	2478	2460	2460	2478	2478	2478	2478	2478	2478	2478	2460	2460	2460	2460	2460	2460	2478	2478	2478	2496	2496	2514	2514	2514	2514	2514	2514	2514	2514	2532	2532	2532	2532	2532	2532	2532	2532	2532	2532	2514	2514	2514	2496	2496	2478	2460	2460	2460	2460	2443	2443	2443	2443	2443	2443	2443	2443	2460	2443	2443	2443	2443	2443	2443	2443	2443	2443	2460	2460	2460	2460	2460	2460	2460	2460	2460	2460	2460	2460	2460	2460	2443	2443	2460	2478	2478	2478	2478	2496	2496	2496	2496	2496	2514	2514	2532	2551	2589	2609	2609	2629	2629	2649	2629	2629	2629	2649	2649	2649	2649	2649	2649	2649	2649	2649	2649	2629	2629	2629	2629	2629	2649	2649	2649	2649	2649	2649	2649	2649	2649	2649	2649	2669	2669	2669	2669	2669	2649	2649	2669	2669	2669	2690	2690	2690	2690	2711	2711	2711	2711	2711	2711	2711	2711	2711	2711	2711	2711	2711	2711	2711	2711	2711	2711	2711	2711	2711	2733	2733	2733	2711	2711	2733	2733	2711	2711	2711	2711	2711	2711	2711	2711	2711	2733	2733	2733	2733	2733	2733	2733	2733	2733	2711	2711	2711	2711	2733	2733	2733	2754	2754	2754	2754	2754	2754	2754	2754	2777	2754	2754	2777	2777	2777	2777	2777	2754	2754	2777	2777	2777	2777	2777	2777	2777	2777	2777	2777	2777	2799	2799	2777	2754	2754	2777	2777	2777	2777	2777	2777	2777	2777	2777	2777	2777	2777	2777	2777	2777	2777	2799	2799	2799	2799	2799	2799	2799	2799	2777	2777	2799	2799	2799	2799	2799	2799	2799	2822	2822	2845	2845	2845	2845	2845	2845	2845	2845	2845	2845	2845	2845	2845	2869	2869	2869	2869	2869	2869	2869	2869	2845	2845	2845	2845	2845	2845	2845	2845	2845	2845	2845	2845	2845	2845	2845	2845	2845
2127	2167	2167	2167	2167	2167	2167	2153	2153	2153	2153	2153	2153	2153	2153	2153	2153	2153	2153	2153	2153	2153	2153	2153	2167	2167	2167	2167	2181	2167	2167	2181	2181	2194	2194	2194	2194	2194	2208	2208	2208	2208	2208	2208	2208	2208	2208	2208	2208	2208	2208	2208	2223	2223	2223	2223	2223	2237	2237	2223	2223	2223	2223	2223	2223	2223	2223	2223	2237	2237	2237	2237	2237	2237	2237	2237	2237	2237	2237	2237	2252	2252	2252	2252	2252	2252	2252	2252	2252	2252	2266	2266	2266	2266	2266	2266	2266	2266	2266	2266	2266	2281	2266	2266	2266	2281	2266	2266	2266	2266	2266	2266	2266	2266	2266	2281	2281	2281	2281	2281	2281	2297	2297	2281	2281	2281	2281	2281	2281	2297	2297	2297	2297	2297	2297	2297	2297	2297	2297	2297	2297	2297	2297	2297	2297	2297	2297	2297	2312	2312	2312	2312	2312	2312	2312	2312	2312	2312	2312	2327	2327	2327	2327	2327	2327	2327	2327	2327	2343	2343	2343	2343	2343	2343	2343	2359	2359	2359	2359	2359	2343	2343	2343	2343	2343	2343	2343	2343	2343	2343	2343	2343	2343	2343	2343	2343	2343	2343	2343	2343	2359	2359	2359	2359	2359	2359	2359	2359	2359	2359	2359	2359	2359	2359	2359	2359	2359	2359	2359	2359	2376	2376	2376	2409	2409	2409	2409	2392	2392	2409	2409	2409	2409	2409	2409	2409	2409	2409	2409	2409	2409	2409	2409	2409	2409	2409	2409	2409	2409	2409	2409	2409	2409	2409	2409	2409	2409	2426	2426	2426	2443	2443	2443	2443	2443	2443	2460	2460	2460	2460	2460	2460	2460	2460	2460	2460	2460	2460	2460	2460	2460	2460	2478	2478	2460	2460	2478	2478	2478	2478	2478	2478	2478	2478	2478	2478	2460	2460	2460	2460	2478	2478	2478	2478	2478	2460	2460	2460	2460	2460	2460	2478	2478	2478	2496	2496	2514	2514	2514	2514	2514	2514	2514	2514	2514	2514	2514	2514	2532	2532	2532	2532	2532	2514	2514	2514	2514	2496	2496	2478	2460	2460	2443	2443	2443	2443	2443	2443	2443	2443	2443	2443	2443	2443	2443	2443	2443	2443	2443	2443	2443	2443	2460	2460	2460	2460	2460	2460	2460	2460	2460	2460	2443	2443	2460	2460	2443	2443	2460	2478	2478	2478	2478	2478	2496	2496	2496	2496	2496	2514	2532	2532	2570	2589	2609	2629	2629	2629	2629	2629	2649	2649	2649	2649	2649	2649	2649	2649	2649	2649	2649	2629	2629	2629	2629	2629	2649	2649	2649	2649	2649	2649	2649	2649	2649	2649	2649	2649	2649	2649	2649	2669	2649	2649	2649	2649	2669	2690	2690	2690	2690	2711	2711	2711	2711	2711	2711	2711	2711	2711	2711	2711	2711	2711	2711	2711	2711	2711	2711	2711	2711	2711	2711	2733	2733	2711	2711	2733	2733	2711	2711	2711	2711	2711	2711	2711	2711	2711	2733	2733	2733	2733	2733	2733	2733	2733	2733	2711	2711	2711	2711	2733	2733	2733	2754	2754	2754	2754	2754	2754	2754	2777	2777	2777	2777	2777	2777	2777	2777	2777	2777	2777	2777	2777	2777	2777	2777	2777	2777	2777	2777	2799	2799	2799	2799	2799	2777	2777	2777	2777	2777	2777	2777	2777	2777	2777	2777	2777	2777	2777	2777	2777	2777	2777	2799	2799	2799	2799	2799	2799	2799	2799	2799	2799	2799	2799	2799	2799	2799	2822	2822	2822	2822	2845	2845	2845	2845	2845	2845	2845	2845	2845	2845	2845	2845	2845	2869	2869	2869	2869	2869	2869	2869	2869	2845	2845	2845	2845	2845	2845	2845	2845	2845	2845	2845	2845	2845	2845	2845	2845	2869
2127	2153	2167	2167	2167	2153	2153	2153	2153	2153	2153	2153	2153	2153	2153	2153	2153	2153	2153	2153	2153	2153	2153	2153	2167	2167	2167	2167	2167	2167	2167	2167	2181	2181	2181	2194	2194	2194	2208	2208	2208	2194	2194	2208	2208	2208	2208	2208	2208	2208	2208	2208	2208	2223	2223	2223	2223	2223	2223	2223	2223	2223	2223	2223	2223	2208	2208	2208	2223	2223	2223	2237	2237	2237	2237	2237	2237	2237	2237	2237	2237	2252	2252	2252	2252	2252	2252	2252	2252	2252	2266	2266	2266	2266	2266	2266	2266	2266	2266	2266	2266	2266	2266	2266	2266	2281	2266	2266	2266	2266	2266	2266	2266	2266	2266	2266	2266	2281	2281	2281	2281	2281	2297	2281	2281	2281	2281	2281	2281	2281	2281	2281	2281	2281	2281	2297	2297	2297	2297	2297	2297	2297	2297	2297	2297	2297	2297	2297	2312	2312	2312	2312	2312	2312	2312	2312	2312	2312	2312	2312	2312	2327	2327	2327	2327	2327	2327	2327	2327	2343	2343	2343	2343	2343	2343	2359	2343	2343	2343	2343	2343	2343	2343	2343	2343	2343	2343	2343	2343	2343	2343	2343	2343	2343	2343	2343	2343	2343	2343	2343	2359	2359	2359	2359	2359	2359	2359	2359	2359	2359	2359	2359	2359	2359	2359	2359	2359	2359	2359	2359	2376	2376	2376	2409	2409	2409	2409	2392	2392	2409	2409	2409	2409	2409	2409	2409	2409	2409	2392	2392	2409	2409	2409	2409	2392	2392	2392	2392	2392	2392	2392	2409	2409	2409	2409	2409	2409	2409	2409	2426	2426	2426	2443	2443	2443	2443	2460	2460	2460	2460	2460	2460	2460	2460	2460	2460	2460	2460	2460	2460	2460	2460	2460	2460	2460	2460	2460	2460	2460	2478	2478	2478	2478	2478	2478	2478	2460	2460	2460	2460	2460	2460	2460	2460	2460	2460	2460	2460	2460	2460	2460	2460	2460	2478	2478	2496	2496	2514	2514	2514	2514	2514	2514	2514	2514	2514	2514	2514	2532	2532	2532	2532	2514	2514	2514	2514	2514	2496	2496	2478	2460	2460	2443	2443	2443	2443	2443	2443	2443	2443	2443	2443	2443	2443	2443	2443	2443	2443	2443	2443	2443	2443	2443	2443	2460	2460	2443	2443	2460	2460	2460	2460	2443	2443	2443	2443	2460	2460	2460	2478	2478	2478	2478	2478	2478	2496	2496	2496	2496	2514	2514	2532	2551	2570	2589	2609	2609	2629	2629	2629	2629	2649	2649	2649	2649	2649	2649	2649	2649	2649	2649	2629	2629	2629	2629	2629	2649	2649	2649	2649	2629	2629	2629	2629	2649	2649	2649	2649	2649	2649	2649	2669	2669	2669	2649	2649	2669	2690	2690	2690	2711	2711	2711	2711	2711	2711	2711	2711	2711	2711	2711	2711	2711	2711	2711	2711	2711	2711	2711	2711	2711	2711	2711	2733	2733	2711	2711	2733	2733	2711	2711	2711	2711	2711	2711	2711	2711	2711	2733	2733	2733	2733	2754	2754	2754	2754	2733	2733	2733	2733	2733	2733	2733	2754	2754	2754	2754	2754	2754	2754	2754	2777	2777	2777	2777	2777	2777	2777	2777	2777	2777	2777	2777	2777	2777	2777	2777	2777	2777	2777	2777	2799	2799	2799	2799	2799	2777	2777	2777	2777	2777	2777	2777	2777	2777	2777	2777	2777	2777	2777	2777	2777	2799	2799	2799	2822	2822	2799	2799	2822	2822	2822	2799	2799	2822	2822	2799	2799	2822	2822	2822	2822	2845	2845	2845	2845	2845	2845	2845	2845	2845	2845	2845	2845	2845	2845	2869	2869	2869	2869	2869	2869	2893	2893	2869	2869	2869	2869	2869	2869	2869	2845	2845	2845	2845	2845	2845	2845	2845	2869	2869
2127	2140	2140	2140	2167	2153	2153	2153	2140	2140	2140	2153	2153	2153	2153	2153	2153	2153	2153	2153	2153	2153	2167	2167	2167	2167	2167	2167	2167	2167	2167	2167	2167	2181	2181	2181	2194	2194	2208	2208	2208	2194	2194	2208	2208	2208	2208	2208	2208	2208	2208	2208	2208	2208	2223	2223	2223	2223	2223	2223	2223	2223	2223	2223	2223	2208	2208	2208	2223	2223	2223	2223	2237	2237	2237	2237	2237	2237	2237	2237	2237	2237	2237	2252	2252	2252	2252	2252	2252	2252	2252	2266	2266	2266	2266	2266	2266	2266	2266	2266	2266	2266	2266	2266	2266	2266	2266	2266	2266	2266	2266	2266	2266	2266	2266	2266	2266	2266	2266	2266	2281	2281	2281	2281	2281	2281	2281	2281	2281	2281	2281	2281	2281	2281	2281	2281	2297	2297	2297	2297	2297	2297	2297	2297	2297	2297	2297	2297	2297	2312	2312	2312	2312	2312	2312	2312	2312	2312	2312	2312	2312	2312	2312	2312	2312	2312	2312	2312	2327	2327	2343	2343	2343	2343	2343	2343	2343	2343	2327	2327	2327	2327	2327	2327	2327	2327	2327	2343	2343	2343	2343	2343	2343	2343	2343	2343	2343	2343	2343	2343	2343	2359	2359	2359	2359	2359	2359	2359	2359	2359	2359	2359	2359	2359	2359	2359	2359	2359	2359	2359	2376	2376	2376	2376	2409	2392	2392	2392	2392	2392	2392	2392	2392	2409	2409	2409	2409	2409	2392	2392	2392	2392	2392	2392	2392	2392	2392	2392	2392	2392	2392	2409	2409	2409	2409	2409	2409	2409	2409	2426	2426	2426	2426	2443	2443	2443	2443	2443	2443	2443	2443	2443	2443	2443	2460	2460	2460	2460	2460	2460	2460	2460	2460	2460	2460	2460	2460	2460	2460	2478	2478	2478	2478	2478	2478	2478	2460	2460	2460	2460	2460	2460	2460	2460	2460	2460	2460	2460	2460	2460	2460	2460	2460	2460	2478	2496	2496	2514	2514	2514	2514	2514	2514	2514	2514	2514	2514	2514	2532	2532	2532	2532	2514	2514	2514	2514	2496	2496	2496	2478	2460	2460	2443	2443	2443	2443	2426	2426	2443	2443	2443	2443	2443	2426	2426	2426	2426	2426	2443	2443	2443	2443	2443	2443	2443	2443	2443	2443	2443	2443	2443	2443	2443	2443	2443	2443	2460	2460	2460	2478	2478	2478	2478	2478	2478	2478	2478	2478	2496	2496	2514	2532	2551	2570	2589	2609	2609	2609	2629	2629	2629	2649	2649	2649	2649	2649	2649	2649	2649	2649	2649	2629	2629	2629	2629	2629	2629	2649	2649	2649	2629	2629	2629	2629	2649	2649	2649	2649	2649	2649	2649	2669	2669	2669	2669	2669	2669	2690	2690	2690	2690	2690	2690	2690	2690	2711	2711	2711	2711	2711	2711	2711	2711	2711	2711	2711	2711	2711	2711	2711	2711	2711	2711	2733	2733	2711	2711	2733	2733	2711	2711	2711	2711	2711	2711	2711	2711	2711	2733	2733	2754	2754	2754	2754	2754	2754	2733	2733	2733	2733	2733	2733	2754	2754	2754	2754	2754	2754	2754	2754	2754	2777	2777	2777	2777	2777	2777	2777	2777	2777	2777	2777	2777	2777	2777	2777	2777	2777	2799	2799	2799	2799	2799	2799	2822	2799	2777	2777	2777	2777	2777	2777	2777	2777	2777	2777	2777	2777	2777	2777	2799	2799	2799	2799	2799	2799	2822	2822	2822	2822	2822	2845	2822	2822	2822	2822	2822	2822	2822	2822	2822	2845	2845	2845	2845	2845	2845	2845	2845	2845	2845	2845	2845	2845	2845	2845	2869	2869	2869	2869	2869	2893	2893	2893	2869	2869	2869	2869	2869	2869	2869	2845	2845	2845	2845	2845	2845	2845	2845	2869	2869
