1824	1824	1824	1824	1824	1824	1824	1833	1833	1833	1843	1843	1843	1843	1843	1843	1843	1843	1843	1843	1843	1843	1843	1843	1843	1843	1843	1843	1843	1843	1843	1853	1843	1843	1843	1853	1853	1863	1863	1863	1863	1863	1853	1853	1853	1853	1853	1853	1853	1853	1863	1863	1863	1873	1863	1853	1853	1863	1863	1863	1863	1863	1863	1863	1863	1863	1863	1853	1853	1863	1853	1853	1863	1863	1863	1863	1873	1873	1873	1873	1873	1873	1873	1873	1873	1873	1873	1873	1873	1873	1873	1873	1873	1883	1883	1883	1883	1883	1883	1883	1883	1883	1883	1894	1894	1894	1894	1894	1894	1894	1894	1894	1894	1894	1894	1894	1894	1894	1894	1894	1894	1894	1894	1894	1904	1904	1904	1904	1904	1904	1904	1915	1915	1915	1915	1915	1915	1925	1925	1925	1925	1925	1925	1925	1925	1925	1925	1925	1936	1936	1925	1925	1925	1925	1936	1936	1936	1936	1936	1936	1936	1936	1947	1936	1936	1936	1947	1947	1947	1936	1936	1936	1936	1936	1947	1947	1947	1947	1947	1947	1947	1947	1947	1947	1947	1947	1947	1958	1958	1958	1969	1969	1969	1969	1969	1969	1969	1969	1969	1969	1969	1969	1969	1969	1969	1969	1980	1980	1980	1980	1980	1980	1980	1980	1969	1969	1980	1980	1980	1980	1980	1980	1980	1992	1992	1980	1980	1980	1980	1980	1980	1980	1980	1980	1992	1992	1992	1992	1992	1992	1992	2003	2003	2003	2003	2003	2003	2003	2003	2003	2003	2003	2003	2003	2003	2003	2003	2003	2003	2015	2015	2015	2003	2003	2015	2015	2015	2015	2015	2015	2015	2015	2015	2027	2027	2027	2027	2027	2027	2027	2027	2027	2027	2039	2039	2027	2027	2027	2027	2027	2027	2027	2027	2027	2027	2039	2039	2039	2039	2039	2039	2039	2039	2039	2039	2039	2039	2039	2039	2039	2051	2051	2051	2051	2051	2051	2051	2051	2051	2051	2051	2051	2051	2051	2063	2063	2051	2051	2063	2063	2063	2076	2076	2063	2063	2076	2076	2063	2063	2063	2063	2063	2051	2051	2063	2063	2063	2063	2063	2063	2063	2063	2063	2063	2063	2063	2076	2076	2076	2076	2076	2076	2076	2076	2076	2076	2076	2076	2076	2076	2076	2076	2076	2076	2076	2076	2076	2088	2088	2088	2088	2088	2088	2088	2088	2088	2088	2088	2088	2088	2088	2088	2088	2088	2088	2088	2088	2088	2088	2088	2076	2076	2076	2076	2088	2076	2076	2088	2088	2088	2088	2088	2088	2088	2101	2101	2101	2101	2101	2101	2101	2101	2101	2101	2101	2101	2101	2114	2114	2114	2114	2114	2114	2127	2127	2127	2127	2127	2127	2114	2114	2114	2114	2114	2127	2127	2127	2127	2127	2127	2127	2127	2127	2127	2140	2140	2140	2153	2140	2127	2127	2127	2127	2140	2140	2140	2153	2153	2153	2153	2153	2153	2153	2153	2153	2153	2153	2153	2153	2153	2153	2153	2153	2153	2153	2153	2153	2153	2167	2167	2167	2167	2167	2167	2167	2167	2167	2167	2181	2181	2181	2181	2181	2194	2181	2181	2181	2181	2181	2194	2194	2194	2194	2194	2194	2181	2181	2194	2194	2194	2194	2194	2194	2194	2194	2194	2194	2194	2194	2194	2194	2194	2194	2208	2208	2208	2208	2208	2208	2208	2208	2223	2223	2223	2223	2223	2223	2223	2223	2237	2223	2223	2223	2223	2223	2223	2223	2223	2223	2237	2237	2237	2237	2237	2252	2252	2252	2252	2252	2252	2252	2252	2252	2237	2237	2237	2237	2237	2237	2237	2252	2252	2252	2252	2252	2252	2252	2252	2266	2266	2266	2266	2266	2281	2281	2281	2281	2281	2281	2281	2297
1833	1833	1833	1833	1833	1833	1833	1833	1833	1833	1843	1843	1843	1843	1843	1843	1843	1843	1843	1843	1843	1843	1843	1843	1843	1843	1853	1853	1853	1853	1853	1853	1853	1853	1853	1853	1863	1863	1863	1863	1863	1863	1863	1863	1853	1853	1863	1863	1863	1863	1863	1863	1863	1873	1863	1863	1863	1863	1863	1863	1863	1863	1863	1863	1863	1863	1863	1863	1863	1863	1863	1863	1863	1863	1863	1873	1873	1873	1873	1873	1873	1873	1873	1873	1873	1873	1873	1873	1873	1873	1873	1873	1883	1883	1883	1883	1883	1894	1883	1883	1883	1883	1894	1894	1894	1894	1894	1894	1904	1904	1904	1904	1894	1894	1894	1894	1894	1894	1894	1894	1894	1904	1904	1904	1904	1904	1904	1904	1915	1915	1915	1915	1915	1925	1925	1925	1925	1925	1925	1925	1925	1925	1925	1925	1925	1925	1925	1936	1936	1936	1936	1936	1936	1936	1936	1936	1936	1936	1936	1936	1947	1947	1947	1947	1947	1947	1947	1947	1947	1936	1936	1936	1947	1947	1947	1947	1947	1947	1947	1947	1947	1947	1947	1947	1947	1958	1958	1958	1958	1958	1969	1969	1969	1969	1969	1969	1980	1969	1969	1969	1969	1969	1969	1969	1969	1980	1980	1980	1980	1980	1980	1980	1980	1980	1980	1980	1980	1980	1980	1980	1992	1992	1992	1992	1992	1992	1992	1980	1980	1980	1980	1980	1992	1992	1992	1992	1992	1992	1992	1992	1992	2003	2003	2003	2003	2003	2003	2003	2003	2003	2003	2003	2003	2003	2003	2003	2003	2003	2015	2015	2015	2015	2015	2015	2015	2015	2015	2015	2015	2015	2027	2027	2027	2027	2027	2027	2027	2039	2039	2039	2039	2039	2039	2039	2039	2027	2027	2027	2039	2039	2039	2039	2039	2039	2039	2039	2039	2039	2039	2039	2039	2039	2039	2039	2039	2039	2039	2039	2051	2051	2051	2051	2051	2051	2051	2051	2051	2051	2051	2051	2051	2051	2051	2063	2063	2063	2063	2063	2063	2063	2076	2076	2076	2076	2076	2076	2076	2076	2063	2063	2063	2076	2063	2063	2063	2063	2063	2063	2063	2063	2063	2063	2063	2063	2063	2076	2076	2076	2076	2076	2076	2076	2076	2076	2076	2076	2076	2076	2076	2076	2076	2076	2076	2076	2076	2076	2076	2088	2088	2088	2088	2088	2088	2088	2088	2088	2088	2088	2088	2088	2088	2088	2088	2088	2088	2088	2088	2088	2088	2088	2088	2088	2088	2088	2088	2088	2088	2088	2088	2101	2101	2101	2101	2101	2101	2101	2101	2101	2101	2101	2114	2114	2114	2114	2114	2114	2114	2114	2114	2114	2114	2114	2114	2127	2127	2127	2127	2127	2127	2127	2127	2127	2127	2127	2127	2127	2127	2127	2127	2127	2127	2127	2140	2140	2140	2140	2153	2153	2140	2140	2140	2140	2140	2140	2140	2140	2153	2153	2153	2153	2153	2153	2153	2153	2153	2153	2153	2153	2153	2167	2167	2167	2167	2167	2167	2167	2167	2167	2167	2167	2167	2167	2167	2167	2167	2167	2167	2167	2181	2181	2181	2181	2181	2194	2181	2181	2181	2181	2181	2194	2194	2194	2194	2194	2208	2194	2194	2194	2194	2194	2194	2194	2194	2194	2194	2194	2194	2194	2194	2208	2208	2208	2208	2208	2208	2208	2208	2208	2208	2208	2223	2223	2223	2223	2223	2223	2223	2223	2237	2223	2223	2223	2223	2223	2237	2223	2223	2237	2237	2237	2252	2237	2237	2252	2252	2252	2252	2252	2252	2252	2252	2252	2252	2237	2237	2237	2237	2237	2237	2252	2252	2252	2252	2252	2252	2266	2266	2266	2266	2266	2266	2266	2281	2281	2281	2281	2281	2281	2281	2297	2297
1833	1833	1833	1833	1833	1833	1833	1833	1833	1833	1843	1843	1843	1843	1853	1843	1843	1843	1843	1843	1843	1843	1843	1843	1853	1853	1853	1853	1863	1863	1863	1863	1863	1863	1863	1863	1863	1863	1863	1863	1873	1863	1863	1863	1863	1863	1863	1863	1863	1863	1863	1873	1873	1873	1863	1863	1863	1863	1863	1863	1863	1863	1863	1863	1863	1873	1873	1863	1863	1863	1873	1873	1873	1873	1873	1873	1873	1873	1873	1873	1883	1883	1883	1883	1883	1883	1883	1883	1883	1873	1873	1883	1883	1883	1883	1883	1894	1894	1894	1894	1894	1894	1894	1894	1894	1904	1904	1904	1904	1904	1904	1904	1894	1894	1894	1894	1894	1894	1894	1904	1904	1904	1904	1904	1904	1904	1915	1915	1915	1915	1915	1925	1925	1925	1925	1925	1925	1925	1936	1925	1925	1925	1936	1925	1925	1936	1936	1936	1936	1936	1936	1936	1936	1936	1936	1936	1936	1936	1947	1947	1947	1947	1947	1947	1947	1947	1947	1947	1947	1936	1936	1936	1947	1947	1947	1958	1947	1947	1958	1958	1958	1958	1958	1958	1958	1958	1958	1958	1958	1958	1969	1969	1969	1969	1969	1980	1980	1980	1980	1980	1980	1969	1969	1980	1980	1980	1980	1980	1980	1980	1980	1980	1980	1980	1980	1980	1980	1980	1992	1992	1992	1992	2003	2003	2003	2003	2003	1992	1992	1992	1992	1992	1992	1992	1992	1992	1992	2003	2003	2003	2003	2003	2003	2003	2003	2003	2003	2003	2003	2003	2003	2003	2003	2003	2003	2003	2003	2015	2015	2015	2015	2015	2015	2015	2015	2015	2015	2015	2015	2027	2027	2027	2027	2027	2027	2027	2039	2039	2039	2039	2039	2039	2039	2039	2039	2039	2039	2039	2039	2039	2039	2039	2039	2039	2039	2039	2039	2039	2039	2039	2039	2039	2051	2051	2051	2051	2051	2051	2051	2051	2051	2051	2051	2051	2051	2051	2051	2051	2051	2051	2051	2051	2051	2063	2063	2063	2063	2063	2063	2063	2076	2076	2076	2076	2076	2076	2076	2076	2076	2076	2076	2076	2063	2063	2063	2076	2076	2076	2076	2076	2063	2063	2076	2076	2076	2076	2076	2076	2076	2076	2076	2076	2076	2076	2076	2076	2076	2076	2076	2076	2076	2076	2076	2076	2076	2088	2088	2088	2088	2088	2088	2088	2088	2088	2088	2088	2088	2088	2088	2088	2088	2088	2088	2088	2088	2101	2101	2101	2101	2101	2101	2101	2101	2101	2101	2101	2101	2101	2101	2101	2101	2101	2101	2101	2114	2114	2101	2101	2101	2101	2114	2114	2114	2114	2114	2114	2114	2114	2114	2114	2114	2114	2114	2127	2127	2127	2127	2127	2127	2127	2127	2127	2127	2127	2127	2127	2127	2127	2127	2127	2127	2127	2140	2140	2140	2140	2153	2153	2153	2140	2140	2140	2140	2140	2140	2140	2153	2153	2153	2153	2153	2153	2153	2153	2153	2153	2167	2167	2167	2167	2167	2167	2167	2167	2167	2167	2167	2167	2167	2167	2167	2167	2167	2181	2181	2181	2181	2181	2181	2181	2181	2181	2194	2194	2194	2194	2194	2194	2194	2194	2194	2194	2208	2208	2208	2194	2194	2194	2194	2194	2194	2194	2194	2194	2208	2208	2194	2194	2208	2208	2208	2208	2208	2208	2208	2208	2223	2223	2223	2223	2223	2223	2237	2223	2223	2223	2223	2237	2237	2223	2223	2223	2223	2223	2237	2223	2223	2237	2237	2252	2252	2252	2252	2252	2266	2266	2266	2266	2266	2266	2266	2266	2266	2252	2252	2237	2237	2252	2252	2252	2252	2252	2266	2266	2266	2266	2266	2266	2281	2281	2281	2281	2281	2281	2281	2281	2281	2281	2281	2297	2297
1833	1833	1833	1833	1833	1833	1833	1833	1833	1843	1843	1843	1843	1843	1853	1853	1853	1843	1843	1853	1853	1843	1843	1853	1853	1863	1863	1863	1863	1863	1863	1873	1863	1863	1863	1863	1873	1873	1863	1863	1873	1873	1873	1873	1863	1863	1873	1873	1873	1873	1873	1873	1873	1873	1873	1863	1863	1863	1863	1863	1873	1863	1863	1863	1863	1873	1873	1873	1873	1873	1873	1873	1873	1873	1873	1873	1883	1883	1883	1883	1883	1883	1883	1883	1883	1883	1883	1883	1883	1883	1883	1883	1883	1883	1883	1894	1894	1894	1894	1894	1894	1894	1904	1904	1904	1904	1904	1904	1904	1904	1904	1904	1894	1894	1894	1904	1904	1904	1904	1904	1915	1904	1904	1904	1904	1904	1915	1915	1915	1915	1925	1925	1925	1925	1925	1925	1925	1925	1936	1925	1925	1925	1936	1925	1925	1936	1936	1936	1936	1936	1936	1936	1936	1936	1936	1947	1947	1947	1947	1947	1947	1947	1947	1947	1947	1947	1947	1947	1947	1947	1947	1947	1947	1947	1947	1958	1947	1947	1958	1958	1958	1958	1958	1958	1958	1958	1969	1958	1958	1969	1969	1969	1969	1969	1980	1980	1980	1980	1980	1980	1980	1980	1980	1980	1980	1980	1980	1980	1980	1980	1992	1992	1980	1980	1980	1980	1980	1992	1992	1992	2003	2003	2003	2003	2003	2003	2003	1992	1992	1992	1992	2003	2003	2003	2003	2003	2003	2003	2003	2003	2003	2003	2003	2003	2003	2003	2003	2003	2003	2003	2003	2003	2003	2015	2015	2015	2015	2015	2015	2015	2015	2015	2015	2015	2027	2027	2027	2027	2027	2027	2027	2039	2039	2039	2039	2039	2039	2039	2039	2039	2039	2039	2039	2051	2051	2039	2039	2039	2039	2039	2039	2039	2039	2039	2039	2039	2039	2039	2039	2039	2051	2051	2051	2051	2051	2051	2051	2051	2051	2051	2051	2051	2051	2051	2051	2051	2051	2051	2051	2063	2063	2063	2063	2063	2063	2076	2063	2063	2076	2076	2076	2076	2076	2076	2076	2088	2088	2088	2088	2076	2076	2088	2076	2076	2076	2076	2076	2076	2076	2076	2076	2076	2076	2076	2076	2076	2076	2076	2076	2076	2076	2076	2076	2076	2076	2076	2076	2076	2076	2076	2076	2076	2088	2088	2088	2088	2088	2088	2088	2088	2088	2088	2088	2088	2088	2088	2088	2088	2088	2101	2101	2101	2101	2101	2101	2101	2101	2114	2114	2114	2101	2101	2101	2101	2101	2101	2101	2101	2101	2101	2101	2101	2101	2101	2114	2114	2101	2101	2101	2101	2114	2114	2114	2114	2114	2114	2114	2114	2114	2114	2127	2127	2127	2127	2127	2127	2127	2127	2127	2127	2127	2127	2127	2127	2127	2127	2140	2140	2140	2140	2140	2140	2140	2153	2153	2153	2153	2167	2153	2153	2153	2153	2153	2153	2153	2153	2153	2153	2153	2153	2153	2153	2153	2153	2153	2167	2167	2167	2167	2167	2167	2167	2167	2167	2167	2167	2167	2167	2167	2167	2167	2181	2181	2181	2181	2181	2181	2181	2181	2194	2194	2194	2194	2194	2194	2194	2194	2194	2194	2194	2208	2208	2208	2208	2208	2194	2194	2194	2194	2194	2194	2208	2208	2208	2208	2208	2208	2208	2208	2208	2208	2208	2208	2208	2208	2223	2223	2223	2223	2223	2223	2237	2237	2237	2237	2223	2223	2237	2237	2237	2237	2237	2237	2237	2252	2237	2237	2237	2252	2252	2252	2252	2252	2266	2266	2266	2266	2266	2266	2266	2266	2266	2266	2252	2252	2252	2252	2252	2252	2252	2252	2252	2266	2266	2266	2266	2281	2281	2281	2281	2281	2281	2281	2281	2281	2281	2281	2297	2297	2297	2297
1843	1843	1843	1843	1843	1843	1833	1833	1843	1843	1843	1843	1843	1843	1853	1853	1853	1853	1853	1853	1853	1843	1843	1853	1853	1863	1863	1863	1863	1873	1873	1873	1863	1863	1863	1863	1873	1873	1873	1873	1873	1873	1873	1873	1873	1873	1873	1873	1873	1873	1873	1873	1873	1873	1873	1873	1863	1863	1863	1863	1873	1873	1873	1873	1873	1873	1873	1873	1873	1873	1873	1873	1873	1873	1873	1883	1883	1894	1883	1883	1894	1894	1894	1883	1883	1883	1883	1894	1894	1883	1883	1894	1894	1894	1894	1894	1894	1894	1894	1894	1894	1894	1904	1904	1904	1904	1904	1904	1904	1904	1904	1904	1904	1904	1904	1904	1904	1904	1904	1915	1915	1915	1915	1915	1915	1915	1915	1915	1915	1915	1925	1925	1925	1925	1925	1936	1936	1936	1936	1936	1936	1936	1936	1936	1936	1936	1936	1936	1936	1936	1936	1936	1936	1947	1947	1947	1947	1947	1947	1947	1947	1947	1947	1947	1947	1947	1947	1947	1958	1947	1947	1947	1947	1958	1958	1958	1958	1958	1958	1958	1958	1958	1958	1958	1958	1969	1969	1969	1969	1969	1969	1969	1980	1980	1980	1980	1980	1980	1980	1980	1980	1980	1980	1980	1980	1992	1992	1992	1992	1992	1992	1992	1992	1992	1980	1980	1992	1992	1992	1992	2003	2003	2003	2003	2003	2003	2015	2003	2003	2003	2003	2003	2003	2003	2003	2003	2003	2003	2003	2003	2003	2003	2003	2003	2003	2003	2003	2003	2003	2015	2015	2015	2015	2015	2015	2015	2015	2015	2015	2015	2015	2015	2027	2027	2027	2027	2027	2027	2027	2027	2039	2039	2039	2039	2039	2039	2039	2039	2039	2039	2039	2039	2039	2051	2051	2039	2039	2039	2039	2039	2039	2039	2039	2039	2039	2039	2051	2051	2051	2051	2051	2051	2051	2051	2051	2051	2051	2051	2051	2051	2051	2051	2051	2051	2051	2051	2063	2063	2063	2063	2063	2063	2063	2063	2076	2076	2076	2076	2076	2076	2088	2088	2088	2088	2088	2088	2088	2088	2088	2088	2088	2088	2076	2076	2076	2076	2076	2076	2076	2076	2076	2076	2076	2076	2076	2076	2076	2076	2088	2088	2088	2088	2088	2088	2088	2088	2088	2088	2076	2076	2088	2088	2088	2088	2088	2088	2088	2088	2088	2088	2088	2088	2088	2088	2088	2088	2101	2101	2101	2101	2101	2101	2101	2101	2101	2101	2114	2114	2114	2114	2114	2114	2101	2101	2114	2101	2101	2101	2101	2114	2114	2114	2114	2114	2114	2114	2114	2114	2114	2114	2114	2114	2114	2114	2127	2127	2127	2127	2127	2127	2127	2127	2127	2127	2127	2127	2127	2127	2127	2127	2127	2127	2127	2140	2140	2140	2140	2140	2140	2140	2140	2140	2153	2153	2153	2167	2167	2167	2153	2153	2153	2153	2153	2153	2153	2153	2153	2153	2153	2153	2153	2153	2153	2167	2167	2167	2167	2167	2167	2167	2167	2167	2167	2167	2167	2167	2167	2167	2167	2181	2181	2181	2181	2181	2181	2181	2181	2181	2194	2194	2194	2194	2194	2208	2194	2194	2194	2208	2208	2208	2208	2208	2208	2208	2208	2194	2194	2194	2194	2208	2208	2208	2208	2208	2208	2208	2208	2208	2208	2208	2208	2208	2223	2223	2223	2223	2223	2237	2237	2237	2237	2237	2237	2237	2237	2237	2237	2237	2237	2237	2237	2237	2237	2237	2252	2237	2237	2252	2252	2252	2252	2252	2252	2266	2266	2266	2266	2266	2266	2266	2266	2266	2266	2266	2266	2266	2252	2252	2252	2266	2266	2266	2266	2266	2266	2281	2281	2297	2297	2297	2297	2297	2297	2297	2297	2297	2297	2297	2297	2297	2297
1843	1843	1843	1843	1843	1843	1843	1843	1843	1843	1853	1853	1853	1853	1853	1853	1853	1853	1853	1853	1853	1843	1843	1853	1863	1873	1873	1873	1873	1873	1873	1873	1863	1863	1873	1873	1873	1873	1873	1873	1873	1873	1873	1873	1873	1873	1873	1873	1873	1873	1873	1873	1873	1873	1873	1873	1863	1863	1863	1863	1873	1873	1873	1873	1873	1873	1873	1873	1873	1873	1883	1883	1883	1883	1883	1883	1894	1894	1883	1883	1894	1894	1894	1894	1883	1883	1894	1894	1894	1894	1894	1894	1894	1894	1894	1894	1894	1894	1904	1904	1904	1904	1904	1904	1904	1904	1904	1904	1904	1904	1904	1904	1904	1904	1904	1904	1904	1915	1915	1925	1925	1915	1915	1915	1915	1915	1915	1915	1915	1915	1925	1925	1925	1936	1936	1936	1936	1936	1936	1936	1936	1936	1936	1936	1936	1936	1936	1936	1936	1936	1936	1936	1936	1947	1947	1947	1947	1947	1947	1947	1947	1947	1947	1947	1947	1958	1958	1958	1958	1958	1958	1958	1958	1958	1969	1969	1958	1958	1958	1969	1958	1958	1958	1958	1958	1969	1969	1969	1969	1969	1980	1980	1980	1980	1980	1980	1980	1980	1980	1992	1992	1992	1992	1992	1992	1992	1992	1992	1992	1992	1992	1992	1992	1992	1992	1992	1992	1992	1992	1992	2003	2003	2015	2015	2015	2015	2015	2003	2003	2003	2003	2003	2003	2003	2003	2003	2003	2003	2003	2003	2003	2003	2003	2003	2003	2015	2015	2015	2015	2015	2015	2015	2015	2015	2015	2015	2015	2015	2015	2015	2027	2027	2027	2027	2027	2039	2039	2039	2039	2039	2039	2039	2039	2039	2039	2039	2039	2039	2039	2039	2039	2051	2051	2051	2051	2039	2039	2039	2039	2039	2051	2039	2039	2039	2051	2051	2051	2051	2051	2051	2051	2051	2051	2051	2051	2051	2051	2051	2051	2051	2051	2051	2063	2063	2063	2063	2063	2063	2063	2063	2063	2063	2063	2076	2076	2076	2076	2076	2076	2076	2088	2088	2088	2088	2088	2088	2088	2088	2088	2088	2088	2088	2076	2076	2076	2076	2076	2076	2076	2076	2076	2076	2076	2076	2076	2076	2076	2076	2088	2088	2088	2088	2088	2088	2088	2088	2088	2088	2088	2088	2088	2088	2088	2088	2088	2088	2088	2088	2088	2088	2101	2088	2088	2088	2101	2101	2101	2101	2101	2101	2101	2101	2101	2101	2114	2114	2114	2114	2127	2127	2114	2114	2114	2114	2114	2101	2101	2101	2114	2114	2114	2114	2114	2114	2114	2114	2114	2114	2114	2114	2114	2127	2127	2127	2127	2127	2127	2127	2127	2127	2127	2127	2127	2140	2140	2127	2127	2127	2127	2127	2127	2140	2140	2140	2140	2140	2140	2140	2140	2140	2140	2153	2153	2153	2167	2167	2167	2167	2153	2153	2153	2153	2153	2153	2153	2153	2153	2167	2167	2167	2167	2167	2167	2167	2167	2167	2167	2167	2167	2167	2167	2167	2167	2167	2167	2167	2167	2167	2167	2181	2181	2181	2181	2194	2194	2194	2194	2194	2194	2194	2208	2208	2208	2208	2208	2208	2208	2208	2208	2208	2208	2208	2208	2208	2208	2194	2194	2208	2208	2208	2208	2208	2208	2208	2208	2208	2208	2208	2208	2208	2208	2208	2223	2223	2223	2223	2237	2237	2237	2237	2237	2237	2237	2237	2237	2237	2237	2237	2237	2237	2237	2237	2237	2237	2252	2252	2252	2252	2252	2252	2266	2252	2252	2266	2266	2266	2266	2266	2266	2266	2266	2266	2281	2266	2266	2266	2266	2266	2266	2266	2266	2266	2281	2266	2266	2281	2297	2297	2297	2297	2297	2297	2297	2297	2297	2297	2297	2297	2297	2297	2297
1843	1843	1843	1843	1843	1843	1843	1843	1853	1853	1853	1853	1853	1853	1853	1853	1853	1853	1853	1853	1853	1863	1863	1863	1863	1873	1873	1873	1873	1873	1873	1873	1873	1873	1873	1873	1873	1873	1873	1873	1873	1873	1873	1873	1873	1873	1873	1873	1873	1873	1883	1883	1883	1873	1873	1873	1873	1873	1863	1863	1873	1873	1873	1873	1873	1873	1873	1873	1873	1883	1883	1883	1894	1883	1883	1894	1894	1894	1894	1894	1894	1894	1894	1894	1894	1894	1894	1894	1894	1894	1894	1894	1894	1894	1894	1894	1894	1894	1894	1904	1904	1904	1904	1904	1904	1915	1904	1904	1915	1904	1904	1915	1904	1904	1904	1915	1915	1915	1915	1925	1925	1925	1915	1915	1925	1925	1925	1925	1925	1925	1925	1925	1925	1936	1936	1936	1936	1936	1936	1936	1936	1936	1936	1936	1936	1936	1936	1936	1936	1936	1936	1936	1947	1947	1947	1947	1947	1947	1947	1947	1947	1947	1947	1958	1958	1958	1958	1958	1969	1958	1958	1958	1958	1969	1969	1969	1969	1969	1969	1969	1969	1969	1969	1969	1969	1969	1969	1969	1969	1980	1980	1980	1980	1980	1980	1980	1980	1980	1992	1992	1992	1992	1992	1992	1992	1992	1992	1992	1992	2003	2003	2003	2003	2003	2003	2003	2003	2003	2003	2003	2003	2015	2015	2015	2015	2015	2015	2003	2003	2003	2003	2003	2003	2003	2003	2003	2003	2015	2015	2015	2003	2003	2003	2015	2015	2015	2015	2015	2015	2015	2015	2015	2015	2015	2015	2015	2027	2027	2027	2027	2027	2027	2039	2039	2039	2039	2039	2039	2039	2039	2039	2039	2039	2039	2039	2039	2039	2039	2039	2051	2051	2051	2051	2051	2051	2051	2051	2051	2051	2051	2051	2051	2051	2051	2051	2051	2051	2051	2051	2051	2051	2051	2051	2051	2051	2051	2051	2051	2051	2063	2063	2063	2063	2076	2076	2076	2076	2076	2076	2076	2076	2076	2076	2076	2076	2076	2076	2076	2076	2088	2088	2088	2088	2088	2088	2088	2088	2088	2088	2088	2088	2088	2076	2076	2076	2076	2076	2076	2076	2076	2076	2076	2076	2076	2088	2088	2088	2088	2088	2088	2088	2088	2088	2088	2088	2088	2088	2088	2088	2088	2088	2088	2088	2088	2088	2088	2088	2101	2101	2101	2101	2101	2101	2101	2101	2101	2101	2101	2101	2101	2101	2114	2101	2101	2114	2114	2127	2127	2127	2127	2114	2114	2114	2114	2114	2114	2114	2114	2114	2114	2114	2114	2114	2114	2114	2114	2114	2114	2114	2114	2127	2127	2127	2127	2127	2127	2127	2127	2127	2127	2127	2140	2140	2140	2140	2140	2140	2140	2140	2140	2140	2140	2153	2153	2153	2153	2153	2153	2153	2153	2153	2153	2153	2167	2167	2167	2167	2167	2167	2167	2167	2167	2167	2167	2167	2167	2167	2167	2167	2167	2167	2167	2167	2167	2167	2167	2167	2167	2167	2167	2167	2167	2181	2181	2181	2181	2181	2181	2181	2181	2181	2194	2194	2194	2194	2194	2194	2194	2208	2208	2208	2208	2208	2208	2208	2208	2208	2208	2208	2208	2208	2208	2208	2208	2208	2194	2194	2208	2208	2208	2208	2208	2208	2208	2208	2208	2208	2208	2208	2208	2208	2223	2223	2237	2237	2237	2237	2237	2237	2237	2237	2237	2237	2237	2237	2237	2237	2237	2252	2237	2237	2237	2252	2252	2252	2252	2252	2252	2252	2266	2266	2266	2266	2266	2266	2266	2281	2281	2281	2281	2281	2281	2281	2266	2266	2281	2266	2266	2266	2266	2266	2281	2281	2281	2281	2281	2297	2297	2297	2297	2297	2297	2297	2297	2297	2297	2297	2297	2297	2297	2297
1853	1853	1853	1853	1853	1853	1853	1853	1853	1853	1853	1853	1853	1853	1853	1853	1853	1853	1853	1853	1863	1863	1863	1863	1863	1873	1873	1873	1873	1873	1873	1873	1873	1873	1873	1873	1873	1873	1873	1873	1873	1873	1883	1883	1873	1873	1883	1883	1883	1883	1883	1883	1883	1883	1873	1873	1873	1873	1873	1873	1873	1873	1873	1873	1873	1873	1883	1873	1873	1883	1883	1883	1894	1894	1894	1894	1894	1894	1894	1894	1904	1904	1894	1894	1894	1894	1894	1894	1894	1894	1894	1894	1894	1894	1894	1894	1894	1894	1894	1904	1904	1904	1904	1904	1915	1915	1915	1915	1915	1915	1915	1915	1904	1904	1904	1915	1915	1925	1925	1925	1925	1925	1925	1925	1925	1925	1925	1925	1925	1925	1925	1925	1925	1936	1936	1936	1936	1936	1936	1936	1936	1936	1936	1936	1936	1936	1936	1936	1947	1947	1947	1947	1947	1947	1947	1947	1947	1947	1947	1947	1947	1947	1958	1958	1958	1969	1969	1969	1969	1958	1958	1969	1969	1969	1969	1969	1969	1969	1969	1969	1969	1969	1969	1969	1969	1969	1969	1969	1980	1980	1980	1980	1980	1980	1992	1992	1992	1992	1992	1992	1992	2003	2003	1992	1992	2003	2003	2003	2003	2003	2003	2003	2003	2003	2003	2003	2003	2003	2003	2003	2015	2015	2015	2015	2015	2015	2015	2003	2003	2003	2003	2003	2015	2015	2015	2015	2015	2015	2015	2015	2015	2015	2015	2015	2015	2015	2015	2015	2015	2027	2027	2027	2027	2027	2027	2027	2027	2027	2027	2027	2039	2039	2039	2039	2039	2039	2039	2039	2039	2039	2039	2039	2039	2039	2051	2051	2051	2051	2051	2051	2051	2051	2051	2051	2063	2051	2051	2051	2051	2051	2051	2051	2051	2051	2051	2051	2051	2051	2051	2051	2051	2063	2063	2063	2063	2051	2051	2063	2063	2063	2063	2076	2076	2076	2076	2076	2076	2076	2076	2076	2076	2076	2076	2088	2088	2088	2088	2088	2088	2088	2088	2088	2088	2088	2088	2088	2101	2101	2101	2101	2101	2101	2076	2076	2088	2076	2076	2076	2088	2088	2088	2088	2088	2088	2088	2088	2088	2088	2088	2088	2088	2088	2088	2088	2088	2088	2088	2088	2088	2088	2088	2088	2088	2088	2088	2101	2101	2101	2101	2101	2101	2101	2101	2101	2114	2114	2114	2114	2114	2114	2114	2114	2114	2114	2127	2127	2127	2127	2127	2127	2114	2114	2114	2114	2114	2114	2114	2114	2114	2114	2114	2114	2114	2114	2114	2114	2114	2114	2127	2127	2127	2127	2127	2127	2127	2127	2127	2127	2127	2127	2127	2140	2140	2140	2140	2140	2140	2140	2140	2140	2153	2153	2153	2153	2153	2153	2153	2167	2167	2153	2153	2167	2167	2167	2167	2167	2167	2167	2167	2167	2167	2167	2167	2167	2167	2167	2167	2167	2167	2167	2167	2167	2167	2167	2181	2181	2181	2181	2181	2181	2181	2181	2181	2181	2181	2181	2181	2181	2181	2181	2194	2194	2194	2208	2208	2208	2194	2194	2208	2208	2208	2208	2208	2208	2208	2208	2208	2208	2208	2208	2208	2208	2208	2223	2208	2208	2208	2208	2208	2208	2208	2208	2208	2208	2208	2208	2208	2208	2208	2223	2223	2223	2237	2237	2237	2237	2237	2237	2237	2237	2252	2252	2252	2252	2252	2237	2237	2252	2252	2252	2252	2252	2252	2252	2252	2252	2252	2252	2266	2266	2266	2266	2266	2266	2266	2281	2281	2281	2281	2281	2281	2281	2281	2281	2281	2281	2281	2281	2281	2281	2281	2281	2281	2281	2281	2297	2297	2297	2297	2297	2297	2297	2297	2297	2297	2297	2312	2312	2312	2312	2312
1853	1853	1853	1853	1853	1853	1863	1863	1853	1853	1863	1853	1853	1863	1853	1853	1853	1853	1853	1863	1863	1863	1863	1863	1873	1873	1873	1873	1873	1883	1873	1873	1873	1873	1873	1873	1873	1873	1873	1873	1873	1873	1883	1883	1883	1883	1883	1883	1883	1883	1883	1883	1883	1883	1873	1873	1873	1873	1873	1873	1873	1873	1873	1873	1873	1873	1883	1883	1883	1883	1883	1894	1894	1894	1894	1894	1904	1894	1894	1894	1904	1904	1904	1894	1894	1894	1904	1904	1904	1904	1904	1904	1904	1894	1894	1894	1894	1894	1894	1904	1904	1904	1915	1915	1915	1915	1915	1915	1915	1915	1915	1915	1915	1915	1915	1925	1925	1925	1925	1936	1936	1936	1925	1925	1925	1925	1936	1936	1925	1925	1936	1936	1936	1936	1936	1936	1936	1936	1936	1936	1936	1936	1947	1936	1936	1936	1936	1947	1947	1947	1947	1947	1947	1947	1947	1947	1947	1947	1947	1947	1947	1947	1958	1958	1969	1969	1969	1969	1969	1969	1969	1969	1969	1969	1969	1969	1969	1969	1969	1969	1969	1969	1969	1969	1969	1969	1980	1980	1980	1980	1980	1980	1980	1992	1992	1992	1992	1992	1992	1992	1992	2003	2003	2003	2003	2003	2003	2003	2003	2003	2003	2003	2015	2015	2015	2015	2015	2003	2003	2015	2015	2015	2015	2015	2015	2015	2015	2015	2015	2003	2003	2003	2015	2015	2015	2015	2015	2015	2015	2015	2015	2015	2015	2015	2015	2015	2015	2015	2027	2027	2027	2027	2027	2039	2039	2039	2039	2039	2039	2039	2039	2039	2039	2039	2051	2051	2051	2051	2051	2051	2051	2051	2051	2051	2051	2051	2051	2051	2051	2051	2051	2051	2051	2063	2063	2051	2051	2051	2051	2051	2051	2051	2051	2051	2051	2051	2051	2051	2051	2051	2063	2063	2063	2063	2063	2063	2063	2063	2063	2076	2076	2076	2076	2076	2088	2088	2088	2088	2088	2088	2088	2088	2088	2088	2088	2088	2088	2088	2088	2088	2088	2088	2088	2088	2088	2101	2101	2101	2101	2101	2101	2101	2088	2088	2088	2088	2088	2088	2088	2088	2088	2088	2088	2088	2088	2088	2088	2088	2088	2088	2088	2088	2088	2101	2088	2088	2088	2088	2088	2088	2088	2088	2088	2088	2101	2101	2101	2101	2114	2114	2114	2114	2114	2114	2114	2114	2114	2114	2114	2114	2114	2127	2127	2127	2127	2127	2127	2127	2127	2127	2114	2114	2114	2114	2114	2114	2114	2114	2114	2114	2114	2114	2114	2114	2127	2127	2127	2127	2127	2127	2127	2127	2127	2127	2127	2127	2127	2127	2127	2140	2140	2140	2140	2140	2153	2153	2153	2153	2153	2153	2153	2153	2153	2167	2167	2167	2167	2167	2167	2167	2167	2167	2167	2167	2167	2167	2167	2167	2167	2167	2167	2167	2167	2167	2167	2167	2167	2167	2167	2167	2167	2167	2181	2181	2181	2181	2181	2181	2181	2181	2181	2181	2181	2181	2181	2181	2194	2181	2181	2194	2194	2194	2208	2208	2208	2208	2208	2208	2208	2208	2208	2208	2208	2208	2208	2208	2223	2223	2208	2208	2223	2223	2223	2223	2223	2208	2208	2208	2208	2223	2223	2208	2208	2223	2223	2223	2223	2223	2223	2223	2223	2237	2237	2237	2237	2237	2237	2237	2237	2237	2252	2252	2252	2252	2252	2252	2252	2252	2252	2252	2252	2252	2252	2266	2266	2266	2266	2266	2266	2266	2281	2281	2281	2281	2281	2281	2281	2297	2281	2281	2281	2281	2281	2281	2281	2281	2281	2281	2281	2281	2281	2297	2297	2297	2297	2297	2297	2297	2297	2297	2297	2297	2297	2297	2312	2312	2312	2312	2312	2312	2312
1853	1863	1853	1853	1863	1863	1863	1863	1863	1863	1863	1863	1863	1863	1863	1863	1863	1863	1863	1863	1863	1863	1863	1863	1873	1873	1873	1873	1873	1883	1873	1873	1873	1873	1873	1873	1873	1873	1873	1883	1883	1883	1883	1883	1883	1883	1883	1883	1883	1883	1883	1883	1883	1883	1883	1883	1873	1873	1873	1873	1873	1873	1883	1883	1883	1883	1883	1883	1883	1883	1894	1894	1894	1894	1894	1904	1904	1904	1904	1904	1904	1904	1904	1904	1904	1904	1904	1904	1904	1904	1904	1904	1904	1904	1904	1904	1904	1904	1904	1904	1904	1904	1915	1915	1915	1915	1915	1915	1915	1915	1915	1915	1915	1915	1915	1925	1925	1925	1925	1936	1936	1936	1925	1925	1925	1925	1936	1936	1936	1936	1936	1936	1936	1936	1936	1936	1936	1936	1936	1947	1947	1947	1947	1947	1947	1947	1947	1947	1947	1947	1947	1947	1947	1947	1947	1947	1947	1947	1947	1958	1947	1947	1958	1958	1969	1969	1969	1969	1969	1969	1969	1969	1969	1969	1969	1969	1969	1969	1969	1969	1969	1969	1969	1969	1969	1980	1980	1980	1980	1980	1980	1980	1980	1992	1992	1992	1992	1992	1992	1992	2003	2003	2003	2003	2003	2003	2003	2003	2003	2003	2015	2015	2015	2015	2015	2015	2015	2003	2003	2015	2015	2015	2015	2015	2015	2015	2015	2015	2015	2015	2015	2015	2015	2015	2015	2015	2015	2015	2027	2015	2015	2015	2015	2015	2015	2015	2015	2027	2027	2027	2027	2039	2039	2039	2039	2039	2039	2039	2039	2039	2039	2039	2051	2051	2051	2051	2051	2051	2051	2051	2051	2051	2051	2051	2051	2051	2051	2051	2051	2051	2051	2051	2063	2063	2063	2051	2051	2051	2051	2051	2051	2051	2051	2051	2051	2051	2051	2051	2051	2063	2063	2063	2063	2063	2063	2063	2063	2063	2063	2076	2076	2076	2076	2088	2088	2088	2088	2088	2088	2088	2088	2088	2088	2088	2088	2088	2088	2088	2088	2088	2088	2088	2088	2088	2101	2101	2101	2101	2101	2101	2101	2101	2088	2088	2088	2088	2088	2088	2088	2088	2088	2088	2088	2088	2088	2088	2088	2088	2088	2088	2088	2088	2088	2101	2101	2101	2101	2101	2101	2101	2101	2101	2101	2101	2101	2101	2101	2101	2114	2114	2114	2114	2114	2114	2127	2127	2127	2127	2127	2127	2127	2127	2127	2127	2127	2127	2127	2127	2127	2127	2114	2114	2114	2114	2114	2114	2114	2114	2114	2114	2114	2127	2127	2127	2127	2127	2127	2127	2127	2127	2127	2127	2140	2140	2140	2140	2140	2140	2140	2140	2140	2140	2140	2140	2153	2153	2153	2153	2153	2153	2153	2153	2167	2167	2167	2167	2167	2167	2167	2167	2167	2167	2167	2167	2167	2167	2167	2181	2167	2167	2167	2167	2167	2167	2167	2167	2167	2167	2167	2181	2181	2181	2181	2181	2181	2181	2194	2194	2194	2194	2194	2181	2181	2181	2194	2194	2194	2194	2194	2194	2194	2208	2208	2208	2208	2208	2208	2208	2208	2208	2208	2208	2208	2223	2223	2223	2223	2223	2223	2223	2223	2223	2223	2223	2223	2208	2208	2208	2208	2223	2223	2223	2223	2223	2223	2223	2237	2223	2223	2237	2237	2237	2252	2237	2237	2237	2252	2252	2252	2252	2252	2252	2252	2252	2252	2252	2252	2252	2252	2252	2252	2252	2252	2266	2266	2266	2266	2266	2266	2266	2281	2281	2281	2281	2281	2281	2281	2297	2281	2281	2297	2297	2297	2281	2281	2281	2281	2281	2281	2297	2297	2297	2297	2297	2297	2297	2297	2297	2297	2297	2312	2312	2312	2312	2312	2312	2312	2312	2327	2327	2327
1853	1863	1853	1853	1863	1863	1863	1863	1863	1863	1863	1863	1863	1873	1873	1873	1873	1873	1863	1863	1873	1873	1873	1873	1873	1873	1873	1873	1873	1883	1883	1883	1873	1873	1873	1873	1873	1873	1873	1883	1883	1883	1883	1883	1883	1883	1883	1883	1883	1894	1894	1894	1894	1894	1883	1883	1883	1883	1883	1883	1883	1883	1883	1883	1883	1883	1883	1894	1894	1894	1894	1894	1894	1894	1894	1904	1904	1904	1904	1904	1904	1904	1904	1904	1904	1904	1904	1904	1904	1904	1904	1904	1904	1904	1904	1904	1904	1904	1904	1915	1915	1915	1915	1915	1915	1915	1915	1915	1915	1925	1925	1925	1925	1925	1925	1925	1925	1925	1936	1936	1936	1936	1936	1936	1936	1936	1936	1936	1936	1936	1936	1936	1936	1936	1936	1936	1936	1947	1947	1947	1947	1947	1947	1947	1947	1947	1947	1947	1947	1947	1947	1947	1947	1947	1947	1947	1947	1958	1958	1958	1958	1958	1958	1969	1969	1969	1980	1980	1980	1969	1969	1969	1969	1969	1969	1969	1980	1980	1980	1980	1980	1980	1980	1980	1980	1980	1980	1980	1980	1980	1980	1980	1992	1992	1992	1992	1992	1992	1992	2003	2003	2003	2003	2003	2003	2003	2003	2003	2015	2015	2015	2015	2015	2015	2015	2015	2015	2015	2015	2015	2015	2015	2015	2015	2015	2027	2027	2015	2015	2015	2015	2015	2015	2015	2015	2027	2027	2027	2027	2015	2015	2015	2015	2015	2015	2015	2027	2027	2027	2039	2039	2039	2039	2039	2039	2039	2039	2039	2039	2039	2039	2051	2051	2051	2051	2051	2051	2051	2051	2051	2051	2051	2051	2051	2051	2051	2051	2051	2063	2063	2063	2063	2063	2063	2063	2051	2051	2051	2051	2051	2051	2051	2051	2051	2051	2063	2063	2063	2063	2063	2063	2076	2076	2063	2063	2063	2063	2076	2076	2076	2076	2076	2088	2088	2088	2088	2088	2088	2101	2101	2088	2088	2101	2101	2088	2088	2088	2088	2088	2088	2088	2088	2088	2101	2101	2101	2101	2101	2101	2101	2101	2101	2088	2088	2088	2088	2088	2088	2088	2088	2088	2088	2088	2101	2101	2101	2101	2101	2101	2101	2101	2101	2101	2101	2101	2101	2101	2101	2101	2101	2101	2101	2101	2114	2114	2114	2114	2114	2114	2114	2127	2127	2127	2127	2127	2127	2127	2127	2127	2127	2127	2127	2127	2127	2127	2127	2127	2127	2140	2140	2127	2127	2127	2127	2127	2127	2127	2127	2127	2127	2127	2127	2127	2127	2127	2127	2127	2127	2127	2127	2140	2140	2140	2140	2140	2140	2140	2140	2140	2140	2140	2153	2153	2153	2153	2167	2167	2167	2167	2167	2167	2167	2167	2167	2167	2167	2167	2167	2167	2167	2167	2167	2167	2167	2181	2181	2181	2181	2167	2167	2167	2167	2167	2167	2167	2167	2181	2181	2181	2181	2194	2194	2194	2194	2194	2194	2194	2194	2194	2194	2194	2194	2194	2194	2194	2194	2194	2194	2194	2208	2208	2208	2208	2208	2208	2208	2208	2208	2208	2208	2208	2208	2208	2223	2223	2223	2223	2223	2223	2223	2223	2223	2223	2223	2223	2223	2223	2223	2223	2223	2223	2223	2223	2223	2223	2237	2237	2237	2237	2237	2237	2252	2252	2252	2252	2252	2252	2252	2252	2252	2252	2252	2252	2252	2252	2252	2252	2252	2252	2252	2252	2266	2266	2266	2266	2266	2266	2266	2281	2281	2281	2281	2281	2281	2281	2281	2281	2297	2297	2297	2297	2297	2297	2281	2281	2281	2297	2297	2297	2297	2297	2297	2297	2312	2312	2312	2312	2312	2312	2312	2312	2312	2312	2312	2312	2312	2312	2327	2327	2327	2327
1863	1863	1863	1863	1863	1863	1873	1863	1863	1863	1873	1873	1873	1873	1873	1873	1873	1873	1873	1873	1873	1873	1873	1873	1873	1873	1873	1883	1883	1883	1883	1883	1883	1883	1883	1883	1883	1883	1883	1883	1883	1883	1883	1883	1883	1883	1883	1883	1883	1894	1894	1894	1894	1894	1883	1883	1883	1883	1883	1883	1894	1894	1894	1894	1894	1894	1894	1894	1894	1894	1894	1894	1894	1894	1894	1904	1904	1904	1904	1904	1904	1904	1904	1904	1904	1904	1904	1904	1904	1915	1904	1904	1904	1904	1904	1904	1904	1904	1904	1915	1915	1915	1915	1915	1915	1915	1915	1925	1925	1925	1925	1925	1925	1925	1925	1925	1925	1925	1936	1936	1936	1936	1936	1936	1936	1936	1936	1936	1936	1936	1936	1936	1936	1936	1936	1936	1936	1947	1947	1947	1947	1947	1947	1947	1947	1947	1947	1947	1947	1947	1947	1947	1958	1958	1958	1958	1958	1958	1958	1958	1958	1958	1969	1969	1969	1980	1980	1980	1980	1969	1969	1969	1969	1980	1980	1980	1980	1980	1980	1980	1980	1980	1980	1980	1980	1980	1980	1980	1980	1980	1980	1992	1992	1992	1992	2003	2003	2003	2003	2003	2003	2003	2003	2003	2003	2015	2015	2015	2015	2015	2015	2015	2015	2015	2015	2015	2015	2015	2015	2015	2015	2015	2015	2027	2027	2027	2027	2015	2015	2015	2015	2015	2015	2015	2015	2027	2027	2027	2027	2027	2027	2027	2027	2027	2027	2027	2027	2027	2039	2039	2039	2039	2051	2051	2051	2051	2051	2051	2051	2051	2051	2051	2051	2051	2051	2051	2051	2051	2051	2051	2051	2051	2051	2051	2051	2051	2063	2063	2063	2063	2063	2063	2063	2063	2063	2051	2051	2051	2063	2051	2051	2051	2051	2051	2051	2063	2063	2063	2063	2063	2076	2076	2076	2076	2076	2076	2076	2076	2076	2088	2088	2088	2088	2088	2088	2088	2088	2088	2101	2101	2101	2101	2101	2101	2088	2088	2101	2088	2088	2101	2101	2101	2101	2101	2101	2101	2101	2101	2101	2101	2101	2101	2088	2088	2088	2088	2088	2088	2088	2088	2088	2088	2101	2101	2101	2101	2101	2101	2101	2101	2101	2101	2101	2101	2101	2101	2101	2101	2114	2114	2114	2114	2114	2114	2114	2114	2114	2114	2127	2127	2127	2127	2127	2127	2127	2127	2127	2127	2127	2127	2127	2127	2127	2127	2127	2127	2127	2127	2140	2140	2127	2127	2127	2127	2127	2127	2127	2127	2127	2127	2127	2127	2127	2127	2127	2127	2127	2127	2127	2127	2140	2140	2140	2140	2140	2140	2140	2140	2153	2153	2153	2153	2153	2153	2153	2167	2167	2167	2167	2167	2167	2167	2167	2167	2167	2167	2167	2167	2167	2167	2167	2167	2167	2181	2181	2181	2181	2181	2167	2167	2167	2167	2167	2167	2181	2181	2181	2181	2181	2194	2194	2194	2194	2194	2194	2194	2194	2194	2194	2194	2194	2194	2194	2208	2208	2208	2208	2208	2208	2208	2208	2208	2208	2208	2208	2208	2208	2208	2208	2223	2223	2223	2223	2223	2223	2223	2223	2223	2223	2223	2223	2223	2223	2223	2237	2223	2223	2223	2223	2237	2237	2237	2237	2237	2237	2237	2237	2237	2237	2252	2252	2252	2252	2252	2252	2252	2252	2252	2252	2252	2252	2252	2252	2252	2252	2252	2252	2252	2266	2266	2266	2266	2266	2266	2266	2266	2281	2281	2297	2297	2297	2297	2297	2281	2281	2297	2297	2297	2297	2297	2312	2312	2297	2281	2281	2281	2297	2297	2297	2297	2297	2312	2312	2312	2312	2312	2312	2312	2312	2312	2312	2312	2312	2312	2327	2327	2327	2343	2343	2343	2343
1863	1863	1863	1863	1863	1863	1873	1863	1863	1863	1873	1873	1873	1873	1873	1873	1873	1873	1873	1873	1873	1873	1873	1873	1873	1883	1883	1883	1883	1883	1883	1883	1894	1894	1883	1883	1883	1883	1883	1894	1894	1894	1894	1883	1883	1894	1894	1894	1894	1894	1904	1904	1904	1904	1894	1894	1894	1894	1894	1894	1894	1894	1894	1894	1894	1894	1894	1894	1894	1894	1894	1904	1904	1904	1904	1904	1904	1904	1904	1904	1904	1904	1904	1904	1904	1904	1915	1915	1915	1915	1915	1915	1915	1915	1915	1915	1915	1915	1915	1915	1915	1915	1915	1915	1915	1915	1925	1925	1936	1936	1936	1936	1925	1925	1925	1925	1925	1936	1936	1936	1936	1936	1936	1936	1936	1936	1936	1936	1936	1936	1936	1936	1936	1947	1947	1947	1947	1947	1947	1947	1947	1947	1947	1947	1947	1958	1947	1947	1958	1958	1958	1958	1958	1958	1958	1958	1958	1969	1969	1969	1969	1969	1980	1980	1980	1980	1980	1980	1980	1969	1969	1969	1980	1980	1980	1980	1980	1980	1980	1980	1980	1980	1980	1980	1980	1980	1980	1980	1980	1980	1992	1992	1992	1992	1992	2003	2003	2003	2003	2003	2003	2015	2015	2003	2003	2015	2015	2015	2015	2015	2015	2015	2015	2015	2015	2015	2015	2015	2015	2015	2015	2015	2027	2027	2027	2027	2027	2015	2015	2015	2015	2015	2027	2015	2015	2027	2039	2039	2039	2039	2039	2039	2027	2027	2027	2027	2027	2027	2039	2039	2039	2051	2051	2051	2051	2051	2051	2051	2051	2051	2051	2051	2051	2051	2051	2051	2051	2051	2051	2051	2051	2051	2051	2051	2051	2063	2063	2063	2063	2063	2063	2063	2063	2063	2076	2063	2051	2051	2063	2063	2063	2063	2051	2051	2063	2063	2063	2063	2063	2063	2076	2076	2076	2076	2076	2076	2088	2088	2088	2088	2088	2088	2088	2088	2088	2088	2088	2101	2101	2101	2101	2101	2101	2101	2088	2088	2101	2101	2101	2101	2101	2101	2101	2101	2101	2101	2101	2101	2101	2101	2101	2114	2101	2101	2101	2088	2088	2101	2088	2088	2101	2101	2101	2114	2114	2114	2114	2114	2114	2101	2101	2101	2114	2114	2114	2114	2114	2114	2114	2114	2114	2114	2114	2114	2114	2127	2127	2127	2127	2127	2127	2127	2127	2127	2127	2127	2127	2127	2127	2127	2127	2127	2127	2127	2127	2127	2127	2127	2140	2140	2127	2127	2127	2127	2127	2127	2127	2127	2127	2127	2127	2127	2127	2127	2127	2127	2127	2127	2127	2140	2140	2140	2140	2153	2153	2153	2153	2153	2153	2153	2153	2153	2153	2153	2167	2167	2167	2167	2167	2167	2167	2167	2167	2167	2167	2167	2167	2167	2167	2167	2167	2181	2181	2181	2181	2181	2181	2181	2167	2167	2167	2181	2181	2181	2181	2181	2181	2194	2194	2194	2194	2194	2194	2194	2194	2194	2194	2194	2194	2194	2194	2194	2194	2208	2208	2208	2208	2208	2208	2208	2208	2208	2208	2223	2223	2223	2223	2223	2223	2223	2223	2223	2223	2223	2223	2223	2223	2223	2223	2223	2223	2223	2223	2237	2237	2237	2237	2223	2223	2237	2237	2237	2237	2237	2237	2237	2237	2237	2237	2252	2252	2252	2252	2252	2252	2252	2252	2252	2252	2252	2252	2252	2252	2266	2266	2266	2266	2266	2266	2266	2266	2266	2266	2266	2266	2266	2281	2281	2297	2297	2297	2297	2297	2297	2297	2297	2312	2312	2312	2312	2312	2312	2312	2297	2297	2297	2297	2297	2297	2297	2297	2312	2312	2312	2312	2312	2312	2312	2312	2312	2312	2312	2312	2312	2327	2327	2327	2343	2343	2343	2343
1863	1863	1863	1863	1873	1873	1873	1873	1873	1873	1873	1873	1873	1873	1873	1873	1873	1873	1873	1873	1873	1873	1873	1883	1883	1883	1883	1883	1883	1883	1883	1883	1894	1904	1894	1894	1894	1894	1894	1894	1894	1894	1894	1894	1894	1894	1894	1894	1894	1904	1904	1904	1904	1904	1894	1894	1894	1894	1894	1894	1904	1904	1904	1894	1894	1894	1904	1904	1904	1904	1904	1904	1904	1904	1904	1904	1904	1915	1904	1904	1904	1904	1904	1904	1904	1904	1915	1915	1915	1915	1915	1915	1915	1915	1915	1915	1915	1915	1915	1915	1915	1915	1915	1925	1925	1925	1936	1936	1936	1936	1936	1936	1925	1925	1925	1936	1936	1936	1936	1936	1936	1936	1936	1936	1936	1936	1936	1936	1936	1936	1936	1936	1936	1947	1947	1947	1947	1947	1958	1958	1958	1958	1958	1958	1958	1958	1958	1969	1969	1969	1969	1969	1958	1958	1958	1969	1969	1969	1969	1969	1980	1980	1980	1980	1980	1980	1980	1980	1992	1980	1980	1980	1980	1980	1980	1980	1980	1980	1980	1980	1980	1980	1992	1980	1980	1992	1992	1992	1980	1980	1992	1992	1992	1992	2003	2003	2003	2003	2003	2015	2015	2015	2015	2015	2015	2015	2015	2015	2015	2015	2015	2015	2015	2015	2015	2027	2027	2027	2027	2027	2027	2027	2027	2027	2027	2027	2027	2015	2015	2015	2015	2015	2027	2027	2027	2027	2039	2039	2039	2039	2039	2039	2039	2039	2039	2039	2039	2039	2039	2039	2051	2051	2051	2051	2051	2051	2051	2051	2051	2051	2051	2051	2051	2063	2063	2063	2063	2051	2051	2051	2051	2051	2051	2063	2063	2063	2063	2063	2063	2063	2063	2076	2076	2076	2076	2063	2063	2063	2063	2063	2063	2063	2063	2063	2063	2063	2076	2076	2076	2076	2076	2088	2088	2088	2088	2088	2088	2088	2088	2088	2088	2088	2088	2088	2088	2088	2088	2101	2101	2101	2101	2101	2101	2101	2101	2101	2101	2101	2101	2101	2101	2101	2101	2101	2101	2101	2101	2114	2114	2114	2114	2114	2101	2101	2101	2101	2101	2101	2101	2101	2101	2101	2114	2114	2114	2114	2114	2114	2114	2114	2114	2114	2114	2114	2114	2114	2114	2114	2114	2114	2114	2127	2127	2114	2114	2127	2127	2127	2127	2127	2127	2127	2127	2127	2127	2140	2140	2127	2127	2127	2127	2140	2140	2140	2140	2140	2140	2140	2140	2140	2127	2127	2127	2127	2127	2127	2127	2127	2127	2127	2127	2127	2127	2127	2127	2127	2140	2140	2140	2140	2153	2153	2153	2153	2153	2153	2153	2153	2153	2153	2153	2153	2153	2167	2167	2167	2167	2167	2167	2167	2167	2167	2167	2181	2181	2181	2181	2181	2181	2181	2181	2181	2181	2181	2181	2181	2181	2181	2181	2181	2181	2181	2181	2181	2181	2194	2194	2194	2194	2194	2194	2208	2208	2208	2194	2194	2194	2194	2194	2194	2208	2208	2208	2208	2208	2208	2208	2208	2208	2208	2208	2208	2223	2223	2223	2223	2223	2223	2223	2223	2223	2223	2223	2223	2237	2237	2237	2237	2237	2237	2237	2237	2237	2252	2252	2237	2237	2237	2237	2237	2252	2252	2237	2237	2237	2237	2252	2252	2252	2252	2252	2252	2252	2252	2252	2266	2266	2266	2266	2266	2266	2266	2266	2266	2266	2266	2266	2266	2266	2266	2266	2266	2266	2266	2266	2281	2297	2297	2297	2297	2312	2312	2312	2312	2312	2312	2312	2312	2312	2312	2312	2312	2312	2297	2297	2297	2297	2297	2297	2297	2312	2312	2312	2312	2312	2312	2312	2312	2312	2312	2312	2312	2327	2327	2327	2327	2343	2343	2359	2359	2359
1873	1873	1873	1873	1873	1873	1873	1873	1873	1873	1873	1873	1873	1873	1873	1883	1873	1873	1883	1873	1873	1883	1883	1883	1883	1883	1883	1883	1883	1883	1883	1883	1894	1904	1904	1904	1894	1894	1904	1904	1894	1894	1894	1894	1894	1904	1904	1904	1904	1904	1904	1904	1904	1904	1904	1904	1904	1904	1904	1904	1904	1904	1904	1904	1904	1904	1904	1904	1904	1904	1904	1904	1904	1904	1904	1904	1904	1915	1904	1904	1904	1904	1915	1915	1915	1915	1915	1915	1915	1915	1915	1915	1925	1915	1915	1925	1925	1925	1925	1925	1925	1925	1925	1925	1925	1925	1936	1936	1936	1947	1947	1947	1936	1936	1936	1936	1936	1936	1936	1936	1936	1936	1936	1936	1947	1947	1947	1947	1947	1947	1947	1947	1947	1947	1947	1947	1958	1958	1958	1958	1958	1958	1958	1958	1958	1969	1969	1969	1969	1969	1969	1969	1969	1969	1969	1969	1969	1980	1980	1980	1980	1980	1980	1980	1980	1980	1992	1992	1992	1980	1980	1980	1980	1980	1980	1980	1980	1980	1980	1980	1980	1992	1992	1992	1992	1992	1992	1992	1992	1992	1992	1992	1992	1992	2003	2003	2003	2015	2015	2015	2015	2015	2015	2015	2015	2015	2015	2015	2015	2015	2015	2015	2015	2015	2015	2027	2027	2027	2027	2027	2027	2027	2027	2027	2027	2027	2027	2015	2015	2027	2027	2027	2027	2027	2027	2027	2039	2039	2039	2039	2051	2051	2039	2039	2039	2039	2039	2039	2039	2051	2051	2051	2051	2051	2051	2051	2051	2051	2051	2051	2051	2051	2051	2063	2063	2063	2063	2063	2063	2063	2063	2063	2063	2063	2063	2063	2063	2063	2076	2076	2076	2076	2076	2076	2076	2063	2063	2063	2063	2063	2063	2063	2063	2076	2076	2076	2076	2076	2076	2076	2088	2088	2088	2088	2088	2088	2088	2088	2088	2088	2088	2088	2088	2088	2088	2088	2088	2101	2101	2101	2101	2101	2101	2101	2101	2101	2101	2101	2101	2101	2101	2101	2101	2101	2101	2114	2114	2114	2114	2114	2114	2114	2101	2101	2101	2101	2101	2101	2101	2101	2114	2114	2114	2114	2127	2114	2114	2114	2114	2114	2114	2114	2114	2114	2114	2127	2127	2127	2127	2127	2127	2127	2127	2127	2127	2127	2127	2127	2127	2127	2140	2140	2140	2140	2140	2140	2140	2140	2140	2140	2140	2140	2140	2140	2140	2140	2140	2140	2140	2140	2127	2127	2127	2127	2127	2127	2127	2140	2140	2140	2140	2140	2140	2140	2140	2140	2140	2153	2153	2153	2153	2153	2153	2167	2167	2167	2167	2167	2167	2167	2167	2167	2167	2167	2167	2167	2167	2167	2167	2167	2167	2167	2167	2181	2181	2181	2181	2181	2181	2181	2181	2181	2181	2181	2181	2181	2181	2194	2181	2181	2181	2194	2194	2194	2194	2194	2194	2194	2194	2194	2208	2208	2208	2208	2208	2208	2208	2208	2208	2208	2208	2208	2208	2208	2208	2223	2208	2208	2208	2208	2223	2223	2223	2223	2223	2223	2223	2223	2223	2223	2223	2223	2237	2237	2237	2237	2237	2237	2237	2237	2237	2237	2237	2252	2266	2252	2252	2252	2252	2252	2252	2252	2252	2252	2252	2252	2252	2252	2252	2252	2252	2252	2252	2252	2252	2266	2266	2266	2266	2266	2266	2266	2266	2266	2266	2266	2266	2266	2266	2281	2281	2281	2281	2281	2281	2281	2297	2297	2297	2297	2312	2312	2312	2312	2312	2312	2312	2312	2312	2312	2312	2312	2312	2297	2297	2297	2312	2297	2297	2312	2312	2312	2312	2312	2312	2312	2312	2312	2312	2312	2312	2327	2327	2327	2343	2343	2343	2343	2359	2359	2359
1873	1873	1873	1873	1873	1873	1873	1873	1873	1873	1873	1873	1873	1883	1883	1883	1883	1883	1883	1883	1883	1883	1883	1883	1883	1883	1883	1894	1894	1894	1894	1894	1894	1904	1904	1904	1894	1894	1904	1904	1904	1894	1894	1904	1904	1904	1904	1904	1904	1904	1915	1915	1915	1915	1904	1904	1904	1904	1904	1904	1904	1904	1904	1904	1904	1904	1904	1904	1904	1904	1904	1904	1915	1915	1915	1915	1915	1915	1915	1915	1915	1915	1915	1915	1915	1915	1915	1915	1915	1915	1925	1925	1925	1925	1925	1925	1936	1936	1936	1936	1925	1925	1925	1936	1936	1936	1936	1936	1936	1947	1947	1947	1936	1936	1936	1936	1936	1936	1936	1936	1947	1947	1947	1947	1947	1947	1947	1947	1947	1947	1947	1947	1947	1958	1958	1958	1958	1969	1969	1969	1969	1969	1969	1969	1969	1969	1969	1969	1969	1969	1969	1969	1969	1969	1969	1969	1969	1980	1980	1980	1980	1980	1980	1980	1992	1992	1992	1992	1992	1980	1980	1980	1980	1980	1980	1980	1980	1980	1980	1992	1992	1992	2003	2003	2003	2003	1992	1992	1992	1992	1992	1992	1992	1992	2003	2003	2015	2015	2015	2015	2015	2015	2015	2015	2015	2015	2015	2015	2015	2015	2015	2015	2015	2015	2027	2027	2027	2027	2027	2027	2027	2027	2027	2027	2027	2027	2039	2027	2027	2027	2027	2027	2027	2039	2039	2039	2039	2039	2051	2051	2051	2051	2051	2051	2051	2051	2051	2051	2051	2051	2051	2051	2051	2051	2051	2051	2051	2051	2063	2063	2063	2063	2063	2063	2063	2063	2063	2063	2063	2063	2063	2063	2063	2063	2063	2063	2063	2063	2076	2076	2076	2076	2076	2088	2088	2063	2063	2063	2076	2076	2076	2076	2076	2076	2076	2076	2076	2088	2088	2088	2088	2088	2088	2088	2088	2088	2088	2088	2088	2088	2101	2101	2101	2088	2088	2101	2101	2101	2101	2101	2101	2101	2101	2101	2101	2101	2101	2101	2101	2101	2101	2101	2114	2101	2101	2114	2114	2114	2114	2114	2114	2114	2101	2101	2101	2101	2114	2114	2114	2114	2114	2114	2127	2127	2127	2127	2127	2127	2127	2127	2127	2127	2114	2114	2127	2127	2127	2127	2127	2127	2127	2127	2127	2127	2127	2127	2127	2127	2127	2127	2140	2140	2140	2140	2140	2140	2140	2140	2140	2140	2140	2140	2140	2140	2140	2140	2140	2140	2153	2153	2140	2140	2140	2140	2140	2140	2140	2140	2140	2140	2140	2140	2140	2140	2153	2153	2153	2153	2153	2153	2153	2153	2167	2167	2167	2167	2167	2167	2167	2167	2167	2167	2167	2167	2167	2167	2167	2181	2181	2181	2181	2181	2181	2181	2181	2181	2181	2181	2181	2181	2181	2181	2181	2181	2181	2181	2181	2194	2181	2181	2194	2194	2194	2194	2194	2194	2194	2194	2194	2208	2208	2208	2208	2208	2208	2208	2208	2208	2208	2208	2208	2208	2208	2208	2223	2223	2223	2223	2223	2223	2223	2223	2223	2223	2223	2223	2237	2237	2237	2237	2237	2237	2237	2237	2237	2237	2252	2237	2237	2237	2252	2252	2252	2266	2266	2252	2252	2252	2252	2252	2252	2252	2252	2252	2252	2252	2252	2252	2252	2252	2252	2252	2252	2266	2266	2266	2266	2266	2266	2266	2266	2266	2266	2266	2281	2281	2281	2281	2281	2281	2281	2281	2281	2281	2281	2297	2297	2297	2312	2312	2312	2312	2312	2312	2312	2312	2312	2312	2312	2312	2312	2312	2312	2312	2312	2312	2312	2312	2312	2312	2312	2312	2312	2312	2312	2312	2312	2312	2327	2327	2327	2327	2343	2343	2343	2343	2343	2359	2359	2359	2359
1873	1873	1873	1873	1873	1873	1873	1873	1873	1873	1873	1873	1883	1883	1883	1883	1883	1883	1894	1883	1883	1883	1883	1883	1883	1883	1883	1894	1894	1894	1894	1904	1904	1904	1904	1904	1904	1904	1904	1904	1904	1904	1904	1904	1904	1904	1904	1915	1915	1915	1915	1915	1915	1915	1904	1904	1904	1904	1904	1904	1904	1904	1904	1915	1904	1904	1915	1915	1915	1915	1904	1904	1915	1915	1915	1915	1915	1915	1915	1915	1915	1915	1915	1915	1915	1915	1915	1915	1915	1915	1925	1925	1925	1925	1925	1936	1936	1936	1936	1936	1936	1936	1936	1936	1936	1936	1947	1947	1947	1947	1947	1947	1936	1936	1936	1936	1936	1947	1936	1936	1947	1947	1947	1947	1947	1947	1947	1947	1947	1947	1947	1947	1947	1958	1958	1969	1969	1969	1969	1969	1969	1969	1969	1969	1969	1980	1969	1969	1969	1969	1969	1969	1969	1969	1980	1980	1980	1980	1980	1980	1980	1992	1992	1992	1992	1992	1992	1992	1992	1980	1980	1980	1980	1980	1980	1980	1992	1992	1992	1992	1992	2003	2003	2003	2003	2003	2003	2003	2003	1992	1992	1992	1992	2003	2003	2003	2015	2015	2015	2015	2015	2027	2027	2015	2015	2027	2015	2015	2015	2015	2027	2027	2027	2027	2027	2027	2027	2027	2027	2027	2027	2027	2027	2027	2027	2027	2039	2027	2027	2027	2027	2039	2039	2039	2039	2039	2039	2039	2051	2051	2051	2051	2051	2051	2051	2051	2051	2051	2051	2051	2051	2051	2051	2051	2051	2051	2063	2063	2063	2063	2063	2063	2063	2063	2063	2063	2063	2063	2063	2063	2063	2063	2063	2063	2076	2076	2076	2076	2088	2088	2088	2088	2088	2088	2088	2076	2076	2076	2076	2076	2076	2076	2076	2076	2088	2088	2088	2088	2088	2088	2088	2088	2088	2088	2088	2088	2088	2101	2101	2101	2101	2101	2101	2101	2101	2101	2101	2101	2101	2101	2101	2101	2101	2101	2101	2101	2101	2101	2101	2114	2114	2114	2114	2114	2114	2114	2114	2114	2114	2114	2114	2127	2114	2114	2114	2114	2114	2114	2114	2114	2114	2114	2127	2127	2127	2127	2127	2127	2127	2127	2127	2127	2127	2127	2127	2127	2127	2127	2127	2127	2127	2127	2127	2127	2127	2127	2127	2127	2140	2140	2140	2140	2140	2140	2140	2140	2140	2140	2140	2140	2140	2140	2140	2140	2140	2140	2153	2153	2153	2167	2153	2153	2153	2153	2140	2140	2140	2140	2140	2153	2153	2153	2153	2153	2153	2153	2153	2153	2153	2167	2167	2167	2167	2167	2167	2167	2167	2167	2167	2167	2167	2167	2167	2167	2167	2167	2167	2181	2181	2181	2181	2181	2181	2181	2181	2181	2181	2181	2181	2181	2194	2194	2194	2194	2194	2194	2194	2208	2194	2194	2194	2208	2208	2208	2208	2208	2208	2208	2208	2208	2208	2208	2208	2208	2208	2208	2208	2208	2208	2208	2208	2223	2223	2223	2223	2223	2223	2223	2223	2223	2223	2223	2223	2223	2223	2237	2237	2237	2237	2237	2237	2237	2252	2252	2237	2237	2252	2252	2252	2252	2252	2252	2266	2266	2266	2252	2252	2252	2252	2252	2252	2252	2252	2252	2252	2252	2252	2252	2266	2266	2252	2252	2266	2266	2266	2266	2266	2266	2266	2266	2281	2266	2266	2281	2281	2297	2297	2281	2281	2297	2297	2297	2297	2281	2281	2297	2312	2312	2312	2312	2312	2312	2312	2312	2312	2312	2327	2327	2312	2312	2327	2327	2327	2312	2312	2312	2312	2312	2312	2312	2312	2312	2312	2312	2312	2327	2327	2327	2327	2327	2343	2343	2343	2343	2343	2343	2343	2359	2359	2359	2359
1883	1873	1873	1883	1873	1873	1873	1873	1873	1873	1883	1883	1883	1883	1883	1883	1883	1883	1894	1894	1894	1894	1894	1894	1894	1894	1894	1894	1904	1904	1904	1904	1904	1904	1904	1904	1904	1904	1904	1904	1904	1904	1904	1904	1904	1915	1915	1915	1915	1915	1915	1915	1915	1915	1904	1904	1904	1904	1904	1904	1915	1915	1915	1915	1915	1915	1915	1915	1915	1915	1915	1915	1915	1915	1915	1915	1915	1915	1915	1915	1915	1915	1915	1915	1915	1915	1915	1915	1925	1925	1925	1925	1936	1936	1936	1936	1936	1936	1936	1936	1936	1936	1936	1936	1936	1936	1947	1947	1947	1947	1947	1947	1936	1936	1936	1936	1936	1947	1947	1947	1947	1947	1947	1947	1947	1947	1947	1947	1947	1947	1947	1958	1958	1958	1969	1969	1969	1969	1980	1980	1980	1980	1980	1980	1980	1980	1980	1980	1980	1980	1980	1980	1980	1980	1980	1980	1980	1980	1992	1992	1992	1992	1992	1992	1992	1992	1992	1992	2003	1992	1992	1992	1992	1992	1992	1992	1992	1992	1992	2003	2003	2003	2003	2003	2003	2015	2015	2015	2015	2003	2003	2003	2003	2003	2015	2015	2015	2015	2015	2027	2027	2027	2027	2015	2015	2027	2027	2027	2027	2027	2027	2027	2027	2027	2027	2027	2027	2027	2027	2027	2027	2027	2039	2039	2039	2039	2039	2027	2027	2039	2039	2039	2039	2039	2039	2039	2051	2051	2051	2051	2051	2051	2051	2051	2051	2051	2051	2051	2051	2051	2051	2051	2051	2051	2051	2051	2063	2063	2063	2063	2063	2063	2063	2063	2063	2063	2063	2063	2063	2063	2063	2076	2076	2076	2076	2076	2076	2088	2088	2088	2088	2088	2088	2088	2088	2076	2076	2076	2088	2088	2088	2088	2088	2088	2088	2088	2088	2088	2088	2088	2088	2088	2088	2088	2088	2101	2101	2101	2101	2101	2101	2101	2101	2101	2101	2101	2101	2101	2101	2101	2101	2101	2101	2101	2114	2114	2114	2114	2114	2114	2114	2114	2114	2114	2114	2127	2127	2114	2114	2127	2127	2127	2114	2114	2114	2114	2114	2114	2127	2127	2127	2127	2127	2127	2127	2127	2127	2127	2127	2127	2127	2127	2127	2127	2127	2127	2127	2127	2127	2127	2127	2127	2127	2127	2127	2127	2140	2140	2140	2140	2140	2140	2140	2140	2153	2153	2153	2140	2140	2140	2140	2140	2140	2140	2140	2153	2153	2167	2167	2167	2153	2153	2153	2153	2153	2153	2153	2153	2153	2153	2153	2153	2153	2153	2153	2153	2167	2167	2167	2167	2167	2167	2167	2167	2167	2167	2167	2167	2167	2167	2181	2181	2181	2181	2181	2181	2181	2181	2181	2181	2181	2181	2181	2181	2194	2194	2194	2194	2194	2194	2194	2194	2194	2194	2194	2194	2194	2208	2194	2194	2208	2208	2208	2208	2208	2208	2208	2208	2208	2208	2208	2208	2208	2208	2208	2208	2208	2223	2223	2223	2223	2223	2223	2223	2223	2237	2223	2223	2223	2223	2223	2223	2223	2223	2223	2237	2237	2237	2237	2237	2252	2252	2252	2252	2237	2237	2252	2252	2252	2252	2252	2266	2266	2266	2266	2252	2252	2266	2266	2252	2252	2252	2252	2252	2252	2252	2252	2252	2266	2266	2266	2266	2266	2266	2266	2266	2266	2266	2266	2266	2281	2281	2281	2281	2297	2297	2297	2297	2297	2297	2312	2312	2312	2297	2297	2312	2312	2312	2312	2312	2312	2312	2327	2327	2327	2327	2327	2327	2327	2327	2327	2327	2327	2312	2312	2312	2312	2312	2312	2312	2312	2312	2312	2312	2312	2327	2327	2327	2343	2343	2343	2343	2343	2343	2343	2343	2343	2359	2359	2359	2359
1883	1883	1883	1883	1883	1883	1883	1883	1883	1883	1883	1883	1883	1894	1894	1894	1894	1894	1904	1904	1894	1894	1894	1894	1894	1894	1904	1904	1904	1904	1904	1904	1904	1904	1904	1904	1904	1904	1904	1904	1904	1904	1904	1915	1915	1915	1915	1915	1915	1915	1915	1915	1915	1915	1904	1904	1904	1904	1904	1915	1915	1915	1915	1915	1915	1915	1915	1925	1915	1915	1915	1915	1915	1915	1915	1915	1915	1915	1915	1915	1915	1915	1915	1915	1925	1925	1925	1925	1925	1925	1936	1936	1936	1936	1936	1936	1947	1947	1947	1947	1947	1947	1947	1947	1947	1947	1947	1947	1947	1947	1947	1947	1936	1936	1936	1947	1947	1947	1947	1947	1947	1947	1947	1947	1958	1947	1947	1958	1958	1958	1958	1958	1958	1969	1969	1969	1969	1980	1980	1980	1980	1980	1980	1980	1980	1980	1980	1980	1980	1980	1980	1980	1980	1980	1980	1980	1980	1980	1992	1992	1992	1992	1992	1992	1992	1992	2003	2003	2003	1992	1992	1992	1992	1992	1992	1992	2003	2003	2003	2003	2003	2003	2015	2015	2015	2015	2015	2015	2015	2015	2015	2015	2015	2015	2015	2015	2015	2027	2027	2027	2027	2027	2027	2027	2027	2027	2027	2027	2027	2027	2027	2027	2027	2027	2027	2027	2027	2027	2027	2039	2039	2039	2039	2039	2039	2039	2039	2039	2039	2039	2039	2039	2039	2039	2051	2051	2051	2051	2051	2051	2051	2051	2051	2051	2051	2051	2051	2051	2051	2051	2051	2051	2051	2051	2051	2051	2063	2063	2063	2063	2063	2063	2063	2063	2063	2063	2063	2063	2063	2063	2063	2076	2076	2076	2076	2076	2088	2088	2101	2101	2101	2101	2101	2101	2101	2076	2076	2076	2088	2088	2088	2088	2088	2088	2088	2088	2088	2088	2088	2088	2101	2101	2101	2101	2101	2101	2101	2101	2101	2101	2101	2101	2101	2101	2101	2101	2101	2101	2101	2101	2101	2114	2114	2114	2114	2114	2114	2114	2114	2127	2127	2127	2127	2127	2127	2127	2127	2127	2127	2127	2127	2127	2114	2114	2114	2127	2127	2127	2127	2127	2127	2127	2127	2127	2127	2127	2127	2127	2127	2127	2127	2127	2127	2127	2127	2140	2140	2127	2127	2127	2127	2140	2140	2140	2140	2140	2140	2140	2140	2140	2140	2140	2140	2153	2153	2153	2153	2153	2153	2153	2153	2153	2153	2153	2153	2153	2167	2167	2167	2181	2153	2153	2167	2153	2153	2153	2153	2153	2153	2167	2167	2167	2167	2167	2167	2167	2167	2167	2167	2167	2167	2167	2167	2167	2167	2181	2181	2181	2181	2181	2181	2181	2181	2181	2181	2181	2181	2181	2181	2181	2181	2181	2181	2194	2194	2194	2194	2194	2194	2194	2194	2194	2194	2208	2208	2208	2208	2208	2208	2208	2208	2208	2208	2208	2208	2208	2208	2208	2208	2208	2208	2208	2208	2208	2223	2223	2223	2223	2223	2223	2223	2223	2223	2223	2237	2237	2223	2223	2223	2223	2223	2223	2223	2237	2237	2237	2252	2252	2252	2252	2252	2252	2252	2252	2252	2252	2252	2252	2252	2252	2266	2266	2266	2266	2266	2252	2252	2266	2266	2252	2252	2266	2266	2266	2266	2266	2266	2266	2266	2266	2266	2266	2266	2266	2266	2266	2266	2266	2266	2281	2281	2281	2281	2297	2297	2297	2312	2297	2297	2312	2312	2312	2312	2297	2297	2312	2312	2312	2312	2312	2312	2312	2327	2327	2327	2327	2327	2327	2327	2327	2327	2327	2327	2312	2312	2312	2312	2312	2312	2312	2312	2312	2312	2312	2327	2327	2327	2327	2343	2359	2359	2359	2343	2343	2359	2359	2359	2359	2359	2359	2359
1883	1883	1883	1883	1883	1883	1883	1883	1883	1883	1883	1883	1883	1894	1894	1894	1894	1894	1904	1904	1904	1894	1894	1894	1894	1904	1904	1904	1904	1904	1904	1904	1904	1904	1904	1915	1915	1904	1904	1904	1904	1904	1904	1915	1915	1915	1915	1915	1915	1915	1915	1915	1915	1915	1915	1915	1915	1915	1915	1915	1915	1915	1915	1925	1915	1915	1915	1925	1915	1915	1915	1915	1915	1915	1915	1915	1915	1915	1925	1915	1915	1925	1925	1925	1925	1925	1925	1925	1925	1936	1936	1936	1936	1936	1936	1947	1947	1947	1947	1947	1947	1947	1947	1947	1947	1947	1947	1947	1947	1947	1947	1947	1947	1936	1936	1947	1947	1947	1947	1947	1947	1947	1947	1947	1958	1958	1958	1958	1958	1958	1958	1969	1969	1969	1980	1980	1980	1980	1980	1980	1980	1980	1980	1980	1980	1980	1980	1980	1980	1980	1980	1980	1980	1980	1980	1980	1980	1992	1992	1992	1992	1992	1992	1992	2003	2003	2003	2003	2003	1992	1992	2003	2003	2003	2003	2003	2003	2015	2015	2015	2015	2015	2015	2015	2015	2015	2015	2015	2015	2015	2015	2015	2015	2015	2027	2027	2027	2027	2027	2027	2027	2027	2027	2027	2027	2027	2027	2027	2027	2027	2027	2027	2027	2027	2027	2027	2027	2027	2039	2039	2039	2039	2039	2039	2039	2051	2051	2039	2039	2039	2039	2051	2051	2051	2051	2051	2051	2051	2051	2051	2051	2051	2051	2051	2051	2051	2063	2051	2051	2063	2063	2063	2051	2051	2051	2063	2063	2063	2063	2063	2063	2076	2076	2076	2063	2063	2063	2076	2076	2076	2076	2076	2076	2088	2088	2088	2088	2088	2101	2101	2101	2101	2101	2101	2101	2088	2088	2088	2088	2088	2088	2088	2088	2088	2088	2088	2088	2088	2088	2088	2101	2101	2101	2101	2101	2101	2101	2114	2114	2114	2114	2114	2114	2114	2114	2114	2114	2114	2114	2114	2114	2114	2114	2114	2127	2114	2114	2114	2114	2127	2127	2127	2127	2127	2127	2140	2127	2127	2127	2127	2127	2127	2114	2114	2114	2127	2127	2127	2127	2127	2127	2127	2127	2127	2127	2127	2127	2127	2127	2127	2127	2127	2127	2127	2127	2140	2140	2140	2140	2140	2140	2140	2140	2140	2140	2140	2140	2140	2140	2140	2140	2140	2153	2153	2153	2153	2153	2153	2153	2153	2153	2153	2153	2167	2167	2167	2167	2167	2181	2181	2167	2167	2167	2167	2167	2167	2167	2167	2167	2167	2167	2167	2167	2167	2167	2167	2167	2167	2167	2167	2167	2167	2167	2181	2181	2181	2181	2181	2181	2181	2181	2181	2181	2181	2181	2181	2181	2181	2181	2181	2194	2194	2194	2194	2194	2194	2208	2208	2208	2208	2208	2208	2208	2208	2208	2208	2208	2208	2208	2208	2208	2208	2208	2208	2208	2208	2208	2208	2208	2208	2223	2223	2223	2223	2223	2223	2223	2223	2223	2223	2237	2223	2223	2237	2237	2237	2237	2237	2237	2237	2237	2237	2237	2237	2237	2252	2252	2252	2252	2252	2252	2266	2266	2252	2252	2252	2266	2266	2266	2266	2266	2266	2266	2266	2266	2252	2252	2266	2266	2266	2266	2266	2266	2266	2266	2266	2266	2266	2266	2266	2266	2266	2266	2266	2266	2266	2266	2266	2281	2281	2281	2297	2297	2297	2297	2312	2312	2312	2312	2312	2312	2312	2312	2312	2312	2312	2312	2312	2312	2312	2312	2327	2327	2327	2327	2327	2343	2343	2327	2327	2327	2327	2327	2327	2327	2327	2327	2327	2327	2327	2327	2327	2327	2327	2343	2343	2343	2343	2359	2359	2359	2359	2359	2359	2359	2359	2359	2359	2359	2359	2376
1883	1883	1883	1883	1883	1883	1883	1883	1883	1883	1883	1894	1894	1894	1894	1894	1894	1894	1904	1904	1904	1904	1904	1894	1894	1904	1904	1904	1904	1904	1904	1915	1915	1915	1915	1915	1915	1904	1904	1915	1904	1904	1915	1915	1915	1915	1915	1915	1925	1925	1925	1925	1915	1915	1915	1915	1915	1915	1915	1915	1915	1925	1925	1925	1925	1925	1925	1925	1925	1925	1925	1925	1925	1925	1925	1925	1925	1925	1925	1925	1925	1925	1925	1925	1925	1936	1936	1936	1936	1936	1936	1936	1947	1947	1947	1947	1947	1947	1947	1947	1947	1947	1947	1947	1947	1947	1947	1947	1947	1947	1958	1958	1947	1947	1947	1947	1947	1947	1947	1947	1947	1947	1958	1958	1958	1958	1958	1969	1969	1969	1969	1969	1969	1980	1980	1980	1980	1980	1980	1980	1980	1980	1980	1980	1980	1980	1980	1980	1980	1980	1980	1980	1980	1980	1980	1992	1992	1992	1992	1992	1992	1992	1992	1992	2003	2003	2003	2003	2015	2003	2003	2003	2003	2003	2003	2003	2015	2015	2015	2015	2015	2015	2015	2015	2015	2015	2015	2015	2015	2015	2015	2015	2015	2015	2027	2027	2027	2027	2027	2027	2027	2027	2027	2027	2027	2027	2027	2027	2027	2027	2027	2027	2027	2027	2027	2027	2039	2039	2039	2039	2039	2051	2051	2051	2051	2051	2051	2051	2051	2051	2051	2051	2051	2051	2051	2051	2051	2051	2051	2051	2051	2051	2063	2063	2063	2063	2063	2063	2063	2063	2063	2063	2063	2063	2063	2063	2063	2063	2063	2063	2076	2076	2076	2076	2076	2076	2076	2076	2076	2076	2076	2076	2088	2088	2088	2088	2088	2101	2101	2101	2101	2101	2101	2101	2101	2088	2088	2088	2088	2088	2088	2088	2088	2088	2088	2088	2088	2088	2101	2101	2101	2101	2101	2101	2101	2114	2114	2114	2114	2114	2114	2114	2114	2114	2114	2114	2114	2114	2127	2127	2127	2127	2127	2127	2127	2127	2127	2127	2127	2127	2127	2127	2127	2127	2127	2140	2140	2127	2127	2127	2127	2127	2114	2114	2114	2127	2127	2127	2127	2127	2127	2127	2127	2127	2127	2127	2127	2127	2127	2140	2127	2127	2140	2140	2140	2140	2140	2140	2140	2140	2140	2140	2140	2140	2140	2140	2140	2140	2140	2140	2140	2153	2153	2153	2167	2167	2167	2167	2167	2167	2167	2167	2167	2167	2167	2167	2181	2181	2181	2181	2167	2167	2167	2167	2167	2167	2167	2167	2167	2167	2167	2167	2167	2167	2181	2181	2181	2167	2167	2167	2181	2181	2181	2181	2181	2181	2181	2181	2181	2181	2181	2181	2181	2181	2181	2194	2194	2194	2194	2194	2194	2194	2194	2208	2208	2208	2208	2208	2208	2208	2208	2208	2208	2208	2208	2223	2223	2223	2208	2208	2223	2208	2208	2208	2208	2223	2223	2223	2223	2223	2223	2223	2223	2223	2223	2223	2223	2223	2237	2237	2237	2237	2237	2237	2237	2252	2237	2237	2237	2237	2237	2237	2237	2237	2237	2252	2252	2252	2252	2252	2252	2266	2266	2266	2266	2266	2266	2266	2266	2266	2266	2266	2266	2266	2281	2266	2266	2266	2266	2266	2266	2266	2266	2266	2266	2266	2266	2266	2281	2281	2281	2281	2281	2281	2281	2281	2281	2281	2281	2281	2297	2297	2297	2312	2312	2312	2312	2312	2312	2312	2312	2312	2312	2312	2312	2312	2312	2312	2312	2312	2327	2327	2327	2327	2327	2327	2343	2343	2343	2327	2327	2343	2343	2327	2327	2327	2327	2327	2327	2327	2327	2327	2327	2327	2343	2343	2343	2343	2359	2359	2359	2359	2359	2359	2359	2359	2359	2359	2359	2359	2376
1883	1894	1894	1894	1883	1883	1883	1883	1883	1883	1883	1894	1894	1904	1904	1904	1904	1904	1904	1904	1904	1904	1904	1904	1904	1904	1904	1904	1904	1915	1915	1915	1915	1915	1915	1915	1915	1904	1904	1915	1904	1904	1915	1915	1915	1915	1925	1925	1925	1925	1925	1925	1925	1925	1915	1915	1915	1915	1915	1915	1915	1925	1925	1925	1925	1925	1925	1936	1925	1925	1925	1925	1925	1925	1925	1925	1925	1925	1936	1925	1925	1936	1936	1936	1936	1947	1936	1936	1936	1947	1947	1947	1947	1947	1947	1947	1958	1958	1947	1947	1958	1947	1947	1947	1947	1947	1947	1958	1958	1958	1958	1958	1947	1947	1947	1947	1947	1947	1947	1947	1947	1958	1969	1969	1969	1969	1969	1969	1969	1969	1969	1969	1980	1980	1980	1980	1980	1980	1980	1980	1980	1980	1980	1980	1980	1980	1980	1980	1980	1980	1980	1980	1980	1992	1992	1992	1992	1992	1992	1992	1992	1992	2003	2003	2003	2003	2015	2015	2015	2003	2003	2015	2015	2015	2015	2015	2015	2015	2015	2015	2015	2015	2015	2015	2015	2015	2015	2015	2027	2027	2027	2027	2027	2027	2027	2027	2027	2027	2027	2027	2027	2027	2027	2027	2027	2027	2039	2039	2027	2027	2039	2039	2039	2039	2039	2039	2039	2039	2039	2051	2051	2051	2051	2051	2051	2063	2063	2051	2051	2051	2051	2051	2051	2051	2051	2051	2051	2051	2051	2063	2063	2063	2063	2063	2063	2063	2063	2063	2063	2063	2063	2063	2063	2063	2063	2063	2063	2076	2076	2076	2076	2076	2076	2076	2076	2076	2076	2088	2088	2088	2088	2088	2088	2101	2101	2101	2101	2101	2101	2101	2101	2101	2101	2101	2101	2088	2088	2088	2088	2101	2101	2101	2101	2101	2101	2101	2101	2101	2101	2101	2101	2101	2101	2101	2114	2114	2114	2114	2114	2114	2114	2127	2127	2127	2127	2127	2127	2127	2127	2127	2127	2127	2140	2140	2140	2127	2127	2127	2127	2127	2140	2127	2127	2140	2140	2140	2140	2140	2140	2140	2127	2127	2127	2127	2127	2127	2127	2127	2127	2127	2127	2127	2127	2127	2127	2127	2127	2127	2140	2140	2127	2127	2140	2140	2140	2140	2140	2140	2140	2140	2140	2140	2140	2140	2140	2140	2140	2140	2140	2140	2140	2153	2153	2167	2167	2167	2167	2167	2167	2167	2167	2167	2167	2167	2167	2167	2181	2181	2181	2181	2167	2167	2167	2167	2167	2167	2167	2167	2167	2167	2167	2167	2167	2167	2181	2181	2181	2167	2167	2167	2181	2181	2181	2181	2181	2181	2181	2181	2181	2181	2181	2181	2181	2194	2194	2194	2194	2194	2194	2194	2208	2208	2208	2208	2208	2208	2208	2223	2223	2223	2223	2223	2223	2223	2223	2223	2223	2223	2223	2223	2223	2223	2223	2223	2223	2223	2223	2223	2223	2223	2223	2223	2223	2223	2223	2237	2237	2237	2237	2237	2237	2237	2237	2237	2252	2252	2252	2252	2252	2252	2252	2252	2252	2252	2252	2252	2252	2252	2252	2252	2266	2266	2266	2266	2266	2266	2266	2266	2266	2266	2266	2266	2266	2281	2281	2266	2266	2266	2266	2266	2266	2266	2266	2266	2266	2266	2266	2281	2281	2281	2281	2281	2281	2281	2281	2281	2281	2281	2281	2297	2297	2297	2297	2312	2312	2312	2312	2312	2312	2312	2312	2327	2327	2327	2327	2327	2327	2327	2327	2327	2327	2327	2327	2327	2343	2343	2343	2343	2343	2343	2343	2343	2343	2327	2327	2327	2327	2327	2327	2327	2327	2327	2327	2343	2343	2359	2359	2359	2359	2359	2376	2376	2359	2359	2376	2376	2376	2376	2359	2359	2376
1883	1894	1894	1894	1894	1894	1894	1894	1894	1894	1894	1894	1894	1904	1894	1894	1904	1904	1904	1904	1904	1904	1904	1904	1904	1904	1904	1904	1915	1915	1915	1915	1915	1915	1915	1915	1915	1915	1915	1915	1915	1915	1925	1925	1925	1925	1925	1925	1925	1925	1925	1925	1925	1925	1915	1915	1915	1915	1915	1915	1915	1925	1925	1936	1936	1936	1936	1936	1936	1936	1936	1925	1925	1925	1925	1925	1936	1936	1936	1936	1936	1936	1936	1947	1947	1947	1947	1947	1947	1947	1947	1947	1947	1947	1947	1947	1958	1958	1958	1958	1958	1958	1958	1958	1947	1947	1958	1958	1958	1958	1958	1958	1947	1947	1947	1947	1947	1947	1958	1958	1958	1958	1969	1969	1969	1969	1969	1969	1969	1969	1969	1969	1980	1980	1980	1980	1980	1980	1992	1992	1992	1992	1992	1992	1992	1980	1980	1980	1992	1992	1992	1992	1992	1992	1992	1992	1992	1992	2003	2003	1992	1992	2003	2003	2015	2015	2015	2015	2027	2015	2015	2015	2015	2015	2015	2015	2015	2015	2015	2015	2015	2015	2015	2015	2015	2027	2027	2027	2027	2027	2027	2027	2027	2027	2027	2027	2027	2027	2027	2027	2027	2027	2027	2027	2027	2027	2039	2039	2039	2039	2039	2039	2039	2039	2039	2039	2039	2039	2051	2051	2051	2051	2051	2063	2063	2063	2063	2051	2051	2051	2051	2051	2051	2051	2051	2051	2051	2063	2063	2063	2063	2063	2063	2063	2063	2063	2063	2063	2063	2076	2076	2076	2076	2076	2076	2076	2076	2076	2076	2076	2076	2088	2088	2088	2088	2088	2088	2088	2088	2088	2088	2088	2101	2101	2101	2101	2101	2101	2101	2101	2101	2101	2101	2101	2101	2088	2088	2088	2101	2101	2101	2101	2101	2101	2101	2101	2101	2101	2101	2101	2101	2101	2114	2114	2114	2114	2114	2114	2114	2127	2127	2127	2127	2127	2127	2127	2127	2127	2140	2140	2140	2140	2140	2140	2140	2140	2140	2140	2140	2140	2140	2140	2140	2140	2140	2140	2140	2140	2140	2140	2140	2140	2127	2127	2127	2127	2127	2127	2127	2127	2127	2127	2127	2127	2127	2127	2127	2127	2140	2140	2140	2140	2140	2140	2140	2140	2140	2140	2140	2140	2140	2140	2140	2140	2140	2140	2140	2140	2140	2140	2153	2153	2153	2167	2167	2167	2167	2181	2181	2181	2181	2181	2181	2181	2181	2181	2181	2181	2181	2181	2167	2167	2167	2167	2167	2167	2167	2167	2167	2167	2181	2181	2181	2181	2181	2181	2181	2181	2181	2181	2181	2181	2181	2181	2181	2181	2181	2181	2181	2181	2181	2194	2194	2194	2194	2208	2208	2208	2208	2208	2208	2208	2208	2208	2223	2223	2223	2223	2223	2223	2223	2223	2223	2223	2223	2223	2223	2223	2223	2223	2223	2223	2223	2223	2223	2223	2223	2223	2223	2223	2223	2237	2237	2237	2237	2237	2237	2237	2252	2252	2252	2252	2252	2252	2252	2252	2252	2252	2252	2252	2252	2252	2252	2252	2252	2252	2266	2266	2266	2266	2266	2266	2266	2266	2266	2266	2266	2266	2266	2266	2266	2266	2281	2281	2281	2266	2266	2266	2266	2266	2266	2266	2266	2266	2281	2281	2281	2281	2297	2297	2297	2281	2281	2281	2281	2281	2281	2297	2297	2297	2297	2312	2312	2312	2312	2312	2312	2312	2312	2327	2327	2327	2327	2327	2327	2327	2327	2327	2327	2327	2327	2327	2343	2343	2343	2343	2343	2359	2359	2343	2343	2343	2343	2327	2327	2327	2327	2327	2327	2327	2343	2327	2327	2343	2359	2359	2359	2359	2359	2359	2376	2376	2376	2376	2376	2376	2376	2376	2376	2376	2376
1883	1894	1894	1894	1894	1894	1894	1894	1894	1894	1894	1894	1894	1904	1894	1894	1904	1904	1904	1904	1904	1904	1904	1904	1904	1915	1915	1915	1915	1915	1915	1915	1915	1915	1915	1915	1915	1915	1915	1915	1925	1925	1925	1925	1925	1925	1925	1925	1925	1925	1925	1925	1925	1925	1925	1925	1925	1925	1925	1925	1925	1936	1936	1936	1936	1936	1936	1936	1936	1936	1936	1936	1925	1925	1936	1936	1936	1936	1936	1936	1936	1936	1936	1947	1947	1947	1947	1947	1947	1947	1947	1947	1947	1947	1958	1958	1958	1958	1958	1958	1958	1958	1958	1958	1958	1958	1958	1958	1958	1958	1958	1969	1958	1958	1958	1958	1958	1958	1958	1958	1958	1969	1980	1980	1969	1969	1969	1969	1969	1969	1969	1980	1980	1980	1980	1980	1980	1992	1992	1992	1992	1992	1992	1992	1992	1992	1992	1992	1992	1992	1992	1992	1992	1992	1992	2003	2003	2003	2003	2003	2003	2003	2003	2003	2015	2015	2015	2027	2027	2015	2015	2015	2015	2015	2015	2015	2015	2015	2015	2027	2015	2015	2027	2027	2027	2027	2027	2027	2027	2027	2027	2027	2027	2027	2027	2027	2027	2027	2027	2027	2027	2027	2027	2027	2027	2027	2039	2039	2039	2039	2051	2051	2051	2051	2051	2051	2051	2051	2051	2063	2063	2063	2063	2063	2063	2063	2063	2051	2051	2051	2063	2063	2063	2063	2063	2063	2063	2063	2063	2063	2063	2063	2076	2063	2063	2076	2076	2063	2063	2076	2076	2076	2076	2076	2076	2076	2088	2088	2076	2076	2088	2088	2088	2088	2088	2088	2088	2088	2088	2088	2088	2088	2101	2101	2101	2101	2101	2101	2101	2101	2101	2101	2101	2101	2114	2101	2101	2101	2101	2101	2101	2101	2101	2101	2101	2101	2101	2101	2101	2101	2101	2114	2114	2114	2114	2114	2114	2114	2114	2127	2127	2127	2127	2140	2140	2140	2140	2140	2140	2140	2140	2140	2140	2140	2140	2140	2140	2140	2140	2140	2140	2140	2140	2140	2140	2140	2140	2140	2140	2140	2140	2140	2127	2127	2127	2127	2127	2127	2127	2127	2127	2127	2127	2140	2140	2140	2140	2140	2140	2140	2140	2140	2140	2140	2140	2140	2140	2140	2140	2140	2140	2140	2140	2140	2140	2140	2140	2153	2153	2153	2153	2153	2167	2167	2167	2167	2167	2181	2181	2181	2181	2181	2181	2181	2181	2181	2181	2181	2181	2181	2167	2167	2167	2167	2167	2167	2167	2167	2167	2181	2181	2181	2181	2181	2181	2181	2181	2181	2181	2181	2181	2181	2181	2181	2181	2181	2181	2181	2181	2194	2194	2194	2194	2194	2208	2208	2208	2208	2223	2223	2223	2223	2223	2223	2223	2223	2223	2223	2223	2223	2223	2223	2223	2223	2223	2223	2223	2237	2223	2223	2223	2223	2223	2223	2223	2223	2223	2223	2237	2237	2237	2237	2237	2237	2237	2252	2252	2252	2252	2252	2252	2252	2252	2252	2252	2252	2252	2252	2252	2252	2252	2252	2252	2252	2252	2252	2266	2266	2266	2266	2266	2281	2281	2281	2281	2266	2266	2266	2266	2266	2266	2266	2281	2281	2281	2266	2266	2266	2266	2266	2266	2281	2281	2281	2281	2281	2281	2297	2297	2297	2297	2297	2297	2297	2297	2297	2297	2297	2297	2297	2312	2312	2312	2312	2312	2312	2312	2312	2312	2327	2327	2327	2327	2327	2327	2327	2327	2327	2327	2327	2343	2343	2343	2343	2343	2359	2359	2359	2359	2359	2359	2359	2359	2343	2343	2327	2327	2343	2343	2343	2343	2343	2343	2343	2359	2359	2359	2359	2359	2359	2376	2376	2376	2376	2376	2376	2376	2376	2376	2376	2376
1894	1894	1894	1904	1894	1894	1904	1904	1904	1904	1904	1904	1904	1904	1904	1904	1904	1904	1904	1904	1904	1915	1915	1915	1915	1915	1915	1915	1915	1915	1925	1925	1925	1915	1915	1925	1915	1915	1915	1915	1925	1925	1925	1925	1925	1925	1925	1925	1925	1925	1925	1925	1925	1925	1925	1925	1925	1925	1925	1925	1925	1936	1936	1936	1936	1936	1936	1947	1936	1936	1936	1936	1936	1936	1936	1936	1936	1936	1936	1947	1947	1947	1947	1947	1947	1947	1947	1947	1947	1947	1958	1958	1958	1958	1958	1958	1958	1958	1958	1958	1958	1958	1958	1958	1958	1958	1958	1958	1969	1969	1969	1969	1958	1958	1958	1958	1969	1969	1969	1969	1969	1969	1980	1980	1969	1969	1969	1980	1980	1980	1980	1980	1980	1980	1980	1980	1992	1992	1992	1992	1992	1992	1992	1992	1992	1992	1992	1992	1992	1992	1992	2003	2003	2003	2003	2003	2003	2003	2003	2003	2003	2003	2015	2015	2015	2015	2027	2027	2027	2015	2015	2015	2015	2027	2027	2027	2027	2027	2027	2027	2027	2027	2027	2027	2027	2027	2027	2027	2027	2027	2027	2027	2027	2027	2039	2039	2039	2039	2039	2039	2039	2027	2027	2027	2039	2039	2039	2039	2051	2051	2051	2051	2051	2051	2051	2051	2051	2063	2063	2063	2063	2063	2063	2063	2063	2063	2063	2063	2063	2063	2063	2063	2063	2063	2063	2063	2063	2063	2063	2076	2076	2076	2076	2076	2076	2076	2076	2063	2063	2076	2076	2076	2076	2076	2076	2088	2088	2088	2088	2088	2088	2101	2088	2088	2088	2088	2101	2101	2088	2088	2101	2101	2101	2101	2101	2101	2101	2101	2101	2114	2114	2101	2101	2114	2114	2101	2101	2101	2101	2101	2101	2101	2101	2101	2101	2101	2101	2101	2101	2101	2114	2114	2114	2114	2114	2114	2114	2114	2127	2127	2127	2127	2140	2140	2140	2140	2140	2140	2140	2140	2140	2140	2140	2140	2140	2140	2140	2140	2140	2140	2140	2140	2140	2140	2140	2140	2153	2153	2153	2153	2140	2140	2140	2127	2127	2140	2127	2127	2127	2140	2127	2127	2140	2140	2140	2140	2140	2140	2140	2140	2140	2140	2140	2140	2140	2140	2140	2153	2153	2153	2153	2153	2153	2153	2140	2140	2153	2153	2153	2153	2153	2167	2167	2167	2167	2167	2167	2181	2181	2181	2181	2181	2181	2181	2181	2181	2181	2181	2181	2181	2167	2167	2167	2167	2167	2167	2181	2181	2181	2181	2181	2181	2181	2181	2181	2181	2181	2181	2181	2181	2181	2181	2181	2194	2194	2194	2194	2194	2194	2194	2194	2194	2208	2208	2208	2223	2223	2223	2223	2223	2223	2223	2223	2223	2223	2223	2223	2223	2223	2223	2223	2223	2223	2223	2223	2223	2237	2237	2223	2223	2223	2223	2223	2223	2223	2223	2223	2223	2237	2237	2237	2237	2237	2237	2237	2252	2252	2252	2252	2252	2252	2252	2252	2252	2252	2252	2252	2252	2252	2252	2252	2252	2252	2252	2266	2266	2266	2266	2266	2281	2281	2281	2281	2281	2281	2281	2281	2281	2281	2281	2281	2281	2281	2281	2281	2281	2266	2266	2266	2281	2281	2281	2281	2281	2281	2281	2297	2297	2297	2297	2297	2297	2297	2297	2297	2297	2297	2297	2312	2312	2312	2312	2312	2312	2312	2312	2312	2312	2312	2327	2327	2327	2327	2327	2327	2343	2343	2343	2327	2327	2343	2343	2343	2343	2343	2359	2359	2376	2376	2359	2359	2359	2359	2343	2343	2343	2343	2343	2343	2343	2359	2343	2343	2343	2359	2359	2359	2359	2359	2359	2376	2376	2376	2376	2392	2392	2392	2392	2376	2376	2376
1894	1894	1894	1904	1894	1894	1904	1904	1904	1915	1904	1904	1904	1904	1904	1904	1904	1904	1904	1904	1904	1915	1915	1915	1915	1915	1915	1915	1915	1925	1925	1925	1925	1925	1925	1925	1925	1925	1925	1925	1925	1925	1925	1925	1925	1925	1925	1925	1925	1925	1925	1936	1936	1936	1936	1936	1936	1936	1925	1925	1936	1936	1947	1936	1936	1947	1947	1947	1947	1947	1947	1947	1936	1936	1936	1947	1947	1947	1947	1947	1947	1947	1947	1947	1947	1947	1947	1947	1947	1958	1958	1958	1958	1958	1958	1958	1958	1958	1958	1958	1958	1958	1958	1958	1958	1958	1958	1958	1969	1969	1969	1969	1969	1958	1958	1969	1969	1969	1969	1969	1969	1980	1980	1980	1980	1980	1980	1980	1980	1980	1980	1980	1980	1980	1980	1992	1992	1992	1992	1992	1992	2003	1992	1992	1992	1992	2003	2003	2003	2003	2003	2003	2003	2003	2003	2003	2003	2003	2003	2015	2015	2015	2015	2015	2027	2027	2027	2027	2027	2015	2015	2015	2027	2027	2027	2027	2027	2027	2027	2027	2027	2027	2027	2027	2027	2027	2027	2027	2027	2027	2027	2027	2039	2039	2039	2051	2039	2039	2051	2039	2039	2039	2039	2039	2039	2051	2051	2051	2051	2051	2051	2051	2051	2051	2051	2051	2063	2063	2063	2063	2063	2063	2063	2063	2063	2063	2063	2063	2063	2063	2063	2063	2063	2063	2063	2063	2063	2076	2076	2076	2076	2076	2076	2076	2076	2076	2076	2076	2076	2076	2076	2076	2076	2088	2088	2088	2088	2088	2088	2088	2101	2101	2101	2088	2088	2088	2101	2101	2101	2101	2101	2101	2101	2101	2101	2101	2101	2114	2114	2114	2114	2114	2114	2114	2114	2101	2101	2101	2114	2114	2114	2114	2114	2114	2114	2114	2114	2114	2114	2114	2114	2114	2114	2114	2114	2114	2127	2127	2127	2127	2127	2127	2140	2140	2140	2140	2140	2140	2140	2140	2140	2140	2140	2140	2140	2140	2140	2140	2140	2140	2140	2140	2140	2153	2153	2153	2153	2153	2153	2153	2153	2153	2140	2140	2140	2140	2127	2127	2127	2140	2127	2127	2140	2140	2140	2140	2140	2140	2140	2140	2140	2140	2153	2153	2153	2153	2153	2153	2153	2153	2153	2153	2153	2153	2153	2153	2167	2167	2167	2167	2167	2167	2181	2181	2181	2181	2181	2181	2181	2181	2181	2181	2181	2181	2181	2181	2181	2181	2181	2181	2167	2167	2167	2181	2181	2181	2181	2181	2181	2181	2181	2181	2181	2181	2194	2194	2194	2194	2194	2194	2194	2194	2194	2194	2208	2208	2208	2208	2208	2208	2208	2208	2208	2208	2223	2223	2223	2223	2223	2223	2223	2223	2223	2223	2223	2223	2223	2237	2237	2237	2237	2237	2237	2237	2237	2237	2237	2237	2223	2223	2223	2223	2223	2223	2223	2223	2223	2223	2237	2237	2237	2252	2252	2252	2252	2252	2252	2252	2266	2252	2252	2252	2252	2266	2266	2266	2266	2266	2266	2266	2266	2266	2266	2266	2266	2266	2266	2281	2281	2281	2281	2281	2281	2281	2281	2281	2281	2281	2281	2281	2281	2281	2281	2281	2297	2281	2281	2281	2281	2281	2281	2281	2281	2281	2281	2297	2297	2297	2297	2297	2297	2297	2297	2297	2312	2312	2312	2312	2312	2312	2312	2312	2312	2312	2327	2327	2327	2327	2327	2327	2327	2327	2327	2327	2343	2343	2343	2343	2343	2343	2343	2343	2343	2343	2343	2359	2359	2376	2376	2359	2359	2359	2359	2343	2343	2343	2343	2343	2343	2343	2359	2359	2359	2359	2359	2359	2359	2359	2376	2376	2376	2376	2392	2392	2392	2392	2392	2392	2392	2392	2392
1894	1894	1894	1904	1904	1904	1904	1915	1915	1915	1915	1915	1915	1904	1904	1904	1904	1904	1904	1904	1904	1915	1915	1915	1915	1915	1915	1915	1915	1925	1925	1925	1925	1925	1925	1925	1925	1925	1925	1925	1925	1925	1925	1925	1925	1936	1936	1925	1925	1936	1936	1936	1947	1947	1936	1936	1936	1936	1936	1936	1936	1936	1947	1936	1936	1947	1947	1947	1947	1947	1947	1947	1936	1936	1947	1947	1947	1947	1947	1947	1947	1947	1947	1947	1947	1947	1958	1958	1958	1958	1958	1958	1958	1958	1958	1958	1958	1958	1958	1958	1958	1958	1958	1958	1958	1958	1958	1958	1969	1969	1969	1980	1969	1969	1969	1969	1969	1980	1980	1969	1969	1980	1980	1980	1980	1980	1980	1980	1980	1980	1980	1980	1980	1980	1992	1992	1992	1992	1992	1992	1992	2003	2015	2015	2003	2003	2015	2015	2015	2015	2015	2015	2015	2015	2015	2015	2015	2015	2015	2015	2015	2015	2015	2027	2027	2027	2027	2027	2027	2027	2027	2027	2027	2027	2027	2027	2027	2027	2027	2027	2027	2027	2027	2027	2027	2027	2027	2027	2027	2039	2039	2039	2039	2039	2051	2051	2051	2051	2051	2051	2051	2051	2051	2051	2051	2051	2051	2051	2051	2051	2051	2051	2051	2051	2051	2063	2063	2063	2063	2063	2063	2063	2063	2063	2076	2076	2076	2063	2063	2063	2063	2063	2063	2063	2063	2063	2076	2076	2076	2076	2076	2088	2088	2088	2076	2076	2088	2088	2088	2088	2088	2088	2088	2088	2088	2101	2101	2101	2101	2101	2101	2101	2101	2101	2101	2101	2101	2101	2101	2101	2101	2101	2101	2114	2101	2101	2114	2114	2114	2114	2114	2114	2114	2114	2114	2114	2114	2114	2114	2114	2114	2114	2114	2114	2114	2114	2114	2114	2114	2114	2114	2114	2114	2114	2127	2127	2127	2127	2127	2127	2140	2140	2140	2140	2140	2140	2140	2140	2140	2140	2140	2140	2140	2140	2140	2140	2140	2140	2140	2140	2153	2153	2153	2153	2153	2153	2153	2153	2153	2153	2153	2153	2140	2140	2140	2140	2140	2140	2140	2140	2140	2140	2140	2140	2140	2140	2140	2140	2140	2140	2153	2153	2153	2153	2153	2153	2153	2153	2167	2167	2167	2167	2167	2167	2167	2167	2167	2181	2181	2181	2181	2181	2181	2181	2181	2181	2181	2181	2181	2181	2181	2194	2194	2194	2194	2194	2194	2194	2194	2194	2181	2181	2181	2181	2181	2181	2181	2181	2181	2181	2194	2194	2194	2194	2194	2194	2194	2194	2194	2194	2194	2194	2194	2194	2208	2208	2208	2208	2208	2208	2208	2208	2223	2223	2223	2223	2223	2223	2223	2223	2223	2223	2223	2223	2223	2223	2223	2237	2237	2237	2237	2237	2237	2237	2237	2237	2237	2237	2237	2223	2223	2223	2223	2237	2237	2237	2237	2237	2252	2252	2252	2252	2252	2252	2252	2266	2266	2266	2266	2266	2266	2266	2266	2266	2266	2266	2266	2266	2266	2266	2266	2266	2266	2266	2266	2266	2266	2281	2281	2281	2281	2281	2281	2281	2281	2281	2281	2297	2297	2297	2281	2281	2297	2297	2297	2281	2281	2281	2281	2281	2281	2281	2281	2281	2297	2297	2297	2297	2312	2312	2312	2312	2312	2312	2312	2312	2312	2312	2312	2312	2327	2327	2327	2327	2327	2327	2327	2327	2327	2327	2327	2343	2343	2343	2343	2343	2343	2343	2343	2343	2343	2343	2343	2343	2343	2359	2359	2376	2376	2376	2376	2376	2359	2359	2343	2343	2343	2359	2343	2343	2359	2359	2359	2359	2359	2359	2359	2376	2376	2376	2376	2392	2392	2392	2392	2409	2409	2409	2409	2409	2409
1894	1894	1904	1904	1904	1904	1904	1915	1915	1915	1915	1915	1915	1915	1904	1904	1904	1904	1915	1915	1915	1915	1915	1915	1915	1915	1915	1915	1925	1925	1925	1925	1925	1925	1925	1936	1936	1925	1925	1925	1925	1925	1936	1925	1925	1936	1936	1936	1936	1936	1936	1947	1947	1947	1936	1936	1947	1947	1936	1936	1936	1936	1947	1947	1947	1947	1947	1947	1947	1947	1947	1947	1947	1947	1947	1947	1947	1947	1947	1947	1947	1958	1958	1958	1958	1958	1958	1958	1958	1958	1958	1958	1958	1958	1958	1958	1958	1958	1958	1969	1958	1958	1958	1958	1958	1958	1958	1969	1969	1980	1980	1980	1969	1969	1969	1980	1980	1980	1980	1980	1980	1980	1980	1980	1980	1980	1980	1980	1980	1980	1980	1992	1992	1992	1992	1992	1992	1992	2003	2003	2003	2015	2015	2015	2015	2015	2015	2015	2015	2015	2015	2015	2015	2015	2015	2015	2015	2015	2015	2015	2027	2027	2027	2027	2027	2027	2027	2027	2039	2027	2027	2027	2027	2027	2027	2027	2027	2027	2027	2027	2027	2027	2027	2027	2027	2027	2027	2039	2039	2039	2039	2039	2051	2051	2051	2051	2051	2051	2063	2051	2051	2051	2051	2063	2063	2063	2063	2063	2063	2063	2063	2063	2063	2063	2063	2063	2063	2063	2076	2076	2076	2076	2076	2076	2076	2076	2076	2063	2063	2063	2063	2063	2063	2063	2063	2076	2076	2076	2076	2076	2088	2088	2088	2088	2088	2088	2088	2088	2088	2101	2101	2101	2101	2101	2101	2101	2101	2101	2101	2101	2101	2101	2101	2101	2101	2101	2101	2101	2101	2101	2114	2114	2114	2114	2114	2114	2114	2114	2114	2114	2114	2114	2114	2127	2127	2114	2114	2114	2114	2114	2114	2114	2114	2114	2114	2114	2127	2127	2127	2127	2127	2127	2127	2127	2127	2127	2127	2127	2127	2140	2140	2140	2140	2140	2140	2140	2140	2140	2140	2140	2140	2140	2140	2153	2153	2153	2140	2140	2153	2153	2153	2153	2153	2153	2153	2153	2153	2153	2153	2153	2153	2153	2153	2140	2140	2140	2140	2140	2140	2140	2140	2140	2140	2140	2140	2140	2140	2140	2153	2153	2153	2153	2153	2153	2153	2153	2167	2167	2167	2167	2167	2167	2167	2167	2167	2181	2181	2181	2181	2181	2181	2181	2181	2181	2181	2181	2181	2181	2194	2194	2194	2194	2194	2194	2194	2194	2194	2194	2194	2194	2181	2181	2181	2181	2181	2181	2181	2181	2194	2194	2194	2194	2194	2208	2194	2194	2208	2208	2208	2208	2208	2208	2208	2208	2223	2208	2208	2208	2208	2208	2208	2208	2223	2223	2223	2223	2223	2223	2223	2223	2223	2223	2223	2223	2223	2237	2237	2237	2237	2237	2237	2237	2237	2237	2237	2237	2237	2237	2237	2223	2223	2223	2237	2237	2237	2237	2252	2252	2252	2252	2252	2252	2252	2266	2266	2266	2266	2266	2266	2266	2266	2266	2266	2266	2266	2266	2266	2266	2266	2266	2281	2281	2266	2266	2281	2281	2281	2281	2281	2281	2281	2281	2297	2297	2281	2281	2297	2297	2312	2297	2297	2297	2297	2312	2312	2281	2281	2281	2281	2297	2297	2297	2297	2297	2297	2297	2297	2312	2312	2312	2312	2312	2312	2312	2312	2312	2312	2312	2312	2327	2327	2327	2327	2327	2327	2327	2327	2327	2327	2327	2327	2343	2343	2343	2359	2359	2343	2343	2343	2343	2343	2343	2343	2359	2359	2359	2376	2376	2376	2376	2376	2376	2376	2359	2359	2359	2359	2359	2359	2359	2359	2359	2359	2359	2359	2359	2359	2376	2376	2376	2392	2392	2392	2409	2409	2409	2409	2409	2409	2409	2409
1894	1894	1904	1904	1904	1915	1915	1915	1915	1915	1915	1915	1915	1915	1904	1904	1904	1915	1915	1915	1915	1915	1915	1925	1925	1925	1925	1925	1925	1925	1925	1925	1925	1925	1925	1936	1936	1936	1936	1936	1936	1936	1936	1936	1936	1936	1947	1936	1936	1947	1947	1947	1947	1947	1947	1947	1947	1947	1936	1936	1947	1947	1947	1947	1947	1947	1947	1947	1947	1947	1947	1947	1947	1947	1947	1947	1947	1947	1947	1947	1947	1958	1958	1958	1958	1958	1958	1958	1958	1958	1958	1958	1958	1958	1958	1958	1958	1958	1958	1969	1958	1958	1958	1958	1958	1958	1969	1969	1969	1980	1980	1980	1980	1980	1980	1980	1980	1980	1980	1980	1980	1980	1980	1980	1980	1980	1980	1980	1992	1992	1992	1992	1992	1992	1992	1992	1992	2003	2003	2003	2003	2015	2015	2015	2015	2015	2015	2027	2027	2027	2027	2027	2027	2027	2027	2027	2027	2027	2027	2027	2027	2027	2027	2027	2027	2027	2027	2039	2039	2027	2027	2027	2027	2027	2027	2027	2027	2027	2027	2027	2027	2027	2027	2027	2027	2039	2039	2039	2039	2051	2051	2051	2051	2051	2051	2051	2051	2051	2063	2063	2063	2063	2063	2063	2063	2063	2063	2063	2063	2063	2063	2063	2063	2063	2063	2063	2063	2063	2076	2076	2076	2076	2076	2076	2076	2076	2076	2063	2063	2063	2063	2076	2076	2076	2076	2076	2076	2076	2076	2088	2088	2088	2088	2088	2088	2088	2101	2101	2101	2101	2101	2101	2101	2101	2101	2101	2101	2101	2101	2101	2101	2101	2101	2101	2101	2101	2101	2114	2114	2114	2114	2114	2114	2114	2114	2114	2114	2114	2114	2114	2114	2114	2114	2127	2127	2114	2114	2127	2127	2127	2127	2127	2127	2127	2127	2127	2127	2127	2127	2127	2127	2127	2140	2140	2140	2140	2140	2140	2140	2140	2140	2140	2140	2140	2140	2140	2153	2153	2153	2153	2153	2153	2153	2153	2153	2153	2153	2153	2153	2153	2153	2153	2153	2153	2153	2153	2153	2167	2167	2167	2167	2167	2153	2153	2153	2153	2153	2153	2153	2153	2153	2153	2153	2153	2153	2153	2153	2153	2153	2153	2167	2167	2167	2167	2167	2167	2167	2167	2167	2167	2167	2167	2167	2181	2181	2181	2181	2181	2181	2181	2181	2181	2181	2181	2181	2181	2181	2194	2194	2194	2194	2194	2194	2194	2194	2194	2194	2194	2194	2194	2181	2181	2181	2181	2181	2181	2181	2194	2194	2194	2194	2208	2208	2208	2208	2208	2208	2208	2208	2208	2208	2208	2223	2223	2223	2223	2223	2223	2223	2223	2223	2223	2223	2223	2223	2223	2223	2223	2223	2223	2237	2237	2237	2237	2237	2237	2237	2237	2237	2237	2237	2237	2252	2252	2252	2252	2252	2252	2237	2237	2237	2237	2237	2252	2252	2252	2252	2252	2252	2266	2266	2266	2266	2266	2266	2266	2266	2266	2266	2266	2266	2266	2266	2266	2266	2266	2266	2266	2266	2266	2281	2281	2281	2281	2281	2281	2281	2281	2281	2281	2281	2297	2297	2297	2297	2297	2297	2312	2312	2312	2297	2297	2312	2312	2312	2297	2297	2297	2297	2297	2297	2297	2297	2297	2312	2312	2312	2312	2312	2312	2312	2312	2312	2312	2327	2327	2327	2327	2327	2327	2327	2327	2327	2327	2327	2327	2327	2327	2327	2343	2343	2343	2359	2359	2359	2359	2359	2359	2359	2359	2359	2359	2359	2359	2359	2376	2376	2376	2376	2376	2376	2376	2376	2359	2359	2359	2376	2376	2376	2376	2376	2376	2376	2376	2376	2376	2376	2392	2392	2392	2392	2392	2392	2409	2409	2426	2426	2426	2409	2409	2426
1904	1904	1904	1904	1915	1915	1915	1915	1915	1915	1915	1915	1915	1915	1915	1915	1915	1915	1915	1915	1915	1925	1925	1925	1925	1925	1925	1925	1925	1925	1925	1925	1925	1936	1936	1936	1947	1936	1936	1936	1936	1936	1947	1947	1947	1947	1947	1947	1947	1947	1947	1958	1958	1958	1947	1947	1947	1947	1947	1947	1947	1947	1947	1947	1947	1947	1947	1947	1947	1947	1947	1947	1947	1947	1947	1947	1947	1947	1958	1958	1958	1958	1958	1958	1958	1958	1958	1958	1958	1958	1958	1958	1958	1969	1969	1969	1958	1958	1969	1969	1958	1958	1969	1969	1969	1969	1980	1969	1969	1980	1980	1980	1980	1980	1980	1980	1980	1980	1980	1980	1980	1980	1980	1980	1992	1992	1992	1992	1992	1992	1992	1992	1992	1992	1992	1992	2003	2003	2015	2015	2015	2015	2027	2027	2027	2027	2027	2027	2027	2027	2027	2027	2027	2027	2027	2027	2027	2027	2027	2027	2027	2027	2027	2027	2027	2027	2027	2039	2039	2027	2027	2027	2027	2027	2027	2027	2027	2027	2027	2039	2039	2039	2039	2039	2039	2051	2051	2051	2051	2051	2051	2051	2063	2063	2063	2063	2063	2063	2063	2063	2063	2063	2063	2063	2063	2063	2063	2063	2063	2063	2063	2063	2063	2063	2063	2063	2063	2063	2076	2076	2076	2076	2076	2076	2076	2076	2076	2076	2076	2076	2076	2076	2076	2076	2076	2088	2088	2088	2088	2088	2088	2101	2101	2101	2101	2101	2101	2101	2101	2101	2101	2101	2101	2101	2101	2101	2101	2101	2101	2101	2114	2114	2114	2101	2101	2101	2114	2114	2114	2114	2114	2114	2114	2114	2114	2114	2127	2127	2127	2127	2127	2127	2127	2127	2127	2114	2114	2127	2127	2127	2127	2127	2127	2127	2127	2127	2127	2127	2127	2127	2127	2140	2140	2140	2140	2140	2140	2140	2140	2140	2140	2140	2140	2140	2140	2153	2153	2153	2153	2153	2153	2153	2153	2153	2153	2153	2153	2153	2153	2153	2153	2153	2153	2153	2153	2153	2153	2167	2167	2167	2167	2167	2153	2153	2153	2153	2153	2153	2153	2153	2153	2153	2153	2153	2153	2167	2153	2153	2167	2167	2167	2167	2167	2167	2181	2181	2167	2167	2181	2181	2181	2181	2181	2181	2181	2181	2181	2181	2181	2181	2181	2181	2194	2194	2194	2194	2194	2194	2194	2194	2194	2194	2194	2208	2208	2208	2208	2208	2194	2194	2181	2181	2181	2181	2181	2181	2181	2194	2194	2194	2194	2208	2208	2208	2208	2208	2208	2208	2223	2223	2223	2223	2223	2223	2223	2223	2223	2223	2223	2223	2223	2223	2223	2223	2223	2237	2237	2237	2237	2237	2237	2237	2237	2237	2237	2237	2237	2237	2237	2237	2237	2237	2252	2252	2266	2252	2252	2266	2252	2252	2252	2252	2252	2252	2252	2252	2252	2252	2252	2266	2266	2266	2266	2266	2266	2266	2266	2266	2266	2266	2266	2266	2266	2266	2266	2281	2281	2281	2266	2266	2281	2281	2281	2281	2281	2281	2297	2297	2297	2297	2297	2297	2312	2312	2312	2312	2312	2312	2312	2312	2312	2312	2312	2312	2327	2297	2297	2297	2297	2297	2297	2312	2312	2312	2312	2312	2312	2312	2312	2327	2312	2312	2327	2327	2327	2327	2327	2327	2327	2343	2343	2343	2327	2327	2327	2343	2343	2343	2343	2343	2343	2359	2359	2359	2359	2359	2359	2359	2359	2359	2359	2359	2359	2359	2359	2376	2376	2376	2376	2376	2376	2376	2376	2376	2376	2376	2376	2376	2376	2376	2376	2376	2392	2392	2392	2376	2376	2392	2392	2392	2392	2392	2392	2409	2409	2426	2426	2426	2426	2426	2426
1904	1904	1915	1915	1915	1915	1915	1925	1925	1925	1915	1915	1915	1915	1915	1915	1915	1915	1925	1925	1925	1925	1925	1925	1936	1936	1925	1925	1925	1925	1936	1925	1925	1936	1947	1947	1947	1947	1947	1947	1947	1947	1947	1947	1947	1947	1958	1958	1958	1958	1958	1958	1958	1958	1947	1947	1947	1947	1947	1947	1947	1947	1947	1947	1947	1947	1947	1947	1947	1947	1947	1958	1958	1958	1958	1958	1958	1958	1958	1958	1958	1958	1958	1958	1958	1958	1958	1958	1958	1958	1958	1958	1958	1969	1969	1969	1969	1969	1969	1969	1969	1969	1980	1980	1980	1980	1980	1980	1980	1992	1992	1992	1980	1980	1980	1980	1980	1980	1980	1980	1980	1992	1980	1980	1992	1992	1992	1992	1992	1992	1992	1992	1992	1992	1992	2003	2003	2015	2015	2015	2015	2027	2027	2027	2027	2027	2027	2027	2027	2027	2027	2027	2027	2027	2027	2027	2027	2027	2027	2027	2027	2039	2039	2039	2039	2039	2039	2039	2039	2027	2027	2027	2027	2027	2027	2027	2039	2039	2039	2039	2039	2039	2039	2051	2051	2051	2051	2063	2063	2063	2063	2063	2063	2063	2063	2063	2063	2063	2063	2063	2063	2063	2063	2063	2063	2076	2076	2076	2076	2076	2063	2063	2063	2076	2076	2076	2076	2076	2076	2076	2076	2076	2076	2076	2076	2088	2088	2076	2076	2076	2076	2088	2088	2076	2076	2088	2088	2088	2088	2088	2101	2101	2101	2101	2101	2101	2101	2101	2101	2101	2101	2101	2101	2101	2101	2101	2101	2101	2114	2114	2114	2114	2114	2101	2101	2114	2114	2114	2114	2114	2114	2127	2127	2127	2127	2127	2127	2127	2127	2127	2127	2127	2127	2127	2127	2127	2127	2127	2127	2127	2127	2127	2127	2127	2140	2140	2140	2140	2140	2140	2140	2140	2140	2140	2140	2140	2140	2140	2140	2140	2140	2140	2153	2153	2153	2153	2153	2153	2153	2153	2153	2153	2153	2153	2153	2153	2153	2153	2153	2153	2167	2153	2153	2167	2167	2167	2167	2167	2167	2167	2167	2167	2167	2153	2153	2167	2153	2153	2153	2153	2167	2167	2167	2167	2167	2167	2167	2167	2167	2167	2181	2181	2181	2181	2181	2181	2181	2181	2181	2181	2181	2181	2181	2181	2181	2181	2181	2181	2181	2194	2194	2194	2194	2194	2194	2194	2194	2194	2194	2194	2194	2208	2208	2208	2208	2208	2208	2208	2194	2194	2194	2194	2194	2194	2194	2194	2194	2194	2208	2208	2208	2208	2208	2223	2223	2208	2208	2223	2223	2223	2223	2223	2223	2237	2237	2223	2223	2223	2223	2223	2223	2223	2223	2223	2237	2237	2237	2237	2237	2237	2237	2237	2237	2237	2237	2237	2237	2237	2252	2252	2252	2252	2266	2266	2266	2266	2266	2266	2266	2266	2252	2252	2266	2266	2266	2266	2252	2252	2266	2266	2266	2266	2266	2266	2266	2266	2266	2266	2266	2266	2266	2266	2266	2266	2281	2281	2281	2281	2281	2281	2281	2281	2281	2281	2281	2297	2297	2297	2297	2297	2297	2297	2312	2312	2312	2312	2312	2312	2312	2312	2312	2312	2312	2327	2327	2297	2297	2312	2312	2312	2312	2312	2312	2312	2312	2312	2312	2312	2312	2327	2327	2327	2327	2327	2327	2327	2327	2327	2327	2343	2343	2343	2343	2343	2343	2343	2343	2343	2359	2359	2359	2359	2359	2359	2359	2359	2359	2359	2359	2359	2359	2359	2359	2376	2376	2376	2376	2376	2376	2376	2376	2392	2392	2376	2376	2376	2376	2376	2376	2376	2392	2392	2392	2392	2392	2392	2392	2392	2392	2409	2409	2409	2409	2426	2426	2426	2426	2426	2426	2426	2426
