0	0	0	0	0	0	0	0	0	0	0	0	0	0	0	0	0	0	0	0	0	0	0	0	2027	2027	2027	2039	2039	2039	2027	2027	1904	1904	1894	1894	1904	1936	1936	1936	1925	1925	1936	1925	1915	1904	1904	1904	1915	1915	1915	1915	1925	1925	1936	1936	1936	1936	1936	1936	1925	1904	1904	1904	1904	1904	1904	1904	1915	1925	1925	1925	1925	1925	1925	1925	1925	1925	1925	1915	1915	1904	1904	1904	0	0	0	0	0	0	0	1936	1936	1936	1947	1947	1947	1947	1947	1947	1969	1969	0	0	0	0	0	1969	1958	1958	1958	1958	1958	1958	1969	1969	1947	1936	1936	1936	1936	1936	1936	1936	1947	1947	1958	1958	1958	1958	1958	1947	1947	1947	1936	1936	1925	1925	1936	1936	1947	1947	1947	1947	1947	1947	1947	1947	1947	1947	1958	1969	1969	1980	1980	1980	1969	1969	1969	1969	1958	1958	1958	1958	1969	1980	1980	1980	1992	1992	1992	1992	1992	1992	1992	1992	2003	2015	2015	2003	1992	1992	2015	2015	2003	2003	2003	2003	2003	2003	2003	2051	2051	2039	2039	2015	2015	2015	2015	2015	2015	2015	2015	2015	2015	2015	2015	2003	2003	2003	2003	2003	2003	2003	2015	2027	2039	2039	2027	2015	2015	2027	2027	2027	2027	2039	2039	2039	2039	2027	2015	2015	2015	2003	2003	2003	1992	1992	1992	1992	1992	1992	0	1519	1512	1512	1506	1506	1506	1506	1499	1492	1492	1486	1486	1473	1473	1467	1467	1461	1455	1455	1449	1443	1443	1437	1437	1431	1431	1425	1419	1419	1413	1413	1407	1402	1402	1396	1390	1390	1385	1379	1374	1374	1368	1368	1363	1363	1358	1358	1352	1347	1347	1342	1336	1331	1331	1331	1326	1326	1321	1321	1316	1311	1311	1306	1306	1306	1301	1296	1291	1291	1287	1282	1282	1277	1272	1272	1268	1263	1259	1254	1249	1249	1245	1245	1245	1240	1240	1236	1236	1232	1227	1227	1223	1219	1214	1214	1210	1210	1206	1202	1202	1197	1193	1193	1193	1189	1185	1181	1181	1177	1177	1173	1173	1169	1165	1165	1157	1153	1153	1153	1150	1150	1146	1146	1142	1134	1134	1131	1131	1131	1127	1123	1123	1120	1116	1113	1109	1109	1105	1105	1102	1102	1102	1098	1095	1091	1088	1088	1088	1085	1081	1078	1078	1074	1071	1068	1064	1064	1061	1058	1058	1055	1055	1052	1052	1048	1048	1042	1042	1039	1039	1036	1036	1033	1030	1026	1026	1026	1023	1020	1020	1017	1014	1014	1014	1014	1014	1014	1017	1020	1023	1023	1026	1026	1026	1026	1026	1026	1030	1030	1249	1249	1249	1249	1245	1245	1240	1240	1236	1236	1236	1236	1232	1227	1227	1223	1223	1219	1219	1214	1214	1210	1210	1206	1206	1206	1206	1202	1202	1197	1197	1193	1189	1189	1189	1185	1185	1181	1181	1177	1177	1177	1173	1173	1173	1169	1165	1161	1161	1161	1157	1157	1153	1153	1150	1150	1146	1146	1146	1146	1142	1142	1138	1134	1134	1131	1131	1127	1127	1127	1123	1123	1123	1120	1116	1116	1113	1109	1109	1109	1105	1105	1102	1102	1098	1098	1095	1091	1091	1088	1088	1085	1085	1085	1081	1078	1078	1078	1074	1074	1074	1074	1071	1071	1068	1068	1061	1061	1058	1058	1058	1058	1055	1052	1048	1048	1048	1048	1045	1045	1045	1045	1039	1036	1036	1036	1033	1033	1033	1030	1026	1023	1023	1023	1020	1020	1017	1017	1014	1011	1008	1008	1006	1006	1003	1000	1000	1000	1000	997	997	997	994	994	994	991	988	985	985	985	985	983	983	980	977	977	974	974	974	972	972	969	966	963	963	963	963	963	963	963	963	0	0	0	0	0	0	0	0	0	0	0	0	0	0	0	0	0
0	0	0	0	0	0	0	0	0	0	0	0	0	0	0	0	0	0	0	0	0	0	0	0	2027	2027	2039	2039	2039	2039	1863	1863	1883	1883	1883	1883	1894	1904	1915	1915	1915	1915	1915	1904	1904	1904	1904	1904	1904	1904	1904	1904	1915	1915	1915	1915	1925	1904	1894	1894	1904	1894	1894	1883	1883	1873	1873	1883	1904	1915	1915	1915	1925	1925	1925	1925	1925	1925	1915	1915	1904	1904	1904	1904	0	0	0	0	0	0	0	1915	1915	1915	1925	1936	1936	1936	1936	1947	1947	1969	0	0	0	0	0	1969	1958	1958	1958	1958	1958	1958	1969	1969	1925	1925	1925	1925	1925	1936	1936	1936	1936	1936	1936	1958	1958	1958	1958	1936	1936	1936	1936	1936	1925	1925	1925	1936	1936	1936	1936	1936	1936	1936	1936	1936	1936	1925	1936	1936	1947	1969	1958	1958	1958	1958	1958	1958	1958	1958	1958	1958	1958	1980	1980	1980	1980	1980	1980	1980	1980	1980	1969	1969	1980	1992	1980	1980	1980	1980	1992	1992	1992	1980	1980	1992	1992	1992	1992	1992	2003	2003	2003	1992	1992	2003	2003	2003	2003	2003	2003	2003	2003	2003	2003	2003	1992	1992	1992	1992	1992	1992	1992	2003	1992	1992	1992	1992	2003	2003	2003	2015	2015	2015	2027	2027	2015	2015	2015	2015	2003	2003	2003	2003	1992	1992	1992	1992	1992	1992	1992	1519	1512	1512	1506	1506	1506	1506	1499	1492	1492	1486	1486	1473	1473	1467	1467	1461	1455	1455	1449	1443	1443	1443	1437	1431	1431	1425	1419	1419	1413	1413	1407	1402	1396	1396	1390	1390	1385	1379	1379	1374	1374	1368	1363	1363	1358	1358	1352	1347	1347	1342	1336	1331	1331	1326	1326	1326	1321	1316	1316	1311	1311	1306	1306	1306	1301	1296	1291	1291	1287	1287	1282	1277	1272	1272	1268	1263	1259	1254	1249	1249	1245	1245	1245	1240	1240	1236	1232	1232	1227	1227	1223	1219	1214	1214	1210	1210	1206	1206	1202	1197	1193	1193	1193	1189	1185	1181	1181	1177	1177	1173	1173	1169	1165	1165	1157	1153	1153	1153	1150	1150	1146	1146	1142	1134	1134	1131	1131	1131	1127	1123	1123	1120	1116	1113	1109	1109	1105	1105	1102	1102	1102	1098	1095	1091	1088	1088	1088	1085	1081	1078	1078	1074	1071	1068	1064	1064	1061	1058	1058	1055	1055	1052	1052	1048	1048	1042	1042	1039	1039	1036	1036	1033	1030	1026	1026	1026	1023	1023	1020	1017	1014	1014	1014	1014	1014	1014	1020	1020	1023	1023	1026	1026	1030	1030	1030	1030	1030	1033	1249	1249	1249	1249	1249	1249	1240	1240	1236	1236	1236	1236	1232	1227	1227	1223	1223	1219	1219	1214	1214	1210	1210	1206	1206	1206	1206	1202	1202	1197	1197	1193	1189	1189	1189	1185	1185	1181	1181	1177	1177	1177	1173	1173	1173	1169	1165	1161	1161	1161	1157	1157	1153	1153	1150	1150	1150	1146	1146	1146	1142	1142	1138	1134	1134	1131	1131	1127	1127	1123	1123	1123	1120	1116	1116	1113	1113	1113	1109	1109	1109	1105	1105	1102	1102	1098	1095	1095	1091	1088	1088	1088	1085	1085	1085	1081	1081	1081	1074	1074	1074	1074	1071	1071	1068	1068	1061	1061	1061	1058	1058	1058	1055	1052	1048	1048	1048	1048	1045	1045	1045	1045	1042	1039	1039	1036	1033	1030	1030	1030	1023	1023	1023	1023	1020	1020	1017	1017	1014	1011	1008	1008	1006	1003	1003	1000	1000	997	997	997	997	997	994	994	994	994	991	985	985	985	985	983	983	980	980	977	974	974	974	972	972	969	966	963	963	963	963	963	963	963	963	0	0	0	0	0	0	0	0	0	0	0	0	0	0	0	0	0
0	0	0	0	0	0	0	0	0	0	0	0	0	0	0	0	0	0	0	0	0	0	0	0	2027	2039	2039	2039	2039	1863	1863	1863	1873	1863	1863	1873	1873	1883	1883	1894	1894	1894	1904	1894	1894	1894	1894	1894	1894	1904	1904	1904	1904	1904	1904	1904	1904	1894	1894	1894	1883	1873	1873	1863	1863	1863	1853	1853	1883	1904	1904	1915	1915	1915	1915	1915	1904	1904	1904	1894	1894	1894	1883	1883	1883	1883	0	0	0	0	0	1915	1904	1904	1915	1925	1925	1925	1925	1925	1925	0	0	0	0	0	0	0	1958	1853	1853	1894	1894	1894	1894	1894	1894	1904	1915	1915	1915	1925	1925	1925	1925	1925	1925	1925	1925	1925	1936	1925	1925	1936	1925	1925	1904	1904	1915	1925	1915	1915	1925	1925	1925	1936	1925	1925	1925	1915	1925	1925	1925	1936	1947	1947	1958	1947	1947	1947	1947	1947	1936	1936	1936	1936	1947	1947	1947	1969	1969	1969	1969	1958	1958	1958	1969	1969	1969	1969	1969	1969	1980	1980	1980	1980	1980	1980	1980	1969	1969	1958	1958	1969	1969	1969	1969	1980	1992	1992	1992	1992	1992	1992	1992	1969	1969	1980	1980	1980	1980	1980	1980	1980	1980	1969	1969	1969	1969	1969	1969	1969	1980	1992	1992	1992	2003	2015	2015	2003	2003	2003	1992	1992	1992	1992	1992	1992	1980	1980	1992	1992	1992	1512	1512	1512	1506	1506	1506	1506	1499	1492	1492	1492	1486	1480	1473	1467	1467	1461	1455	1455	1449	1443	1443	1443	1437	1431	1431	1425	1419	1419	1413	1413	1407	1402	1396	1396	1390	1390	1385	1379	1379	1374	1368	1368	1363	1363	1358	1352	1352	1347	1347	1342	1336	1331	1331	1326	1326	1326	1321	1316	1316	1311	1311	1306	1306	1306	1301	1296	1291	1291	1287	1287	1282	1277	1272	1272	1268	1268	1259	1254	1254	1249	1249	1245	1245	1240	1236	1236	1232	1232	1227	1227	1223	1219	1214	1214	1210	1210	1206	1202	1202	1197	1193	1193	1193	1189	1185	1181	1181	1177	1177	1173	1169	1169	1165	1165	1161	1157	1153	1153	1150	1150	1146	1146	1142	1134	1134	1131	1131	1131	1127	1123	1123	1116	1116	1113	1109	1109	1105	1105	1102	1102	1098	1095	1095	1091	1091	1088	1088	1085	1081	1078	1074	1074	1071	1068	1068	1064	1061	1061	1058	1058	1055	1052	1052	1048	1048	1045	1042	1039	1039	1036	1036	1033	1030	1030	1026	1026	1023	1023	1020	1017	1014	1014	1014	1014	1014	1017	1020	1020	1023	1026	1026	1030	1030	1030	1030	1030	1033	1033	1249	1249	1249	1249	1249	1249	1240	1240	1240	1236	1236	1236	1232	1232	1227	1223	1223	1219	1219	1214	1214	1210	1210	1206	1206	1206	1206	1202	1202	1197	1193	1193	1189	1189	1189	1185	1185	1181	1181	1177	1177	1177	1173	1173	1173	1169	1165	1161	1161	1161	1157	1157	1157	1153	1150	1150	1150	1146	1146	1146	1142	1142	1138	1134	1134	1131	1131	1127	1127	1127	1123	1123	1123	1120	1116	1116	1113	1113	1109	1109	1109	1105	1105	1102	1102	1098	1095	1095	1091	1088	1088	1085	1085	1085	1085	1081	1081	1081	1078	1074	1074	1071	1071	1071	1064	1064	1061	1061	1061	1058	1058	1058	1055	1052	1052	1048	1048	1048	1045	1045	1045	1045	1039	1036	1036	1036	1033	1030	1030	1030	1023	1023	1023	1023	1020	1020	1017	1017	1014	1011	1008	1008	1006	1003	1003	1000	1000	997	997	997	997	997	997	994	994	994	991	985	985	985	985	983	983	980	980	977	974	974	974	972	972	969	966	963	963	963	963	963	963	963	963	0	0	0	0	0	0	0	0	0	0	0	0	0	0	0	0	0
0	0	0	0	0	0	0	0	0	0	0	0	0	0	0	0	0	0	0	0	0	0	0	0	2039	2039	2039	1824	1824	1833	1853	1853	1853	1853	1853	1863	1863	1863	1863	1863	1863	1873	1863	1863	1863	1894	1894	1894	1894	1894	1894	1894	1883	1883	1883	1894	1894	1883	1883	1873	1863	1863	1863	1863	1863	1853	1853	1853	1873	1883	1883	1883	1894	1904	1904	1894	1894	1894	1894	1883	1883	1883	1883	1873	1873	1873	0	0	0	0	0	1915	1894	1894	1904	1915	1915	1915	1853	1853	1863	1863	0	0	0	0	0	0	0	1853	1853	1894	1894	1894	1883	1883	1883	1883	1883	1894	1894	1904	1904	1915	1904	1904	1904	1904	1894	1894	1925	1915	1915	1925	1925	1904	1904	1904	1904	1904	1904	1904	1915	1915	1915	1925	1915	1904	1904	1904	1904	1904	1904	1904	1925	1947	1947	1947	1936	1936	1936	1925	1925	1925	1925	1925	1936	1947	1947	1958	1958	1958	1958	1947	1947	1947	1947	1947	1947	1947	1958	1958	1969	1969	1969	1969	1969	1969	1969	1958	1947	1947	1947	1947	1947	1947	1947	1947	1958	1969	1980	1969	1969	1958	1958	1958	1958	1969	1969	1969	1969	1969	1969	1969	1969	1969	1969	1969	1969	1969	1969	1969	1980	1992	1980	1980	1980	1992	2003	2003	2003	2003	1992	1992	1992	1992	1980	1980	1980	1980	1980	1980	0	1512	1512	1512	1506	1506	1506	1506	1499	1492	1486	1486	1486	1480	1473	1467	1467	1461	1455	1455	1449	1443	1443	1443	1437	1431	1431	1425	1419	1419	1413	1413	1407	1402	1396	1396	1390	1390	1385	1385	1379	1374	1368	1368	1363	1358	1358	1352	1352	1347	1347	1342	1331	1331	1331	1326	1326	1321	1321	1316	1316	1311	1311	1306	1306	1306	1301	1296	1291	1287	1287	1282	1282	1277	1272	1272	1268	1268	1263	1259	1254	1249	1249	1245	1245	1240	1236	1236	1232	1232	1227	1227	1223	1219	1219	1214	1210	1210	1206	1202	1202	1197	1193	1193	1193	1189	1185	1181	1181	1177	1177	1173	1169	1169	1165	1165	1161	1157	1153	1153	1150	1146	1146	1146	1138	1134	1134	1134	1131	1131	1127	1127	1123	1116	1113	1109	1109	1105	1105	1105	1102	1102	1098	1095	1091	1091	1091	1088	1088	1088	1081	1078	1074	1074	1071	1071	1068	1064	1061	1061	1058	1058	1055	1052	1052	1048	1048	1045	1042	1039	1039	1036	1036	1033	1030	1030	1026	1026	1023	1023	1020	1017	1014	1014	1014	1014	1017	1017	1020	1020	1023	1026	1026	1030	1033	1033	1030	1030	1033	1033	1249	1249	1249	1249	1249	1249	1240	1240	1240	1236	1236	1236	1232	1232	1227	1223	1223	1219	1219	1214	1214	1210	1210	1206	1206	1206	1206	1202	1202	1197	1193	1193	1189	1189	1189	1189	1185	1181	1181	1177	1177	1177	1173	1173	1173	1169	1169	1165	1161	1161	1157	1157	1157	1153	1150	1150	1150	1146	1146	1146	1142	1142	1138	1134	1134	1131	1131	1127	1127	1127	1123	1123	1123	1120	1116	1116	1113	1113	1113	1109	1109	1105	1105	1102	1102	1098	1095	1095	1091	1088	1088	1085	1085	1085	1085	1081	1081	1081	1078	1074	1074	1071	1071	1071	1064	1064	1061	1061	1061	1058	1058	1058	1055	1052	1052	1048	1048	1048	1045	1045	1045	1042	1039	1036	1036	1033	1033	1030	1030	1030	1026	1026	1023	1023	1020	1020	1020	1020	1014	1011	1011	1008	1008	1003	1003	1000	1000	1000	1000	997	997	997	997	994	994	994	991	988	985	985	985	983	983	980	977	977	977	974	974	972	972	972	969	963	963	963	963	963	963	963	963	0	0	0	0	0	0	0	0	0	0	0	0	0	0	0	0	0
0	0	0	0	0	0	0	0	0	0	0	0	0	0	0	0	0	0	0	0	0	0	0	0	2039	2039	1814	1814	1824	1824	1833	1843	1843	1843	1843	1853	1853	1853	1853	1853	1843	1843	1843	1843	1843	1843	1843	1863	1863	1863	1863	1873	1863	1863	1863	1863	1873	1873	1873	1863	1863	1863	1863	1863	1853	1853	1843	1843	1853	1853	1853	1853	1863	1863	1863	1863	1873	1873	1873	1873	1873	1873	1873	1863	1863	1863	0	0	0	0	0	0	1894	1894	1904	1853	1853	1863	1853	1853	1853	1853	1853	1853	1853	1853	1853	0	0	1853	1853	1853	1873	1873	1863	1863	1863	1863	1863	1873	1873	1894	1894	1894	1894	1894	1894	1883	1883	1883	1883	1883	1894	1894	1894	1894	1894	1894	1894	1894	1894	1894	1904	1904	1904	1904	1894	1894	1894	1894	1894	1894	1894	1894	1904	1904	1904	1925	1925	1925	1894	1894	1894	1904	1915	1915	1915	1915	1915	1925	1936	1936	1936	1936	1936	1936	1936	1936	1936	1936	1936	1958	1958	1958	1958	1958	1958	1958	1958	1936	1936	1925	1925	1925	1936	1936	1925	1925	1936	1936	1947	1925	1915	1915	1915	1925	1936	1936	1947	1947	1947	1947	1958	1958	1958	1958	1958	1958	1969	1969	1969	1969	1969	1969	1969	1969	1969	1969	1980	1992	1992	1992	1980	1980	1980	1980	1969	1969	1958	1958	1958	1958	0	1512	1512	1512	1512	1512	1512	1499	1499	1492	1486	1486	1486	1480	1473	1467	1467	1461	1461	1455	1449	1449	1443	1443	1437	1437	1431	1425	1419	1419	1413	1413	1407	1402	1396	1396	1390	1390	1385	1385	1379	1374	1374	1368	1363	1358	1358	1352	1352	1347	1347	1342	1331	1331	1331	1326	1326	1321	1321	1316	1316	1311	1311	1306	1306	1301	1301	1296	1287	1287	1287	1282	1277	1277	1272	1272	1268	1268	1263	1259	1254	1249	1249	1245	1245	1240	1236	1236	1232	1232	1227	1223	1223	1219	1214	1214	1210	1210	1206	1202	1202	1197	1193	1193	1189	1185	1185	1181	1181	1177	1177	1173	1173	1169	1165	1165	1161	1157	1153	1150	1150	1146	1146	1142	1138	1134	1134	1134	1131	1131	1127	1127	1120	1116	1113	1109	1109	1105	1105	1105	1105	1102	1102	1095	1091	1091	1091	1088	1088	1085	1081	1078	1074	1074	1071	1071	1068	1064	1061	1061	1058	1058	1055	1052	1052	1052	1048	1045	1045	1042	1039	1036	1036	1033	1030	1030	1026	1026	1023	1023	1020	1017	1014	1014	1014	1014	1017	1017	1020	1020	1023	1026	1026	1030	1033	1033	1033	1033	1033	1033	1249	1249	1249	1249	1249	1249	1245	1240	1240	1236	1236	1236	1232	1227	1227	1223	1223	1219	1219	1214	1214	1210	1210	1210	1206	1206	1206	1202	1197	1197	1193	1193	1189	1189	1189	1189	1185	1181	1181	1181	1177	1177	1177	1173	1173	1169	1169	1165	1161	1161	1161	1157	1157	1153	1150	1150	1150	1146	1146	1146	1142	1142	1138	1134	1134	1131	1131	1127	1127	1127	1123	1123	1123	1116	1116	1116	1113	1113	1113	1109	1109	1105	1105	1102	1102	1098	1095	1095	1091	1088	1088	1088	1088	1085	1085	1081	1081	1081	1078	1074	1074	1071	1071	1071	1068	1064	1061	1061	1058	1058	1058	1058	1055	1052	1052	1048	1048	1048	1045	1045	1045	1042	1039	1036	1036	1033	1033	1030	1030	1030	1026	1026	1023	1023	1020	1020	1020	1020	1014	1011	1011	1008	1008	1006	1003	1003	1003	1000	1000	997	997	997	997	994	994	994	991	988	988	985	985	983	983	977	977	977	977	977	974	972	972	972	969	966	963	963	963	963	963	963	963	0	0	0	0	0	0	0	0	0	0	0	0	0	0	0	0	0
0	0	0	0	0	0	0	0	0	0	0	0	0	0	0	0	0	0	0	0	0	0	0	0	2039	1804	1804	1814	1814	1824	1824	1833	1833	1833	1833	1843	1843	1843	1843	1843	1833	1833	1833	1843	1833	1833	1833	1824	1824	1824	1824	1853	1843	1843	1843	1853	1853	1863	1853	1853	1853	1853	1853	1853	1843	1833	1824	1824	1833	1833	1833	1833	1843	1843	1843	1853	1853	1853	1853	1853	1853	1853	1863	1853	1853	1843	1843	1843	0	0	0	0	1814	1853	1853	1853	1853	1853	1853	1853	1853	1843	1843	1843	1843	1843	1843	1843	1853	1853	1853	1853	1853	1853	1853	1853	1853	1853	1853	1863	1863	1863	1883	1883	1883	1883	1883	1883	1873	1873	1873	1883	1883	1883	1883	1883	1894	1883	1883	1883	1894	1894	1894	1894	1894	1894	1894	1894	1883	1883	1883	1883	1883	1883	1883	1883	1883	1894	1883	1883	1883	1883	1883	1883	1894	1894	1894	1894	1904	1904	1915	1925	1925	1925	1925	1925	1925	1925	1925	1925	1925	1936	1958	1936	1936	1936	1925	1925	1925	1915	1915	1915	1915	1925	1925	1925	1915	1915	1894	1883	1883	1883	1883	1894	1894	1894	1915	1915	1925	1925	1936	1936	1947	1947	1947	1947	1947	1958	1969	1958	1958	1958	1958	1958	1958	1958	1958	1958	1958	1980	1980	1980	1969	1969	1969	1969	1958	1958	1947	1947	1958	1958	1958	1512	1512	1512	1512	1512	1512	1499	1499	1492	1486	1486	1486	1480	1473	1467	1467	1461	1461	1455	1449	1449	1443	1443	1437	1437	1431	1425	1419	1419	1419	1413	1407	1402	1402	1396	1390	1390	1385	1385	1379	1374	1374	1368	1363	1358	1352	1352	1352	1347	1347	1342	1336	1331	1331	1326	1326	1321	1321	1316	1316	1311	1311	1306	1306	1301	1296	1296	1287	1287	1287	1282	1277	1277	1272	1272	1268	1268	1263	1259	1254	1249	1249	1245	1245	1240	1240	1236	1232	1232	1227	1223	1223	1219	1214	1214	1210	1210	1206	1202	1202	1197	1193	1193	1189	1185	1185	1181	1181	1177	1177	1173	1173	1169	1169	1165	1157	1153	1150	1150	1146	1146	1146	1142	1138	1134	1134	1134	1131	1131	1127	1123	1120	1116	1113	1113	1109	1109	1105	1105	1105	1102	1102	1095	1091	1091	1091	1088	1088	1085	1081	1078	1074	1074	1071	1071	1068	1064	1061	1061	1058	1058	1055	1055	1052	1052	1048	1045	1042	1039	1039	1036	1036	1033	1030	1030	1026	1026	1023	1023	1023	1020	1017	1014	1014	1017	1017	1017	1020	1020	1023	1026	1026	1030	1033	1033	1033	1033	1036	1036	1254	1254	1254	1249	1249	1249	1245	1240	1240	1236	1236	1236	1232	1227	1227	1223	1223	1223	1219	1214	1214	1210	1210	1210	1206	1206	1202	1202	1197	1197	1193	1193	1189	1189	1189	1189	1185	1181	1181	1181	1177	1177	1177	1173	1173	1169	1165	1165	1161	1161	1161	1157	1157	1153	1153	1150	1150	1146	1146	1146	1142	1142	1142	1138	1134	1131	1131	1127	1127	1127	1123	1123	1120	1116	1116	1116	1116	1113	1113	1109	1109	1105	1105	1102	1102	1098	1095	1095	1091	1088	1088	1088	1088	1085	1085	1085	1085	1081	1078	1074	1074	1071	1071	1071	1068	1064	1061	1061	1058	1058	1058	1058	1055	1052	1052	1052	1048	1048	1045	1045	1045	1042	1039	1036	1036	1033	1033	1030	1030	1030	1026	1026	1023	1023	1020	1020	1020	1020	1014	1011	1008	1008	1006	1006	1003	1003	1003	1000	1000	997	997	997	997	994	994	994	991	988	988	985	985	983	983	980	977	974	974	977	974	974	974	972	972	969	966	963	963	966	963	963	963	0	0	0	0	0	0	0	0	0	0	0	0	0	0	0	0	0
0	0	0	0	0	0	0	0	0	0	0	0	0	0	0	0	0	0	0	0	0	0	0	0	0	1804	1804	1804	1814	1814	1814	1824	1824	1824	1824	1833	1824	1824	1824	1824	1824	1824	1833	1833	1833	1824	1824	1824	1824	1824	1824	1843	1843	1843	1843	1843	1843	1833	1824	1814	1814	1833	1853	1853	1843	1814	1814	1814	1814	1814	1814	1814	1824	1824	1824	1833	1843	1843	1843	1843	1843	1843	1853	1833	1833	1833	1833	1833	1833	0	0	0	1814	1814	1843	1843	1833	1833	1843	1843	1843	1843	1843	1843	1843	1833	1833	1833	1843	1843	1843	1843	1843	1853	1853	1853	1853	1853	1853	1853	1853	1853	1873	1863	1863	1873	1873	1863	1853	1853	1853	1853	1863	1873	1873	1873	1883	1883	1873	1873	1873	1863	1863	1863	1863	1863	1873	1873	1873	1863	1863	1863	1863	1863	1863	1863	1863	1863	1863	1863	1863	1863	1873	1873	1873	1883	1883	1883	1883	1894	1904	1904	1904	1904	1915	1915	1915	1915	1915	1925	1925	1925	1925	1925	1925	1915	1915	1915	1904	1904	1904	1904	1904	1915	1904	1904	1904	1894	1894	1883	1883	1883	1883	1894	1894	1894	1904	1904	1904	1915	1915	1925	1925	1925	1925	1925	1925	1936	1947	1947	1936	1936	1936	1947	1936	1936	1936	1936	1936	1947	1958	1969	1969	1969	1958	1925	1925	1925	1925	1925	1936	1936	1958	1506	1506	1512	1506	1506	1506	1506	1499	1492	1486	1486	1486	1480	1473	1467	1467	1461	1455	1455	1449	1449	1443	1443	1437	1431	1431	1425	1419	1419	1419	1413	1407	1407	1402	1396	1390	1390	1385	1385	1379	1374	1374	1363	1363	1358	1352	1352	1352	1347	1347	1342	1336	1331	1331	1331	1326	1321	1321	1321	1316	1311	1311	1306	1306	1301	1296	1296	1287	1287	1287	1282	1282	1277	1272	1272	1268	1268	1263	1259	1254	1249	1249	1245	1245	1240	1236	1236	1232	1232	1227	1227	1223	1219	1214	1214	1210	1210	1206	1202	1202	1197	1193	1193	1189	1185	1185	1181	1181	1177	1177	1173	1173	1169	1169	1165	1157	1153	1150	1150	1146	1146	1146	1142	1142	1134	1134	1134	1131	1131	1127	1123	1120	1116	1113	1113	1109	1109	1105	1105	1105	1102	1102	1095	1091	1091	1091	1091	1088	1085	1081	1078	1074	1074	1074	1071	1068	1064	1064	1061	1058	1058	1055	1055	1052	1052	1048	1045	1042	1039	1039	1036	1036	1033	1033	1030	1026	1026	1026	1023	1023	1020	1017	1014	1014	1017	1017	1020	1020	1020	1023	1026	1026	1033	1033	1033	1036	1036	1036	1036	1254	1254	1249	1249	1249	1249	1245	1240	1240	1236	1236	1236	1232	1227	1227	1223	1223	1223	1219	1214	1214	1210	1210	1210	1206	1206	1202	1202	1197	1197	1193	1193	1189	1189	1189	1189	1185	1185	1181	1181	1177	1177	1177	1173	1173	1169	1165	1165	1161	1161	1161	1161	1157	1157	1153	1150	1150	1150	1146	1142	1142	1142	1138	1134	1134	1131	1131	1131	1127	1127	1123	1123	1120	1116	1116	1116	1116	1113	1113	1113	1109	1105	1105	1102	1102	1098	1098	1095	1091	1088	1088	1088	1088	1085	1085	1085	1085	1081	1078	1074	1074	1071	1071	1071	1064	1064	1061	1061	1058	1058	1058	1058	1055	1052	1052	1052	1048	1048	1045	1045	1045	1042	1039	1039	1036	1036	1033	1033	1033	1030	1026	1026	1023	1023	1020	1020	1020	1020	1014	1011	1008	1008	1006	1006	1003	1003	1003	1000	1000	1000	997	997	997	997	994	994	991	988	988	985	985	983	983	980	980	974	974	977	974	974	972	972	969	969	966	966	963	963	963	963	963	0	0	0	0	0	0	0	0	0	0	0	0	0	0	0	0	0
0	0	0	0	0	0	0	0	0	0	0	0	0	0	0	0	0	0	0	0	0	0	0	0	1786	1786	1795	1795	1804	1804	1804	1804	1804	1804	1804	1814	1814	1814	1814	1814	1814	1814	1824	1814	1814	1814	1814	1814	1814	1814	1814	1814	1824	1824	1824	1824	1824	1795	1795	1804	1804	1804	1804	1814	1814	1814	1814	1814	1814	1814	1814	1804	1814	1814	1814	1814	1814	1814	1824	1824	1824	1833	1833	1824	1824	1824	1824	1814	1814	1814	1814	1814	1814	1814	1814	1814	1814	1814	1824	1824	1833	1824	1824	1833	1833	1824	1824	1824	1833	1833	1833	1833	1843	1843	1843	1853	1853	1843	1843	1843	1843	1843	1853	1853	1853	1853	1853	1853	1843	1833	1833	1833	1843	1843	1853	1863	1873	1863	1863	1863	1863	1853	1853	1853	1843	1843	1853	1853	1853	1853	1853	1853	1853	1853	1853	1853	1843	1843	1853	1853	1853	1853	1853	1853	1853	1863	1863	1863	1873	1883	1883	1883	1883	1894	1904	1904	1915	1904	1904	1925	1925	1925	1925	1925	1925	1894	1894	1894	1883	1883	1883	1883	1894	1904	1894	1883	1883	1883	1873	1873	1873	1873	1883	1883	1883	1883	1894	1894	1894	1904	1904	1904	1894	1894	1894	1915	1894	1894	1894	1883	1883	1894	1894	1883	1883	1894	1894	1894	1904	1904	1904	1894	1894	1883	1883	1883	1883	1894	1894	1894	1894	1915	0	1506	1506	1512	1506	1506	1506	1506	1499	1492	1486	1486	1486	1480	1473	1467	1467	1461	1455	1455	1449	1449	1443	1437	1437	1431	1431	1425	1419	1419	1419	1413	1413	1407	1402	1396	1390	1390	1385	1385	1379	1374	1374	1363	1363	1358	1352	1352	1352	1352	1347	1342	1336	1331	1331	1331	1326	1326	1321	1321	1316	1311	1311	1306	1306	1301	1296	1296	1287	1287	1287	1282	1282	1277	1272	1272	1268	1268	1263	1259	1254	1254	1249	1245	1245	1240	1236	1232	1232	1232	1227	1227	1223	1219	1219	1214	1210	1210	1206	1206	1202	1197	1193	1193	1189	1185	1185	1181	1181	1177	1177	1177	1173	1169	1169	1165	1157	1157	1153	1150	1146	1146	1146	1142	1142	1134	1134	1134	1131	1127	1127	1123	1120	1116	1113	1113	1109	1109	1105	1105	1105	1102	1102	1095	1095	1091	1091	1091	1088	1085	1081	1078	1074	1074	1074	1071	1068	1068	1064	1061	1058	1058	1058	1055	1052	1052	1048	1045	1042	1039	1039	1036	1036	1033	1033	1030	1026	1026	1026	1023	1023	1020	1017	1017	1017	1017	1017	1020	1020	1020	1023	1026	1030	1036	1036	1036	1036	1036	1036	1036	0	1254	1249	1249	1249	1249	1245	1240	1240	1236	1236	1232	1232	1227	1227	1223	1223	1223	1219	1214	1210	1210	1210	1210	1206	1206	1206	1202	1202	1197	1193	1193	1189	1189	1189	1189	1185	1185	1181	1181	1177	1177	1177	1173	1173	1169	1165	1165	1161	1161	1161	1161	1157	1157	1153	1150	1150	1146	1146	1142	1142	1142	1138	1134	1134	1131	1131	1127	1127	1127	1123	1123	1120	1116	1116	1116	1113	1113	1113	1113	1109	1109	1105	1102	1102	1098	1098	1095	1095	1091	1088	1088	1088	1085	1085	1085	1085	1081	1078	1074	1074	1071	1071	1071	1064	1064	1061	1061	1058	1058	1055	1055	1055	1052	1048	1048	1048	1048	1045	1045	1045	1042	1042	1039	1036	1036	1033	1033	1033	1030	1030	1026	1023	1023	1020	1020	1020	1020	1014	1011	1008	1008	1008	1006	1006	1003	1003	1000	1000	1000	997	997	997	994	994	991	988	988	985	985	985	983	983	980	980	977	977	974	974	974	972	972	969	969	966	966	963	963	963	963	963	0	0	0	0	0	0	0	0	0	0	0	0	0	0	0	0	0
0	0	0	0	0	0	0	0	0	0	0	0	0	0	0	0	0	0	0	0	0	0	0	0	1768	1768	1786	1786	1786	1786	1795	1795	1795	1795	1795	1804	1804	1795	1795	1795	1795	1814	1814	1804	1804	1804	1804	1804	1795	1786	1786	1786	1795	1804	1804	1804	1795	1786	1786	1786	1786	1777	1777	1814	1814	1804	1804	1804	1804	1804	1804	1795	1795	1804	1804	1804	1804	1804	1814	1814	1824	1824	1814	1814	1814	1814	1814	1804	1804	1804	1804	1804	1804	1804	1804	1795	1795	1804	1814	1814	1814	1814	1814	1824	1824	1814	1814	1814	1814	1824	1824	1824	1824	1833	1833	1843	1843	1833	1833	1833	1833	1833	1833	1833	1833	1833	1833	1843	1833	1824	1824	1824	1824	1833	1843	1843	1853	1853	1853	1853	1853	1843	1843	1833	1833	1833	1833	1833	1843	1843	1843	1843	1843	1843	1843	1843	1833	1833	1843	1843	1843	1843	1843	1853	1853	1853	1853	1863	1863	1853	1853	1853	1853	1853	1853	1863	1863	1863	1863	1894	1894	1814	1814	1853	1853	1853	1883	1883	1863	1863	1863	1863	1853	1853	1853	1853	1843	1843	1853	1853	1863	1863	1863	1863	1863	1873	1873	1873	1883	1873	1873	1873	1873	1863	1863	1873	1873	1873	1873	1873	1873	1873	1873	1863	1863	1873	1883	1883	1883	1883	1883	1873	1873	1873	1873	1873	1873	1883	1883	1883	1883	1915	1512	1512	1512	1512	1512	1506	1506	1499	1499	1492	1486	1486	1486	1480	1480	1473	1467	1461	1461	1455	1449	1449	1443	1437	1437	1431	1431	1425	1419	1419	1419	1413	1413	1407	1402	1396	1390	1390	1385	1385	1379	1374	1374	1368	1363	1358	1358	1352	1352	1352	1347	1342	1342	1336	1331	1331	1326	1326	1321	1316	1311	1311	1306	1306	1306	1301	1296	1291	1291	1287	1287	1287	1282	1277	1272	1272	1268	1268	1263	1259	1254	1249	1249	1245	1245	1240	1236	1236	1232	1232	1227	1223	1219	1219	1219	1214	1214	1210	1206	1206	1202	1197	1197	1193	1189	1189	1185	1181	1181	1177	1177	1177	1173	1169	1165	1165	1161	1157	1153	1150	1146	1146	1146	1142	1142	1138	1134	1131	1131	1127	1123	1123	1120	1116	1116	1113	1109	1109	1109	1105	1105	1102	1098	1095	1095	1091	1091	1091	1088	1085	1081	1078	1074	1074	1074	1071	1068	1068	1064	1061	1061	1061	1058	1055	1052	1052	1048	1045	1042	1039	1039	1036	1036	1033	1033	1030	1030	1026	1026	1023	1023	1020	1017	1017	1017	1017	1017	1020	1020	1020	1023	1023	1030	1033	1036	1036	1036	1036	1036	0	0	1254	1254	1249	1249	1249	1245	1240	1240	1236	1236	1232	1227	1227	1227	1223	1223	1219	1219	1214	1210	1210	1210	1210	1206	1206	1206	1202	1202	1197	1193	1193	1189	1189	1189	1189	1185	1185	1181	1181	1177	1177	1177	1173	1173	1169	1165	1165	1161	1161	1161	1161	1157	1157	1153	1150	1150	1146	1146	1142	1142	1142	1142	1138	1134	1131	1131	1127	1127	1127	1127	1123	1120	1116	1116	1116	1113	1113	1113	1113	1109	1105	1105	1102	1102	1098	1098	1095	1095	1091	1088	1088	1088	1088	1085	1085	1085	1081	1078	1078	1074	1074	1071	1071	1064	1064	1061	1061	1061	1058	1055	1055	1052	1052	1048	1048	1048	1048	1045	1045	1045	1042	1039	1036	1036	1036	1033	1033	1033	1030	1030	1026	1023	1023	1020	1020	1020	1020	1014	1011	1008	1008	1008	1006	1006	1003	1003	1000	1000	1000	997	997	997	994	994	991	988	988	985	985	985	983	983	980	980	977	977	974	974	974	972	972	972	972	969	966	966	966	966	966	966	0	0	0	0	0	0	0	0	0	0	0	0	0	0	0	0	0
0	0	0	0	0	0	0	0	0	0	0	0	0	0	0	0	0	0	0	0	0	0	0	0	1768	1759	1759	1777	1777	1777	1777	1777	1777	1777	1777	1786	1786	1786	1786	1786	1786	1804	1786	1786	1777	1777	1777	1777	1768	1768	1777	1777	1777	1786	1786	1786	1786	1777	1777	1777	1777	1768	1768	1768	1777	1804	1804	1804	1786	1786	1786	1786	1786	1795	1795	1795	1795	1795	1804	1804	1814	1804	1804	1795	1795	1804	1795	1795	1795	1795	1795	1795	1795	1795	1795	1777	1777	1777	1795	1795	1795	1804	1804	1804	1814	1814	1814	1814	1814	1814	1814	1814	1814	1814	1814	1814	1824	1814	1814	1814	1814	1814	1814	1814	1814	1814	1814	1814	1814	1814	1814	1814	1814	1824	1824	1824	1824	1824	1833	1824	1824	1795	1804	1814	1804	1804	1804	1804	1804	1814	1814	1804	1804	1814	1814	1814	1814	1814	1824	1833	1833	1833	1833	1833	1833	1824	1824	1833	1833	1833	1833	1833	1833	1833	1824	1814	1814	1824	1824	1824	1814	1814	1814	1814	1843	1824	1804	1853	1853	1853	1853	1853	1843	1833	1833	1833	1833	1833	1833	1833	1843	1853	1853	1853	1853	1843	1843	1863	1863	1863	1863	1863	1863	1853	1853	1853	1853	1863	1853	1853	1853	1863	1863	1853	1853	1863	1873	1883	1883	1873	1873	1863	1863	1873	1853	1853	1853	1863	1863	1873	1883	1883	1883	1512	1512	1512	1512	1512	1506	1499	1499	1492	1486	1486	1486	1480	1480	1473	1467	1461	1461	1455	1455	1449	1443	1437	1437	1437	1431	1425	1419	1419	1419	1413	1413	1407	1402	1396	1390	1390	1385	1379	1379	1374	1374	1368	1363	1363	1358	1352	1352	1347	1347	1342	1342	1336	1331	1331	1326	1326	1321	1316	1316	1311	1306	1306	1306	1301	1296	1291	1291	1287	1287	1287	1282	1277	1272	1272	1268	1268	1263	1259	1254	1249	1249	1245	1245	1240	1240	1236	1232	1232	1227	1227	1223	1219	1219	1214	1214	1210	1210	1206	1202	1197	1197	1193	1193	1189	1185	1181	1181	1177	1177	1177	1173	1169	1169	1165	1161	1157	1153	1150	1146	1146	1146	1142	1142	1138	1134	1131	1131	1127	1123	1123	1120	1116	1116	1113	1113	1113	1109	1105	1105	1102	1098	1095	1095	1091	1091	1088	1088	1088	1081	1078	1078	1074	1074	1071	1071	1068	1064	1064	1061	1061	1061	1055	1052	1052	1048	1045	1042	1039	1039	1039	1036	1036	1036	1033	1033	1030	1026	1023	1023	1020	1017	1017	1017	1020	1020	1020	1023	1023	1023	1026	1030	1030	1036	1036	1036	1036	1036	0	0	1254	1254	1249	1249	1249	1245	1240	1240	1236	1236	1232	1227	1227	1227	1223	1223	1219	1219	1214	1210	1210	1210	1210	1206	1206	1206	1202	1202	1197	1193	1193	1189	1189	1189	1189	1185	1185	1181	1177	1177	1177	1177	1173	1173	1169	1169	1165	1161	1161	1161	1161	1161	1157	1153	1150	1150	1150	1146	1146	1142	1142	1142	1138	1134	1131	1131	1127	1127	1127	1127	1123	1120	1116	1116	1116	1116	1113	1113	1113	1105	1105	1105	1102	1102	1098	1098	1095	1095	1091	1088	1088	1088	1088	1085	1085	1085	1081	1078	1078	1074	1071	1071	1071	1064	1064	1061	1061	1058	1058	1055	1055	1052	1052	1048	1048	1048	1048	1045	1045	1045	1042	1039	1036	1036	1036	1033	1033	1033	1033	1030	1030	1026	1023	1020	1020	1020	1020	1014	1011	1008	1008	1008	1006	1006	1006	1003	1000	1000	1000	997	997	997	994	994	991	991	991	988	985	985	985	983	983	980	977	977	977	974	974	972	972	972	972	969	969	966	966	966	966	966	0	0	0	0	0	0	0	0	0	0	0	0	0	0	0	0	0
0	0	0	0	0	0	0	0	0	0	0	0	0	0	0	0	0	0	0	0	0	0	0	0	0	1741	1741	1750	1750	1759	1759	1759	1768	1768	1768	1768	1768	1777	1777	1777	1777	1804	1768	1768	1768	1759	1759	1759	1759	1759	1768	1768	1768	1768	1777	1777	1777	1768	1768	1768	1768	1759	1759	1759	1759	1759	1759	1768	1768	1768	1768	1768	1768	1777	1786	1777	1777	1786	1795	1795	1804	1786	1777	1777	1777	1786	1786	1777	1777	1777	1786	1786	1786	1786	1786	1768	1768	1768	1777	1777	1777	1777	1777	1795	1795	1795	1786	1786	1786	1786	1777	1777	1768	1768	1768	1768	1768	1777	1777	1777	1795	1795	1786	1786	1786	1786	1786	1786	1777	1777	1777	1777	1786	1777	1777	1777	1777	1786	1786	1777	1777	1777	1777	1795	1786	1786	1786	1795	1795	1786	1786	1786	1786	1786	1786	1795	1795	1804	1804	1814	1814	1824	1814	1814	1814	1804	1804	1814	1814	1804	1804	1814	1814	1814	1814	1804	1804	1804	1804	1804	1814	1814	1814	1814	1824	1824	1804	1804	1833	1833	1833	1833	1833	1824	1824	1833	1833	1824	1824	1824	1833	1843	1833	1833	1833	1833	1833	1833	1833	1833	1843	1843	1843	1843	1833	1833	1833	1853	1853	1853	1853	1853	1853	1843	1843	1843	1853	1863	1863	1863	1863	1863	1853	1853	1853	1853	1853	1853	1853	1853	1873	1883	1883	1512	1512	1512	1512	1512	1512	1506	1499	1492	1492	1486	1486	1486	1480	1473	1467	1461	1461	1455	1455	1449	1443	1443	1437	1431	1431	1425	1419	1419	1419	1413	1413	1407	1402	1396	1390	1390	1385	1379	1379	1374	1374	1368	1368	1363	1358	1352	1352	1347	1347	1342	1342	1336	1331	1331	1331	1326	1321	1316	1311	1311	1306	1306	1306	1301	1296	1291	1291	1287	1287	1287	1282	1277	1277	1272	1268	1268	1263	1259	1254	1249	1249	1245	1245	1240	1236	1236	1232	1232	1227	1227	1223	1219	1219	1214	1214	1210	1210	1206	1202	1197	1197	1193	1193	1189	1185	1181	1181	1177	1177	1173	1173	1169	1165	1165	1161	1161	1153	1150	1146	1146	1146	1142	1142	1138	1134	1134	1131	1127	1123	1123	1120	1116	1116	1113	1113	1113	1109	1105	1105	1102	1102	1095	1095	1091	1091	1088	1088	1088	1081	1078	1078	1078	1074	1071	1071	1068	1064	1064	1061	1061	1061	1055	1052	1052	1048	1045	1042	1039	1039	1039	1036	1036	1036	1036	1033	1030	1026	1023	1023	1020	1017	1017	1017	1020	1020	1023	1023	1023	1026	1030	1030	1036	1036	1036	1036	1039	1039	0	1259	1254	1249	1249	1249	1249	1245	1240	1240	1240	1236	1232	1232	1227	1227	1223	1223	1223	1219	1214	1214	1210	1210	1210	1210	1206	1206	1202	1202	1197	1193	1193	1189	1189	1189	1189	1185	1185	1181	1177	1177	1177	1177	1173	1173	1169	1169	1165	1161	1161	1161	1161	1161	1157	1153	1150	1150	1150	1146	1146	1142	1142	1142	1138	1134	1131	1131	1131	1127	1127	1127	1123	1120	1116	1116	1116	1116	1113	1113	1113	1105	1105	1102	1102	1102	1098	1098	1095	1095	1091	1091	1088	1088	1088	1085	1085	1081	1081	1078	1078	1074	1071	1071	1071	1068	1064	1064	1061	1058	1058	1055	1055	1052	1052	1048	1048	1048	1048	1045	1045	1045	1042	1042	1039	1036	1036	1033	1033	1033	1033	1030	1030	1026	1023	1023	1020	1020	1020	1014	1011	1008	1008	1008	1006	1006	1006	1003	1000	1000	1000	997	997	997	994	994	991	988	988	988	985	985	985	983	983	980	977	977	977	974	974	972	972	972	972	972	969	969	969	966	966	966	0	0	0	0	0	0	0	0	0	0	0	0	0	0	0	0	0
0	0	0	0	0	0	0	0	0	0	0	0	0	0	0	0	0	0	0	0	0	0	0	0	0	1715	1715	1732	1741	1741	1750	1750	1759	1750	1750	1750	1750	1759	1777	1777	1777	1777	1750	1750	1750	1750	1750	1750	1750	1759	1759	1759	1759	1759	1759	1759	1759	1759	1759	1759	1750	1750	1750	1750	1750	1750	1750	1768	1759	1759	1768	1759	1759	1759	1768	1768	1768	1768	1795	1795	1768	1750	1732	1741	1741	1750	1750	1750	1759	1759	1759	1759	1759	1759	1759	1750	1750	1750	1759	1759	1750	1750	1750	1750	1759	1768	1768	1777	1777	1768	1759	1759	1759	1750	1759	1759	1759	1759	1759	1768	1768	1777	1777	1777	1777	1777	1768	1768	1768	1768	1768	1768	1768	1768	1768	1768	1768	1777	1768	1768	1768	1768	1768	1777	1777	1777	1777	1777	1786	1777	1777	1777	1786	1777	1777	1768	1768	1777	1777	1786	1795	1804	1804	1795	1795	1786	1786	1795	1786	1786	1795	1804	1804	1804	1804	1804	1804	1804	1804	1804	1804	1804	1804	1804	1804	1804	1804	1804	1804	1804	1804	1804	1804	1804	1804	1804	1804	1804	1804	1804	1814	1814	1814	1814	1814	1814	1833	1833	1833	1833	1833	1833	1824	1824	1824	1824	1824	1833	1833	1843	1843	1843	1843	1833	1833	1833	1833	1833	1843	1843	1843	1843	1843	1843	1843	1833	1833	1833	1833	1843	1843	1883	1512	1512	1512	1512	1512	1512	1512	1506	1499	1499	1492	1486	1486	1486	1480	1473	1467	1461	1461	1455	1455	1449	1443	1443	1437	1431	1431	1425	1419	1419	1419	1419	1413	1407	1402	1396	1390	1390	1385	1385	1379	1374	1374	1368	1368	1363	1358	1352	1352	1352	1347	1342	1342	1336	1331	1331	1326	1321	1316	1311	1311	1311	1306	1306	1306	1301	1296	1296	1291	1287	1287	1287	1282	1282	1277	1272	1268	1268	1259	1259	1254	1249	1249	1245	1245	1240	1236	1236	1232	1232	1227	1227	1223	1219	1219	1214	1214	1210	1210	1210	1202	1197	1197	1193	1193	1189	1185	1185	1181	1177	1177	1173	1173	1169	1165	1165	1161	1161	1157	1153	1150	1146	1146	1146	1142	1138	1134	1134	1131	1127	1123	1123	1120	1116	1116	1116	1113	1113	1109	1109	1105	1102	1102	1098	1095	1091	1091	1088	1088	1088	1081	1078	1078	1078	1074	1071	1071	1068	1064	1064	1061	1061	1058	1058	1055	1052	1048	1045	1042	1039	1039	1036	1036	1036	1036	1036	1033	1030	1026	1023	1020	1020	1017	1017	1017	1020	1020	1023	1023	1026	1026	1030	1030	1033	1036	1036	1036	1036	1039	0	1259	1254	1249	1249	1249	1249	1245	1240	1240	1240	1236	1232	1232	1227	1227	1223	1223	1223	1219	1219	1214	1210	1210	1210	1210	1206	1206	1202	1202	1202	1197	1193	1189	1189	1189	1185	1185	1181	1177	1177	1177	1177	1177	1173	1173	1169	1165	1165	1161	1161	1161	1161	1161	1161	1153	1150	1150	1150	1146	1146	1142	1142	1142	1138	1134	1131	1131	1131	1127	1127	1127	1123	1120	1120	1120	1116	1116	1116	1113	1113	1105	1105	1102	1102	1098	1098	1095	1095	1095	1091	1091	1088	1088	1088	1085	1085	1081	1081	1078	1078	1074	1074	1071	1071	1068	1064	1064	1061	1061	1058	1058	1055	1055	1052	1048	1048	1048	1048	1045	1045	1045	1042	1042	1039	1036	1036	1036	1033	1033	1033	1030	1030	1026	1023	1023	1020	1020	1020	1014	1011	1011	1008	1008	1008	1006	1006	1006	1000	1000	1000	997	997	997	994	994	991	988	988	985	985	985	985	983	983	980	980	977	974	974	974	972	972	972	972	972	969	969	969	966	966	966	0	0	0	0	0	0	0	0	0	0	0	0	0	0	0	0	0
0	0	0	0	0	0	0	0	0	0	0	0	0	0	0	0	0	0	0	0	0	0	0	0	0	1706	1706	1715	1723	1732	1732	1741	1750	1741	1741	1741	1741	1741	1750	1750	1750	1750	1750	1741	1741	1741	1741	1741	1750	1750	1750	1750	1750	1750	1750	1750	1750	1750	1750	1750	1741	1741	1723	1715	1715	1723	1723	1723	1723	1723	1723	1723	1723	1732	1732	1732	1732	1732	1732	1723	1723	1723	1723	1723	1723	1732	1732	1732	1732	1732	1741	1741	1741	1741	1750	1741	1741	1750	1741	1741	1741	1741	1741	1741	1750	1759	1759	1759	1750	1750	1750	1750	1741	1741	1750	1741	1741	1741	1750	1759	1759	1750	1750	1759	1768	1768	1768	1759	1759	1759	1768	1768	1768	1759	1759	1768	1768	1768	1759	1759	1759	1759	1768	1768	1768	1768	1768	1768	1759	1759	1768	1768	1759	1750	1750	1750	1750	1759	1759	1759	1777	1786	1786	1777	1777	1777	1777	1777	1777	1777	1777	1777	1795	1795	1795	1795	1804	1795	1795	1795	1795	1795	1795	1786	1786	1786	1786	1795	1786	1786	1795	1795	1786	1786	1786	1777	1777	1786	1786	1795	1804	1804	1804	1795	1795	1795	1795	1795	1795	1795	1814	1814	1814	1814	1814	1814	1814	1814	1814	1814	1814	1814	1814	1814	1814	1804	1804	1814	1814	1824	1833	1833	1824	1824	1824	1824	1814	1814	1824	1833	1833	0	1512	1512	1512	1512	1512	1512	1512	1506	1506	1499	1492	1492	1486	1486	1480	1473	1467	1461	1461	1455	1455	1449	1443	1443	1437	1431	1431	1425	1419	1419	1419	1419	1413	1407	1402	1396	1390	1390	1385	1385	1379	1374	1374	1368	1368	1363	1358	1352	1352	1352	1347	1342	1342	1336	1331	1331	1326	1321	1316	1311	1311	1311	1306	1306	1306	1301	1296	1296	1291	1291	1287	1287	1282	1277	1277	1272	1268	1268	1259	1259	1254	1249	1249	1245	1245	1240	1240	1236	1232	1232	1227	1227	1223	1219	1219	1214	1214	1214	1210	1210	1202	1202	1197	1193	1193	1189	1185	1185	1181	1177	1177	1173	1169	1169	1165	1165	1161	1161	1157	1153	1150	1150	1146	1146	1142	1138	1134	1134	1131	1127	1127	1123	1120	1116	1116	1116	1113	1113	1109	1109	1105	1102	1102	1098	1095	1091	1091	1088	1088	1085	1081	1078	1078	1078	1074	1071	1068	1064	1064	1061	1061	1061	1058	1055	1052	1052	1048	1045	1042	1039	1039	1036	1036	1036	1036	1036	1033	1030	1026	1023	1020	1020	1017	1017	1017	1020	1020	1023	1023	1023	1026	1030	1030	1033	1033	1036	1036	1036	0	0	1254	1254	1249	1249	1249	1249	1245	1240	1240	1240	1236	1232	1232	1227	1227	1223	1223	1223	1219	1219	1214	1214	1210	1210	1210	1206	1206	1202	1202	1202	1197	1193	1193	1193	1189	1185	1185	1181	1177	1177	1177	1177	1173	1173	1173	1169	1169	1165	1161	1161	1161	1157	1157	1157	1153	1153	1150	1150	1146	1146	1142	1142	1142	1142	1138	1134	1134	1131	1127	1127	1127	1123	1120	1120	1120	1116	1116	1113	1113	1109	1105	1105	1102	1102	1098	1098	1095	1095	1095	1091	1091	1088	1088	1088	1085	1085	1085	1078	1078	1078	1074	1074	1071	1071	1071	1068	1064	1061	1061	1058	1058	1055	1055	1052	1048	1048	1048	1048	1045	1045	1045	1045	1042	1042	1039	1036	1036	1033	1033	1030	1030	1030	1026	1023	1023	1020	1020	1020	1014	1011	1011	1008	1008	1008	1006	1006	1006	1003	1003	1000	997	997	997	994	994	991	988	988	985	985	985	985	983	983	980	980	977	974	974	974	972	972	972	972	972	969	969	969	969	969	969	0	0	0	0	0	0	0	0	0	0	0	0	0	0	0	0	0
0	0	0	0	0	0	0	0	0	0	0	0	0	0	0	0	0	0	0	0	0	0	0	0	0	1698	1698	1706	1706	1715	1715	1732	1741	1732	1732	1732	1732	1732	1750	1750	1750	1715	1715	1715	1723	1723	1723	1732	1732	1732	1741	1741	1732	1732	1723	1723	1723	1715	1706	1706	1715	1715	1706	1706	1706	1706	1715	1715	1715	1715	1715	1715	1715	1715	1723	1715	1715	1715	1715	1706	1706	1715	1715	1723	1715	1715	1715	1723	1723	1723	1723	1723	1723	1723	1732	1732	1732	1741	1732	1732	1741	1741	1741	1741	1741	1741	1741	1741	1741	1741	1741	1741	1741	1741	1741	1741	1732	1732	1741	1741	1741	1732	1732	1741	1750	1750	1750	1750	1750	1750	1750	1759	1750	1750	1750	1750	1750	1750	1750	1750	1750	1750	1750	1759	1750	1750	1750	1750	1741	1741	1750	1759	1750	1750	1750	1741	1741	1750	1750	1750	1750	1768	1777	1777	1768	1768	1768	1768	1768	1768	1768	1768	1777	1786	1786	1777	1777	1795	1795	1795	1795	1795	1786	1786	1786	1777	1777	1786	1777	1777	1777	1777	1777	1777	1777	1768	1768	1777	1777	1786	1786	1786	1786	1786	1786	1786	1777	1777	1777	1777	1786	1786	1795	1795	1795	1795	1795	1795	1795	1795	1795	1795	1786	1777	1777	1786	1786	1795	1795	1804	1804	1804	1804	1814	1814	1814	1804	1804	1804	1804	1804	0	1512	1512	1512	1512	1512	1512	1512	1506	1506	1499	1492	1492	1486	1480	1480	1473	1467	1461	1461	1455	1455	1449	1443	1443	1437	1437	1431	1425	1425	1419	1419	1419	1413	1407	1402	1396	1390	1390	1385	1385	1379	1374	1374	1368	1368	1363	1358	1352	1352	1352	1347	1342	1342	1336	1331	1331	1326	1321	1316	1311	1311	1311	1306	1306	1306	1301	1296	1296	1291	1291	1287	1287	1282	1277	1277	1272	1268	1268	1259	1259	1254	1249	1249	1245	1245	1240	1240	1236	1232	1232	1227	1227	1223	1219	1219	1214	1214	1210	1210	1210	1202	1202	1197	1193	1193	1189	1185	1185	1181	1181	1177	1173	1169	1169	1165	1165	1161	1157	1157	1153	1150	1150	1146	1146	1142	1138	1134	1134	1131	1131	1127	1123	1120	1116	1116	1116	1113	1113	1109	1109	1105	1102	1102	1098	1095	1091	1091	1088	1088	1085	1081	1078	1078	1078	1074	1071	1068	1064	1064	1061	1061	1061	1058	1055	1052	1052	1048	1045	1042	1042	1039	1039	1036	1036	1036	1036	1033	1030	1026	1023	1020	1020	1017	1017	1017	1020	1020	1023	1023	1023	1026	1030	1030	1033	1033	1033	1036	1036	0	0	1254	1254	1249	1249	1249	1249	1245	1240	1240	1240	1236	1232	1232	1227	1227	1223	1223	1223	1219	1219	1214	1214	1210	1210	1210	1206	1206	1202	1202	1202	1197	1193	1193	1193	1189	1185	1185	1181	1177	1177	1177	1177	1173	1173	1169	1169	1169	1165	1161	1161	1161	1157	1157	1157	1157	1153	1150	1146	1146	1146	1146	1142	1142	1142	1138	1134	1131	1131	1131	1127	1127	1127	1123	1123	1120	1120	1116	1113	1113	1109	1105	1105	1102	1102	1098	1098	1098	1095	1095	1091	1091	1091	1088	1088	1088	1085	1085	1078	1078	1078	1074	1074	1071	1071	1071	1068	1064	1061	1061	1058	1058	1055	1055	1052	1052	1048	1048	1048	1045	1045	1045	1042	1042	1039	1039	1036	1036	1033	1033	1030	1030	1030	1026	1023	1023	1020	1020	1017	1014	1011	1011	1011	1008	1008	1008	1006	1006	1003	1003	1000	997	997	997	997	994	991	988	988	985	983	983	983	983	983	983	980	977	974	974	974	972	972	972	972	972	969	969	969	969	969	969	0	0	0	0	0	0	0	0	0	0	0	0	0	0	0	0	0
0	0	0	0	0	0	0	0	0	0	0	0	0	0	0	0	0	0	0	0	0	0	0	0	0	1698	1698	1698	1698	1690	1698	1698	1706	1706	1698	1698	1698	1698	1681	1681	1690	1698	1698	1698	1698	1698	1706	1715	1723	1732	1732	1732	1732	1723	1706	1706	1706	1706	1698	1698	1698	1706	1706	1706	1706	1706	1706	1706	1706	1715	1706	1706	1706	1715	1706	1698	1698	1698	1698	1698	1698	1706	1706	1715	1715	1706	1706	1715	1706	1706	1706	1706	1715	1715	1723	1723	1723	1732	1732	1732	1732	1732	1732	1732	1732	1732	1732	1732	1732	1732	1732	1732	1732	1732	1732	1723	1723	1723	1723	1715	1715	1715	1715	1715	1723	1732	1732	1732	1741	1741	1741	1732	1732	1732	1732	1732	1732	1732	1741	1741	1741	1741	1741	1741	1741	1741	1741	1741	1732	1732	1741	1741	1741	1741	1741	1741	1741	1741	1750	1750	1750	1759	1768	1768	1759	1759	1759	1750	1750	1759	1759	1759	1768	1777	1777	1777	1777	1777	1777	1777	1777	1777	1768	1768	1768	1768	1768	1777	1768	1768	1768	1768	1768	1768	1768	1759	1759	1768	1768	1768	1777	1777	1777	1777	1777	1777	1768	1768	1768	1768	1768	1768	1768	1777	1786	1786	1795	1786	1786	1777	1777	1777	1777	1768	1768	1777	1777	1777	1777	1786	1786	1786	1786	1786	1786	1786	1786	1786	1795	1795	1795	0	1506	1506	1512	1512	1512	1512	1512	1506	1506	1499	1492	1492	1486	1480	1480	1473	1467	1461	1461	1455	1455	1449	1443	1443	1437	1437	1431	1431	1425	1419	1419	1419	1413	1407	1402	1396	1390	1390	1385	1385	1379	1374	1374	1374	1368	1363	1358	1352	1352	1352	1347	1342	1342	1336	1331	1331	1326	1326	1321	1316	1316	1311	1306	1306	1306	1301	1296	1296	1291	1291	1287	1287	1282	1282	1277	1272	1268	1268	1259	1259	1254	1249	1249	1245	1245	1240	1240	1236	1232	1232	1227	1227	1223	1219	1219	1214	1214	1210	1210	1206	1202	1197	1197	1193	1193	1189	1185	1185	1181	1181	1177	1173	1169	1165	1165	1165	1161	1157	1157	1153	1150	1150	1146	1142	1142	1138	1134	1134	1134	1131	1127	1127	1120	1116	1116	1116	1113	1113	1109	1109	1105	1102	1102	1098	1095	1091	1091	1088	1088	1085	1085	1078	1078	1078	1074	1071	1068	1064	1064	1061	1061	1061	1058	1055	1055	1052	1048	1048	1045	1042	1039	1039	1036	1036	1036	1033	1033	1026	1026	1023	1020	1020	1017	1017	1017	1020	1020	1023	1023	1023	1026	1026	1030	1033	1033	1033	1036	1036	0	0	1254	1254	1254	1249	1249	1249	1245	1240	1240	1240	1236	1236	1232	1227	1227	1223	1223	1223	1219	1219	1214	1214	1210	1210	1210	1206	1206	1202	1202	1202	1197	1193	1193	1193	1189	1189	1185	1181	1177	1177	1177	1177	1173	1173	1169	1169	1165	1165	1161	1161	1161	1157	1157	1157	1157	1153	1150	1146	1146	1146	1146	1142	1142	1138	1138	1134	1131	1131	1131	1127	1127	1127	1123	1123	1120	1120	1120	1116	1113	1109	1105	1105	1102	1102	1098	1098	1098	1095	1095	1091	1091	1091	1088	1088	1088	1085	1085	1078	1078	1074	1074	1071	1071	1071	1068	1064	1064	1061	1061	1058	1058	1055	1055	1052	1052	1048	1048	1048	1048	1045	1045	1042	1042	1039	1039	1036	1036	1033	1033	1030	1030	1030	1026	1023	1023	1020	1020	1017	1014	1011	1011	1011	1008	1008	1006	1006	1006	1003	1003	1000	997	997	997	997	994	991	991	988	985	983	983	983	983	983	983	980	980	977	974	974	972	972	972	972	972	972	969	969	969	969	969	0	0	0	0	0	0	0	0	0	0	0	0	0	0	0	0	0
0	0	0	0	0	0	0	0	0	0	0	0	0	0	0	0	0	0	0	0	0	0	0	0	0	1681	1681	1681	1681	1681	1681	1681	1681	1681	1681	1681	1681	1673	1681	1681	1690	1690	1681	1681	1681	1681	1690	1698	1690	1690	1706	1715	1715	1706	1698	1698	1698	1698	1690	1681	1681	1698	1698	1698	1698	1698	1698	1706	1698	1698	1698	1698	1698	1698	1690	1690	1690	1690	1690	1690	1690	1690	1698	1698	1706	1698	1698	1706	1706	1706	1698	1698	1698	1698	1706	1715	1715	1715	1723	1723	1723	1723	1723	1723	1723	1723	1723	1723	1723	1723	1723	1715	1715	1715	1715	1715	1706	1706	1706	1706	1706	1706	1706	1706	1715	1715	1715	1723	1723	1732	1732	1732	1723	1723	1723	1723	1723	1723	1732	1732	1732	1732	1732	1732	1732	1732	1732	1723	1723	1723	1732	1732	1732	1732	1732	1732	1732	1741	1741	1741	1741	1750	1750	1759	1750	1750	1750	1741	1741	1750	1750	1750	1750	1750	1750	1768	1768	1768	1768	1768	1768	1768	1759	1759	1759	1759	1759	1759	1759	1759	1759	1759	1759	1759	1750	1750	1741	1741	1750	1750	1750	1750	1768	1768	1768	1759	1759	1759	1759	1750	1750	1759	1759	1759	1768	1768	1777	1777	1768	1768	1768	1768	1768	1768	1768	1768	1768	1777	1777	1777	1777	1777	1777	1777	1777	1777	1777	1777	1786	1786	1786	0	1506	1506	1512	1512	1512	1512	1512	1506	1506	1499	1492	1492	1486	1480	1480	1473	1467	1467	1461	1461	1455	1449	1443	1443	1443	1437	1431	1431	1425	1419	1419	1419	1413	1407	1402	1396	1396	1390	1390	1385	1379	1379	1374	1374	1368	1363	1358	1358	1352	1352	1347	1342	1342	1336	1331	1331	1326	1326	1321	1316	1316	1316	1311	1306	1306	1301	1296	1296	1291	1291	1287	1287	1282	1282	1277	1272	1268	1268	1259	1259	1254	1249	1249	1249	1245	1240	1240	1236	1232	1232	1227	1227	1223	1219	1219	1214	1214	1210	1210	1206	1202	1197	1197	1193	1193	1189	1185	1181	1181	1181	1177	1173	1169	1165	1165	1161	1161	1157	1157	1153	1150	1150	1146	1142	1142	1138	1134	1134	1134	1131	1127	1127	1120	1116	1116	1116	1113	1113	1109	1109	1105	1102	1102	1098	1095	1091	1091	1088	1088	1085	1085	1078	1078	1078	1074	1071	1068	1064	1064	1061	1061	1061	1058	1055	1055	1052	1048	1048	1045	1042	1039	1039	1036	1036	1036	1033	1030	1026	1023	1023	1020	1017	1017	1017	1017	1020	1020	1023	1023	1023	1026	1026	1030	1033	1033	1033	1036	1036	0	0	1254	1254	1254	1254	1249	1249	1245	1240	1240	1240	1236	1236	1232	1232	1227	1223	1223	1223	1219	1219	1214	1214	1214	1210	1210	1210	1206	1202	1202	1202	1197	1193	1193	1193	1189	1189	1185	1181	1177	1177	1177	1173	1173	1173	1169	1169	1165	1165	1165	1161	1161	1157	1157	1157	1153	1150	1146	1146	1146	1146	1146	1142	1142	1138	1138	1134	1131	1131	1131	1127	1127	1127	1123	1123	1120	1120	1116	1113	1113	1109	1105	1105	1102	1102	1098	1098	1098	1095	1095	1091	1091	1091	1088	1088	1088	1085	1081	1078	1074	1074	1074	1071	1071	1071	1071	1068	1064	1061	1061	1058	1055	1055	1055	1055	1052	1048	1048	1048	1045	1045	1045	1042	1042	1039	1039	1039	1036	1036	1033	1030	1030	1026	1023	1023	1020	1020	1020	1017	1014	1011	1011	1011	1008	1008	1006	1006	1006	1003	1003	1003	1000	997	997	997	994	991	991	988	985	985	983	983	983	983	983	980	980	977	974	974	974	974	974	972	972	972	969	969	969	969	969	0	0	0	0	0	0	0	0	0	0	0	0	0	0	0	0	0
0	0	0	0	0	0	0	0	0	0	0	0	0	0	0	0	0	0	0	0	0	0	0	0	0	1673	1673	1665	1665	1665	1665	1657	1657	1665	1665	1665	1665	1665	1665	1673	1681	1673	1673	1665	1665	1673	1673	1673	1673	1673	1681	1698	1698	1690	1681	1681	1681	1681	1681	1673	1673	1681	1690	1690	1690	1690	1690	1690	1690	1690	1690	1690	1690	1690	1681	1681	1681	1681	1681	1690	1690	1681	1681	1698	1698	1690	1690	1690	1690	1690	1690	1690	1690	1690	1690	1698	1690	1690	1698	1698	1706	1706	1706	1706	1715	1715	1723	1715	1715	1715	1706	1706	1706	1706	1698	1698	1698	1698	1698	1698	1698	1698	1698	1698	1706	1706	1706	1706	1706	1723	1723	1723	1715	1715	1715	1715	1715	1715	1715	1715	1723	1723	1723	1723	1723	1723	1723	1715	1715	1715	1723	1732	1732	1732	1732	1732	1732	1732	1732	1732	1732	1741	1741	1750	1741	1741	1741	1732	1732	1741	1741	1741	1741	1741	1741	1741	1741	1750	1741	1741	1741	1750	1750	1741	1741	1741	1750	1750	1750	1750	1750	1741	1741	1741	1732	1732	1732	1732	1732	1732	1741	1750	1759	1759	1768	1759	1759	1759	1759	1750	1750	1750	1750	1750	1759	1759	1759	1759	1759	1759	1759	1759	1759	1759	1759	1759	1759	1768	1768	1768	1768	1768	1768	1768	1768	1768	1768	1768	1768	1768	1768	1768	1506	1506	1512	1512	1512	1512	1512	1506	1506	1499	1492	1492	1486	1480	1480	1473	1467	1467	1461	1461	1455	1449	1443	1443	1443	1437	1431	1431	1425	1419	1419	1419	1413	1407	1402	1396	1396	1390	1390	1385	1379	1379	1374	1374	1368	1363	1358	1358	1352	1352	1347	1342	1342	1336	1331	1331	1326	1326	1326	1316	1316	1316	1311	1306	1306	1306	1301	1296	1291	1291	1287	1287	1282	1282	1277	1272	1272	1268	1259	1259	1254	1254	1249	1249	1245	1240	1236	1236	1232	1232	1227	1227	1223	1219	1219	1214	1214	1210	1210	1206	1202	1197	1197	1193	1189	1189	1185	1181	1181	1181	1177	1173	1169	1169	1165	1161	1161	1157	1157	1153	1150	1150	1146	1142	1142	1138	1134	1134	1134	1131	1131	1127	1123	1116	1116	1116	1113	1113	1109	1109	1105	1102	1102	1098	1095	1091	1091	1088	1088	1085	1081	1078	1078	1078	1078	1074	1068	1064	1064	1061	1058	1058	1055	1055	1052	1052	1048	1048	1045	1042	1039	1039	1036	1036	1033	1033	1030	1026	1023	1023	1020	1017	1017	1017	1017	1020	1020	1023	1023	1023	1026	1026	1030	1030	1030	1033	1033	1036	0	0	1259	1254	1254	1254	1249	1249	1245	1240	1240	1240	1236	1236	1232	1232	1227	1223	1223	1223	1219	1219	1219	1214	1214	1214	1210	1210	1206	1206	1206	1202	1197	1197	1193	1193	1189	1189	1185	1181	1177	1177	1177	1173	1173	1173	1169	1169	1165	1165	1165	1161	1161	1157	1157	1157	1153	1150	1146	1146	1146	1146	1146	1142	1142	1142	1138	1134	1131	1131	1127	1127	1127	1127	1123	1123	1120	1120	1116	1113	1113	1109	1109	1105	1105	1102	1098	1098	1098	1098	1095	1091	1091	1091	1091	1088	1088	1085	1081	1078	1074	1074	1074	1071	1071	1071	1071	1068	1064	1064	1061	1058	1055	1055	1055	1052	1052	1048	1048	1048	1045	1045	1045	1042	1042	1039	1039	1039	1036	1036	1033	1030	1026	1026	1023	1023	1020	1020	1020	1017	1014	1014	1011	1011	1008	1008	1006	1006	1006	1003	1003	1003	1000	997	997	997	994	994	991	988	985	985	983	983	983	983	983	980	980	977	974	974	974	974	974	972	972	972	969	969	966	966	966	0	0	0	0	0	0	0	0	0	0	0	0	0	0	0	0	0
0	0	0	0	0	0	0	0	0	0	0	0	0	0	0	0	0	0	0	0	0	0	0	0	0	1665	1657	1649	1649	1657	1657	1657	1657	1657	1657	1657	1665	1665	1657	1657	1665	1665	1657	1657	1657	1665	1665	1657	1657	1665	1665	1673	1681	1681	1673	1673	1673	1681	1673	1673	1673	1673	1681	1673	1673	1673	1673	1673	1673	1673	1673	1673	1673	1673	1673	1673	1681	1681	1681	1681	1681	1681	1681	1681	1690	1681	1681	1681	1681	1681	1681	1681	1681	1681	1681	1673	1673	1665	1665	1673	1681	1698	1698	1698	1706	1706	1706	1706	1706	1698	1698	1698	1698	1698	1690	1690	1690	1690	1690	1690	1690	1690	1698	1698	1698	1698	1698	1698	1706	1715	1715	1715	1673	1673	1690	1698	1698	1698	1698	1698	1698	1706	1706	1715	1706	1706	1706	1706	1706	1706	1706	1715	1723	1723	1723	1723	1723	1723	1723	1723	1723	1732	1732	1732	1732	1732	1732	1732	1732	1732	1732	1732	1732	1732	1732	1732	1723	1723	1723	1715	1715	1715	1715	1715	1723	1723	1741	1741	1741	1732	1732	1732	1732	1732	1723	1723	1715	1715	1715	1723	1723	1732	1732	1750	1759	1759	1750	1750	1750	1741	1741	1741	1741	1741	1741	1741	1741	1750	1750	1750	1750	1750	1750	1750	1750	1750	1750	1759	1759	1759	1759	1759	1759	1759	1768	1768	1768	1768	1759	1759	1759	1759	0	1506	1512	1512	1512	1512	1512	1512	1506	1499	1492	1492	1486	1486	1480	1473	1467	1467	1461	1461	1455	1449	1443	1443	1443	1437	1431	1431	1425	1419	1419	1419	1413	1407	1402	1396	1396	1390	1390	1385	1385	1379	1374	1374	1368	1363	1358	1358	1352	1352	1347	1342	1342	1336	1331	1331	1326	1326	1326	1321	1316	1316	1311	1311	1306	1306	1301	1296	1291	1291	1287	1287	1282	1277	1272	1272	1272	1268	1259	1259	1259	1254	1249	1249	1245	1240	1236	1236	1232	1232	1227	1227	1223	1223	1219	1219	1214	1214	1210	1206	1202	1202	1197	1193	1189	1189	1185	1185	1181	1181	1177	1173	1169	1165	1165	1161	1157	1157	1157	1153	1150	1150	1146	1142	1142	1138	1134	1134	1134	1134	1131	1127	1123	1116	1116	1116	1113	1113	1109	1109	1105	1102	1102	1098	1095	1091	1091	1088	1088	1085	1081	1078	1078	1078	1074	1074	1068	1064	1064	1061	1058	1058	1055	1055	1052	1052	1048	1048	1045	1045	1042	1039	1039	1036	1033	1033	1030	1026	1023	1023	1020	1017	1017	1017	1017	1017	1020	1023	1023	1023	1026	1026	1030	1030	1030	1030	1030	0	0	1263	1259	1259	1254	1254	1254	1249	1245	1240	1240	1236	1236	1232	1232	1227	1227	1227	1223	1223	1223	1223	1219	1219	1214	1214	1214	1210	1206	1206	1206	1202	1197	1197	1193	1193	1189	1189	1185	1185	1181	1177	1177	1177	1173	1173	1169	1169	1165	1165	1165	1161	1161	1157	1157	1157	1153	1150	1150	1146	1146	1146	1146	1142	1142	1142	1138	1134	1134	1131	1127	1127	1127	1123	1123	1120	1120	1116	1116	1113	1113	1109	1109	1105	1105	1102	1102	1102	1098	1098	1095	1091	1091	1091	1091	1088	1088	1085	1081	1078	1078	1074	1074	1071	1071	1071	1071	1068	1064	1061	1061	1058	1055	1055	1055	1052	1052	1048	1048	1048	1045	1045	1045	1042	1042	1042	1039	1036	1036	1036	1033	1030	1026	1023	1023	1023	1020	1020	1020	1017	1014	1014	1011	1011	1008	1008	1006	1006	1006	1003	1003	1003	1000	997	997	997	994	994	991	988	985	985	983	983	983	983	983	983	980	977	974	974	974	974	974	972	972	972	969	969	966	966	966	0	0	0	0	0	0	0	0	0	0	0	0	0	0	0	0	0
0	0	0	0	0	0	0	0	0	0	0	0	0	0	0	0	0	0	0	0	0	0	0	0	0	1618	1618	1626	1626	1634	1641	1649	1649	1649	1649	1649	1649	1649	1649	1649	1657	1657	1657	1657	1649	1649	1649	1649	1649	1649	1665	1665	1657	1657	1665	1665	1665	1673	1665	1665	1665	1665	1665	1665	1657	1665	1665	1649	1649	1665	1657	1657	1657	1665	1665	1665	1673	1673	1673	1673	1673	1673	1673	1673	1681	1673	1673	1673	1673	1673	1673	1665	1665	1665	1665	1657	1649	1649	1657	1657	1665	1673	1690	1690	1698	1698	1698	1690	1690	1690	1681	1681	1690	1690	1681	1681	1681	1681	1681	1681	1681	1681	1690	1690	1690	1690	1690	1698	1698	1681	1681	1681	1673	1673	1673	1673	1681	1681	1681	1681	1681	1690	1698	1698	1690	1690	1690	1698	1698	1698	1698	1706	1706	1706	1706	1706	1706	1715	1706	1706	1706	1723	1723	1723	1723	1723	1723	1715	1715	1715	1715	1715	1715	1715	1715	1715	1715	1715	1715	1706	1706	1706	1706	1706	1706	1715	1715	1715	1715	1715	1723	1723	1723	1723	1715	1715	1706	1706	1706	1706	1723	1732	1732	1732	1750	1732	1723	1723	1732	1732	1732	1732	1732	1732	1732	1732	1723	1732	1732	1732	1732	1741	1750	1741	1741	1741	1741	1750	1750	1750	1750	1750	1750	1759	1759	1759	1759	1759	1759	1759	1750	1750	1750	1512	1512	1512	1512	1512	1512	1512	1506	1499	1492	1492	1492	1486	1480	1480	1467	1467	1461	1461	1455	1449	1443	1443	1443	1437	1431	1431	1425	1419	1419	1419	1413	1407	1402	1396	1396	1390	1390	1385	1385	1379	1374	1374	1368	1363	1363	1358	1358	1352	1347	1347	1342	1342	1336	1331	1331	1326	1326	1321	1316	1316	1311	1311	1306	1306	1301	1296	1291	1287	1287	1282	1282	1277	1272	1272	1272	1268	1259	1259	1259	1254	1249	1249	1245	1240	1236	1236	1232	1232	1227	1227	1223	1223	1219	1219	1214	1210	1206	1206	1202	1197	1197	1193	1189	1185	1185	1181	1181	1181	1177	1173	1169	1165	1165	1161	1157	1157	1157	1153	1150	1146	1146	1142	1138	1138	1134	1134	1134	1134	1131	1131	1123	1120	1116	1116	1113	1113	1109	1105	1105	1102	1102	1098	1095	1091	1091	1091	1091	1085	1081	1078	1078	1078	1074	1074	1068	1064	1064	1061	1058	1058	1058	1055	1055	1052	1048	1048	1045	1045	1042	1039	1039	1036	1036	1033	1030	1026	1026	1023	1020	1017	1017	1017	1017	1017	1020	1023	1023	1023	1026	1026	1030	1030	1030	1030	1030	0	0	1263	1259	1259	1254	1254	1254	1254	1245	1240	1240	1236	1236	1232	1232	1227	1227	1227	1223	1223	1223	1219	1219	1219	1214	1214	1210	1210	1206	1206	1206	1202	1197	1197	1193	1193	1193	1189	1185	1185	1181	1177	1177	1177	1177	1173	1173	1169	1169	1165	1165	1161	1161	1157	1157	1157	1153	1150	1146	1146	1146	1146	1146	1142	1142	1142	1138	1134	1131	1131	1127	1127	1127	1123	1123	1120	1120	1116	1116	1113	1113	1109	1109	1105	1105	1102	1102	1102	1098	1098	1095	1091	1091	1091	1088	1088	1085	1085	1081	1081	1078	1074	1074	1071	1071	1071	1071	1068	1064	1061	1061	1058	1055	1055	1055	1052	1052	1048	1048	1048	1045	1045	1045	1045	1042	1042	1039	1036	1036	1036	1033	1030	1026	1023	1023	1023	1020	1020	1020	1020	1014	1014	1011	1011	1008	1008	1006	1006	1006	1003	1003	1000	1000	997	997	997	994	994	994	988	988	985	985	985	983	983	983	980	980	977	977	977	974	974	972	972	972	969	969	966	966	966	966	0	0	0	0	0	0	0	0	0	0	0	0	0	0	0	0	0
0	0	0	0	0	0	0	0	0	0	0	0	0	0	0	0	0	0	0	0	0	0	0	0	0	1618	1618	1618	1618	1618	1626	1634	1641	1641	1641	1641	1641	1641	1641	1649	1649	1649	1649	1649	1649	1641	1641	1641	1634	1634	1626	1626	1641	1649	1649	1657	1657	1665	1657	1657	1657	1657	1657	1649	1641	1641	1641	1641	1641	1649	1649	1649	1649	1649	1649	1657	1657	1657	1657	1665	1665	1665	1657	1657	1673	1673	1665	1665	1665	1673	1665	1657	1657	1657	1657	1649	1649	1649	1649	1649	1657	1657	1665	1665	1665	1641	1641	1641	1641	1641	1641	1649	1649	1649	1649	1649	1657	1657	1657	1665	1665	1673	1673	1681	1681	1681	1673	1673	1673	1673	1673	1665	1665	1665	1665	1673	1673	1673	1673	1673	1673	1681	1681	1673	1673	1673	1673	1681	1698	1681	1681	1690	1698	1706	1706	1698	1698	1690	1690	1690	1690	1698	1698	1698	1698	1706	1706	1706	1706	1698	1698	1698	1698	1698	1698	1698	1698	1698	1706	1706	1706	1706	1706	1706	1706	1706	1706	1706	1706	1706	1706	1706	1706	1706	1698	1698	1698	1698	1698	1698	1698	1698	1698	1723	1715	1690	1690	1690	1706	1715	1715	1715	1715	1715	1715	1706	1706	1706	1706	1706	1706	1706	1706	1706	1706	1706	1715	1723	1723	1723	1723	1723	1732	1723	1723	1723	1732	1732	1715	1715	1715	1715	1512	1512	1512	1512	1512	1512	1512	1512	1506	1499	1492	1492	1492	1486	1486	1480	1467	1467	1461	1461	1455	1449	1449	1443	1443	1437	1431	1431	1425	1419	1419	1413	1413	1407	1402	1402	1396	1396	1390	1390	1385	1379	1374	1374	1368	1368	1363	1363	1358	1352	1347	1347	1342	1342	1336	1331	1331	1326	1326	1316	1316	1316	1311	1311	1311	1306	1301	1301	1291	1287	1287	1287	1282	1277	1272	1272	1272	1268	1259	1259	1254	1254	1249	1249	1245	1240	1236	1236	1232	1232	1227	1227	1223	1223	1219	1214	1214	1210	1206	1206	1202	1197	1197	1193	1189	1185	1185	1181	1181	1181	1177	1177	1173	1169	1165	1165	1161	1157	1157	1153	1150	1146	1146	1142	1142	1138	1134	1134	1134	1134	1131	1131	1123	1120	1116	1116	1113	1113	1109	1105	1105	1102	1102	1098	1095	1091	1091	1091	1088	1085	1081	1078	1078	1074	1074	1074	1071	1068	1064	1061	1058	1058	1058	1055	1055	1052	1048	1048	1045	1045	1042	1042	1039	1036	1033	1030	1030	1026	1026	1023	1020	1017	1017	1017	1017	1017	1020	1023	1023	1026	1026	1026	1030	1030	1030	1030	1030	0	0	1263	1259	1259	1259	1259	1254	1254	1245	1240	1240	1240	1236	1236	1232	1232	1227	1227	1223	1223	1223	1219	1219	1219	1214	1214	1210	1210	1206	1206	1206	1202	1202	1197	1193	1193	1189	1189	1189	1185	1181	1181	1177	1177	1177	1173	1173	1169	1169	1165	1165	1161	1161	1157	1157	1157	1153	1150	1146	1146	1146	1146	1146	1142	1142	1142	1138	1134	1131	1131	1127	1127	1127	1123	1123	1123	1120	1116	1116	1113	1113	1109	1109	1105	1105	1102	1102	1102	1102	1098	1095	1091	1091	1091	1088	1088	1085	1085	1081	1081	1078	1074	1074	1074	1071	1071	1068	1064	1061	1061	1061	1058	1055	1055	1055	1055	1052	1052	1052	1052	1048	1045	1045	1045	1042	1042	1039	1039	1036	1036	1033	1030	1026	1026	1023	1023	1020	1020	1020	1017	1011	1011	1011	1008	1008	1008	1006	1006	1006	1003	1003	1000	1000	997	997	997	994	994	994	991	988	985	985	985	983	983	983	983	980	980	977	977	974	974	972	972	972	969	969	966	966	966	966	0	0	0	0	0	0	0	0	0	0	0	0	0	0	0	0	0
0	0	0	0	0	0	0	0	0	0	0	0	0	0	0	0	0	0	0	0	0	0	0	0	0	1611	1611	1611	1611	1611	1611	1618	1626	1626	1626	1634	1634	1634	1634	1634	1641	1641	1641	1641	1634	1626	1626	1626	1626	1626	1618	1618	1626	1634	1634	1634	1641	1641	1649	1641	1641	1641	1611	1611	1618	1626	1626	1626	1634	1634	1634	1634	1634	1634	1634	1634	1626	1618	1618	1618	1618	1618	1626	1634	1634	1641	1657	1657	1657	1657	1657	1649	1649	1649	1649	1641	1641	1641	1641	1641	1641	1641	1641	1641	1641	1641	1641	1641	1634	1634	1634	1634	1634	1634	1641	1641	1641	1641	1641	1649	1649	1657	1665	1665	1673	1665	1665	1657	1657	1665	1665	1657	1657	1657	1657	1657	1665	1665	1665	1665	1665	1673	1665	1657	1657	1657	1657	1665	1665	1665	1665	1681	1681	1690	1681	1673	1673	1673	1673	1673	1673	1673	1673	1673	1681	1681	1698	1690	1690	1690	1690	1690	1681	1681	1681	1681	1681	1681	1690	1690	1690	1690	1690	1690	1690	1690	1690	1690	1690	1690	1690	1681	1673	1673	1665	1665	1665	1673	1673	1673	1673	1673	1665	1665	1673	1673	1673	1681	1690	1690	1706	1706	1706	1706	1706	1698	1698	1698	1698	1698	1698	1698	1698	1698	1698	1698	1706	1706	1706	1706	1706	1715	1715	1698	1698	1698	1698	1698	1698	1698	1698	1698	1512	1512	1519	1519	1512	1512	1512	1512	1506	1499	1492	1492	1492	1486	1486	1480	1473	1467	1461	1461	1455	1455	1449	1443	1443	1437	1431	1431	1425	1419	1419	1413	1413	1407	1402	1402	1396	1396	1390	1390	1385	1379	1374	1374	1368	1368	1363	1363	1363	1358	1347	1347	1347	1342	1336	1331	1331	1326	1321	1316	1316	1316	1311	1311	1311	1306	1301	1296	1291	1287	1287	1287	1282	1277	1277	1272	1272	1268	1263	1259	1259	1254	1249	1249	1245	1236	1236	1236	1232	1232	1232	1227	1223	1223	1219	1219	1214	1210	1206	1206	1202	1197	1197	1193	1189	1185	1185	1181	1181	1181	1177	1177	1173	1169	1165	1165	1161	1157	1153	1153	1150	1146	1146	1142	1142	1138	1134	1134	1134	1131	1131	1131	1123	1120	1116	1116	1113	1113	1109	1105	1105	1102	1102	1098	1095	1091	1091	1091	1088	1085	1078	1078	1078	1078	1078	1074	1071	1068	1064	1061	1058	1058	1058	1058	1055	1052	1052	1048	1045	1045	1042	1039	1039	1036	1033	1030	1030	1026	1026	1023	1020	1017	1017	1017	1017	1017	1020	1020	1023	1023	1026	1026	1030	1030	1030	1030	1030	0	0	1263	1263	1259	1259	1259	1254	1254	1245	1240	1240	1240	1236	1236	1236	1232	1227	1227	1223	1223	1223	1219	1219	1219	1214	1214	1210	1210	1206	1206	1206	1202	1197	1197	1193	1193	1189	1189	1189	1185	1181	1181	1177	1177	1177	1173	1173	1169	1169	1165	1165	1161	1161	1157	1157	1157	1153	1150	1146	1146	1146	1146	1146	1142	1142	1142	1138	1134	1131	1131	1131	1127	1127	1123	1123	1123	1120	1116	1116	1116	1113	1109	1109	1109	1105	1102	1102	1102	1102	1098	1098	1095	1091	1091	1088	1088	1085	1085	1081	1081	1078	1078	1074	1074	1071	1071	1068	1064	1061	1061	1061	1058	1055	1055	1055	1055	1052	1052	1052	1052	1048	1045	1045	1045	1042	1042	1039	1039	1036	1036	1033	1030	1030	1023	1023	1023	1023	1020	1020	1017	1011	1011	1011	1008	1008	1008	1006	1006	1006	1003	1003	1000	1000	997	997	997	994	994	994	991	988	988	985	985	985	983	983	980	980	977	977	974	974	974	972	972	969	969	966	966	966	966	966	0	0	0	0	0	0	0	0	0	0	0	0	0	0	0	0	0
0	0	0	0	0	0	0	0	0	0	0	0	0	0	0	0	0	0	0	0	0	0	0	0	0	1603	1603	1603	1603	1603	1603	1618	1618	1626	1626	1626	1626	1626	1626	1634	1641	1641	1641	1626	1626	1618	1618	1618	1618	1618	1618	1618	1618	1626	1618	1618	1611	1611	1649	1596	1596	1603	1603	1603	1603	1611	1603	1603	1618	1626	1626	1626	1626	1626	1618	1618	1611	1611	1611	1611	1611	1611	1611	1618	1618	1618	1626	1634	1634	1641	1641	1641	1641	1641	1641	1634	1634	1626	1626	1626	1626	1626	1634	1634	1634	1634	1634	1634	1626	1626	1626	1626	1634	1634	1634	1634	1634	1634	1641	1641	1641	1649	1649	1657	1657	1657	1657	1649	1649	1649	1657	1649	1649	1649	1649	1649	1657	1657	1657	1657	1657	1649	1649	1641	1641	1649	1649	1634	1634	1641	1649	1657	1649	1649	1649	1649	1649	1649	1649	1641	1641	1649	1649	1649	1649	1649	1649	1673	1673	1673	1673	1673	1673	1673	1673	1681	1673	1673	1681	1681	1681	1681	1681	1690	1681	1681	1690	1690	1690	1681	1681	1665	1665	1657	1657	1657	1665	1665	1665	1665	1665	1665	1665	1665	1665	1665	1665	1673	1673	1673	1681	1690	1698	1690	1690	1690	1690	1690	1690	1690	1690	1690	1690	1690	1690	1690	1690	1681	1681	1681	1681	1698	1690	1690	1690	1690	1690	1690	1690	1690	1690	1690	1512	1512	1519	1519	1512	1512	1512	1512	1506	1499	1492	1492	1492	1486	1486	1480	1473	1467	1461	1461	1455	1455	1449	1443	1443	1437	1431	1425	1419	1419	1419	1413	1413	1407	1407	1402	1396	1396	1390	1385	1385	1379	1374	1374	1374	1368	1368	1363	1363	1358	1347	1347	1342	1342	1336	1331	1331	1326	1321	1316	1316	1316	1311	1311	1311	1306	1301	1296	1291	1291	1287	1287	1282	1282	1277	1272	1272	1268	1263	1263	1259	1254	1249	1249	1245	1236	1236	1236	1232	1232	1232	1227	1223	1223	1219	1219	1214	1210	1206	1206	1202	1197	1197	1193	1189	1185	1185	1181	1181	1181	1177	1177	1173	1169	1165	1165	1157	1157	1153	1150	1150	1146	1146	1142	1142	1138	1134	1134	1131	1131	1131	1127	1123	1120	1120	1116	1113	1113	1109	1105	1105	1102	1102	1098	1095	1091	1091	1091	1088	1085	1078	1078	1078	1078	1078	1074	1071	1068	1064	1061	1061	1061	1061	1058	1055	1055	1052	1048	1045	1045	1042	1039	1039	1036	1033	1030	1030	1026	1026	1023	1020	1020	1017	1017	1017	1020	1023	1023	1026	1026	1030	1030	1033	1030	1033	1033	1033	0	1263	1263	1263	1263	1259	1259	1254	1254	1245	1245	1240	1240	1236	1236	1236	1236	1227	1227	1223	1223	1223	1219	1219	1219	1214	1214	1210	1210	1206	1206	1206	1202	1197	1197	1193	1193	1189	1189	1189	1185	1185	1181	1177	1177	1177	1173	1173	1169	1169	1165	1165	1161	1161	1161	1157	1157	1153	1150	1146	1146	1146	1146	1146	1142	1142	1142	1138	1134	1134	1131	1131	1127	1127	1123	1123	1120	1120	1116	1116	1116	1113	1113	1109	1109	1105	1105	1102	1102	1102	1098	1095	1095	1091	1091	1088	1088	1085	1085	1081	1081	1078	1078	1074	1074	1074	1071	1071	1068	1061	1061	1061	1058	1055	1055	1055	1055	1052	1052	1052	1048	1048	1048	1045	1045	1042	1042	1042	1039	1036	1036	1033	1030	1030	1023	1023	1023	1023	1020	1020	1017	1014	1011	1011	1008	1008	1008	1006	1006	1006	1003	1003	1000	1000	997	997	994	994	994	994	991	988	988	985	985	985	983	983	980	980	977	974	974	972	972	972	972	969	969	966	966	966	966	966	0	0	0	0	0	0	0	0	0	0	0	0	0	0	0	0	0
0	0	0	0	0	0	0	0	0	0	0	0	0	0	0	0	0	0	0	0	0	0	0	0	0	1589	1589	1589	1589	1589	1596	1603	1611	1611	1611	1618	1618	1611	1611	1611	1611	1560	1611	1611	1611	1611	1611	1611	1611	1611	1611	1611	1611	1618	1611	1603	1596	1596	1581	1581	1581	1589	1589	1589	1589	1589	1589	1589	1589	1589	1603	1611	1618	1611	1611	1611	1611	1611	1611	1603	1603	1611	1611	1611	1611	1611	1611	1611	1611	1618	1626	1626	1626	1626	1626	1626	1618	1618	1618	1618	1618	1626	1626	1618	1618	1618	1618	1618	1618	1618	1618	1618	1618	1618	1618	1626	1626	1626	1634	1634	1634	1641	1641	1649	1649	1634	1634	1634	1618	1618	1611	1611	1618	1618	1618	1618	1618	1626	1626	1634	1634	1626	1626	1626	1626	1626	1626	1626	1626	1626	1634	1634	1634	1634	1641	1641	1641	1634	1634	1634	1634	1634	1634	1641	1641	1641	1641	1649	1649	1649	1649	1649	1649	1657	1657	1665	1665	1665	1665	1673	1673	1673	1673	1681	1673	1673	1673	1673	1673	1665	1665	1657	1657	1649	1649	1657	1657	1657	1657	1657	1657	1657	1657	1657	1657	1657	1657	1657	1657	1657	1665	1673	1673	1673	1673	1681	1681	1681	1681	1673	1673	1673	1673	1673	1673	1673	1673	1673	1673	1673	1673	1665	1665	1673	1673	1681	1681	1681	1681	1681	1690	1690	1681	1519	1519	1519	1512	1512	1512	1512	1506	1499	1492	1492	1492	1486	1486	1480	1473	1467	1461	1461	1455	1455	1449	1443	1443	1437	1431	1425	1419	1419	1419	1413	1413	1407	1407	1402	1402	1396	1390	1385	1385	1379	1374	1374	1374	1368	1368	1363	1363	1358	1347	1347	1342	1342	1336	1331	1331	1326	1321	1316	1316	1316	1311	1311	1311	1306	1301	1296	1291	1291	1287	1287	1282	1282	1277	1272	1272	1268	1263	1263	1259	1254	1249	1249	1245	1236	1236	1236	1232	1232	1232	1227	1223	1223	1223	1219	1214	1210	1206	1206	1202	1197	1197	1193	1189	1185	1185	1181	1181	1181	1177	1177	1173	1169	1165	1165	1157	1157	1153	1150	1150	1150	1146	1146	1142	1138	1134	1134	1131	1131	1131	1127	1123	1120	1120	1116	1113	1113	1109	1105	1105	1102	1102	1098	1098	1095	1091	1088	1088	1081	1078	1078	1078	1078	1078	1074	1071	1068	1064	1064	1061	1061	1061	1058	1055	1055	1052	1048	1042	1042	1042	1039	1039	1036	1033	1030	1030	1026	1026	1023	1023	1020	1020	1020	1020	1023	1023	1023	1026	1030	1030	1033	1033	1033	1033	1036	1036	0	1263	1263	1263	1263	1259	1259	1259	1254	1249	1245	1240	1240	1240	1236	1236	1232	1227	1227	1227	1223	1223	1223	1219	1219	1214	1210	1210	1210	1206	1206	1206	1206	1202	1197	1193	1193	1189	1189	1189	1185	1185	1177	1177	1177	1177	1173	1173	1173	1169	1165	1165	1161	1161	1161	1157	1157	1153	1150	1146	1146	1146	1146	1146	1142	1142	1142	1138	1134	1134	1131	1131	1127	1127	1123	1123	1120	1120	1116	1116	1113	1113	1113	1109	1109	1105	1105	1102	1102	1098	1098	1095	1091	1091	1091	1088	1088	1085	1085	1081	1081	1078	1078	1074	1074	1074	1071	1071	1068	1061	1061	1061	1058	1052	1052	1055	1055	1052	1052	1052	1048	1048	1048	1045	1045	1045	1042	1042	1036	1036	1036	1033	1033	1030	1026	1023	1023	1023	1020	1020	1020	1014	1011	1011	1011	1008	1008	1008	1006	1006	1003	1000	1000	997	997	994	994	994	994	994	991	988	988	985	985	985	983	983	980	977	977	974	974	972	972	972	972	969	969	966	966	966	966	966	0	0	0	0	0	0	0	0	0	0	0	0	0	0	0	0	0
0	0	0	0	0	0	0	0	0	0	0	0	0	0	0	0	0	0	0	0	0	0	0	0	0	1581	1581	1581	1581	1581	1581	1581	1581	1581	1596	1603	1603	1596	1596	1596	1560	1560	1560	1589	1589	1589	1589	1589	1589	1596	1596	1596	1596	1596	1589	1581	1581	1581	1574	1574	1574	1581	1581	1589	1589	1581	1581	1581	1581	1581	1581	1581	1589	1596	1596	1603	1603	1603	1603	1603	1603	1603	1603	1603	1603	1596	1596	1596	1596	1596	1603	1611	1611	1611	1611	1618	1611	1611	1611	1611	1611	1618	1618	1618	1618	1618	1618	1603	1603	1603	1603	1603	1603	1603	1603	1603	1603	1611	1611	1611	1611	1611	1611	1611	1611	1611	1611	1611	1603	1603	1603	1603	1611	1611	1603	1603	1603	1611	1611	1618	1611	1618	1618	1626	1626	1618	1618	1618	1618	1618	1626	1626	1626	1626	1626	1626	1626	1626	1626	1626	1626	1618	1618	1626	1634	1626	1626	1626	1634	1634	1634	1634	1641	1641	1649	1649	1649	1649	1649	1657	1657	1665	1665	1673	1665	1665	1665	1665	1665	1657	1649	1649	1641	1641	1641	1641	1649	1649	1649	1649	1649	1649	1649	1649	1649	1649	1657	1657	1649	1649	1657	1657	1657	1657	1657	1657	1665	1665	1665	1665	1665	1665	1665	1665	1665	1665	1665	1665	1665	1665	1665	1665	1665	1665	1665	1665	1673	1673	1673	1673	1681	1681	1681	1519	1519	1519	1512	1512	1512	1512	1506	1499	1492	1492	1492	1486	1486	1480	1473	1467	1461	1461	1455	1455	1449	1443	1443	1437	1431	1425	1419	1419	1419	1413	1413	1413	1407	1407	1402	1396	1396	1390	1385	1379	1374	1374	1374	1368	1368	1363	1363	1358	1347	1347	1342	1342	1336	1331	1326	1321	1316	1316	1316	1311	1311	1311	1311	1306	1301	1296	1291	1291	1287	1287	1282	1282	1277	1272	1272	1268	1263	1259	1259	1254	1249	1249	1245	1240	1240	1236	1236	1232	1232	1227	1227	1223	1223	1219	1214	1210	1210	1206	1202	1197	1197	1193	1189	1189	1185	1181	1181	1181	1177	1177	1173	1169	1165	1165	1157	1157	1153	1150	1150	1150	1146	1146	1142	1138	1134	1134	1131	1131	1131	1127	1123	1120	1120	1116	1116	1113	1109	1105	1105	1102	1102	1098	1098	1095	1091	1088	1088	1081	1078	1078	1078	1078	1074	1074	1071	1068	1064	1064	1061	1061	1061	1058	1055	1055	1052	1048	1042	1042	1042	1039	1039	1036	1033	1030	1030	1026	1026	1023	1023	1020	1020	1020	1020	1023	1023	1023	1026	1030	1030	1033	1033	1033	1036	1036	1036	0	1263	1259	1259	1263	1259	1259	1254	1254	1249	1245	1240	1240	1240	1236	1236	1232	1227	1227	1227	1223	1223	1219	1219	1214	1214	1210	1210	1210	1206	1206	1206	1206	1202	1197	1193	1193	1189	1189	1189	1185	1181	1177	1177	1177	1177	1173	1173	1173	1169	1169	1165	1161	1161	1157	1157	1157	1153	1150	1150	1146	1146	1146	1146	1142	1142	1142	1138	1134	1134	1131	1131	1127	1127	1123	1123	1120	1120	1116	1116	1113	1113	1109	1109	1105	1105	1102	1102	1102	1098	1098	1095	1091	1091	1091	1088	1088	1085	1085	1081	1081	1081	1078	1074	1074	1074	1071	1071	1068	1061	1061	1061	1058	1052	1052	1055	1055	1052	1052	1052	1048	1048	1048	1048	1045	1045	1042	1042	1036	1036	1036	1033	1033	1033	1026	1026	1026	1023	1023	1020	1017	1014	1011	1011	1008	1008	1008	1008	1008	1006	1003	1000	1000	997	997	994	994	994	994	991	991	991	988	985	985	985	983	983	980	977	977	974	974	974	974	972	972	972	969	969	966	966	969	969	0	0	0	0	0	0	0	0	0	0	0	0	0	0	0	0	0
0	0	0	0	0	0	0	0	0	0	0	0	0	0	0	0	0	0	0	0	0	0	0	0	0	1574	1574	1574	1567	1567	1567	1567	1567	1567	1574	1581	1581	1581	1581	1581	1560	1560	1560	1560	1560	1567	1567	1574	1574	1589	1589	1589	1581	1581	1581	1574	1574	1574	1567	1567	1567	1574	1574	1581	1581	1574	1574	1574	1574	1574	1581	1581	1581	1589	1596	1596	1596	1596	1603	1603	1603	1596	1596	1596	1589	1589	1589	1589	1581	1581	1581	1581	1581	1596	1589	1589	1589	1589	1589	1596	1589	1589	1596	1596	1603	1603	1603	1596	1596	1596	1596	1596	1596	1596	1603	1603	1603	1596	1596	1603	1603	1596	1596	1596	1596	1589	1589	1589	1589	1589	1589	1589	1596	1596	1596	1596	1596	1603	1611	1611	1603	1603	1611	1618	1611	1611	1611	1611	1611	1611	1611	1611	1611	1618	1618	1618	1618	1611	1611	1618	1618	1618	1618	1618	1618	1618	1618	1618	1618	1618	1611	1611	1618	1626	1634	1634	1634	1641	1641	1634	1634	1634	1665	1641	1641	1649	1649	1641	1641	1634	1626	1626	1626	1618	1618	1626	1634	1634	1634	1634	1634	1641	1641	1641	1641	1641	1634	1634	1634	1634	1641	1641	1641	1641	1641	1641	1649	1649	1649	1649	1649	1649	1641	1641	1649	1649	1649	1649	1649	1657	1657	1657	1657	1657	1657	1657	1665	1665	1657	1657	1681	1681	1681	1519	1519	1519	1512	1512	1512	1512	1506	1499	1492	1492	1492	1486	1486	1480	1473	1467	1461	1461	1455	1455	1449	1443	1443	1443	1437	1425	1425	1419	1419	1419	1413	1413	1413	1407	1407	1396	1396	1390	1385	1379	1379	1374	1374	1368	1363	1363	1358	1358	1352	1347	1342	1342	1336	1331	1326	1321	1316	1316	1316	1311	1311	1311	1311	1306	1301	1296	1296	1291	1291	1287	1282	1282	1277	1272	1272	1268	1263	1259	1259	1254	1249	1245	1245	1240	1240	1240	1236	1232	1232	1232	1227	1223	1223	1219	1214	1210	1210	1206	1202	1197	1197	1193	1193	1189	1185	1181	1181	1181	1177	1177	1173	1169	1165	1165	1161	1157	1153	1150	1150	1150	1146	1146	1142	1138	1134	1134	1131	1131	1131	1127	1123	1123	1120	1116	1116	1113	1109	1105	1105	1102	1102	1102	1098	1095	1091	1091	1088	1085	1078	1078	1078	1078	1074	1074	1071	1071	1068	1064	1061	1061	1061	1058	1055	1055	1052	1048	1042	1042	1042	1039	1039	1036	1033	1033	1030	1026	1026	1023	1023	1023	1020	1020	1023	1023	1026	1026	1026	1030	1033	1033	1036	1036	1036	1036	1036	0	1263	1259	1259	1263	1259	1259	1254	1254	1249	1245	1240	1240	1240	1240	1236	1232	1227	1227	1227	1223	1223	1219	1219	1214	1214	1210	1210	1210	1206	1206	1206	1206	1202	1197	1193	1193	1189	1189	1189	1185	1181	1181	1177	1177	1177	1173	1173	1173	1169	1169	1165	1161	1161	1161	1157	1157	1153	1150	1150	1146	1146	1146	1146	1142	1142	1142	1138	1134	1134	1131	1131	1127	1127	1123	1123	1120	1120	1116	1116	1113	1113	1113	1109	1105	1105	1102	1102	1102	1098	1095	1095	1091	1091	1088	1088	1088	1085	1085	1081	1081	1081	1078	1074	1074	1074	1071	1071	1068	1064	1061	1061	1058	1055	1055	1055	1055	1052	1052	1052	1048	1048	1048	1048	1045	1045	1045	1042	1039	1036	1036	1033	1033	1033	1026	1026	1026	1023	1023	1020	1017	1014	1011	1011	1008	1008	1008	1008	1008	1006	1006	1003	1000	997	997	994	994	994	994	991	991	991	988	985	985	985	983	983	983	980	977	977	974	974	974	972	972	972	969	969	969	969	969	969	0	0	0	0	0	0	0	0	0	0	0	0	0	0	0	0	0
0	0	0	0	0	0	0	0	0	0	0	0	0	0	0	0	0	0	0	0	0	0	0	0	0	1560	1560	1560	1560	1560	1560	1560	1560	1560	1567	1567	1567	1574	1574	1560	1560	1553	1553	1553	1553	1560	1560	1560	1560	1567	1567	1574	1574	1574	1574	1567	1567	1567	1560	1560	1560	1567	1567	1574	1574	1567	1567	1567	1567	1567	1574	1574	1574	1574	1574	1581	1589	1589	1589	1589	1589	1589	1581	1581	1574	1574	1574	1574	1574	1574	1574	1574	1574	1574	1574	1574	1574	1574	1581	1581	1581	1581	1581	1581	1589	1589	1589	1589	1581	1581	1589	1589	1589	1589	1589	1596	1589	1589	1589	1589	1589	1589	1589	1589	1581	1581	1581	1581	1574	1574	1581	1581	1589	1589	1581	1581	1589	1589	1596	1596	1596	1596	1603	1603	1603	1603	1603	1603	1603	1603	1603	1603	1603	1596	1596	1603	1603	1603	1603	1611	1611	1611	1611	1611	1611	1603	1603	1603	1603	1611	1603	1603	1611	1618	1618	1618	1626	1618	1618	1611	1611	1611	1611	1603	1603	1611	1626	1626	1626	1618	1618	1618	1618	1611	1611	1618	1626	1626	1626	1626	1626	1634	1626	1626	1626	1626	1634	1634	1626	1626	1626	1626	1626	1626	1626	1634	1634	1634	1634	1634	1641	1634	1634	1634	1641	1641	1641	1641	1641	1649	1649	1649	1649	1649	1649	1649	1649	1618	1618	1611	1611	1611	1611	1519	1519	1519	1519	1512	1512	1512	1506	1499	1492	1492	1486	1486	1486	1480	1473	1467	1467	1461	1461	1455	1455	1449	1449	1443	1437	1431	1425	1419	1419	1419	1413	1413	1413	1407	1407	1402	1396	1390	1385	1385	1379	1374	1368	1368	1363	1363	1358	1352	1352	1347	1342	1342	1336	1331	1326	1321	1316	1316	1316	1311	1311	1311	1311	1306	1301	1296	1296	1291	1291	1287	1282	1282	1277	1272	1272	1268	1263	1259	1254	1254	1249	1245	1245	1240	1240	1240	1236	1232	1232	1232	1227	1227	1223	1219	1214	1210	1210	1206	1202	1197	1197	1193	1193	1189	1185	1181	1181	1181	1177	1177	1173	1169	1165	1165	1161	1157	1153	1150	1150	1150	1146	1146	1146	1142	1134	1134	1131	1131	1131	1127	1123	1123	1120	1116	1113	1109	1109	1105	1105	1102	1102	1102	1098	1095	1091	1091	1088	1085	1078	1078	1078	1078	1078	1074	1074	1071	1068	1064	1061	1061	1061	1058	1055	1052	1052	1048	1045	1045	1042	1039	1039	1036	1033	1033	1030	1026	1023	1023	1023	1023	1023	1023	1023	1023	1026	1026	1030	1030	1033	1033	1036	1036	1036	1036	1039	1039	1263	1263	1263	1263	1259	1259	1259	1254	1249	1245	1240	1240	1240	1236	1236	1232	1227	1227	1223	1223	1223	1219	1219	1214	1214	1210	1210	1210	1206	1206	1206	1202	1202	1197	1193	1193	1189	1189	1189	1189	1185	1181	1177	1177	1173	1173	1173	1169	1169	1169	1165	1161	1161	1157	1157	1157	1153	1153	1150	1150	1146	1146	1146	1142	1142	1142	1138	1134	1134	1131	1131	1127	1127	1123	1123	1120	1120	1116	1116	1116	1113	1113	1109	1109	1105	1105	1102	1102	1098	1095	1095	1091	1091	1088	1088	1088	1085	1085	1081	1081	1078	1078	1074	1074	1074	1071	1071	1068	1064	1061	1061	1058	1058	1055	1058	1055	1055	1055	1052	1048	1048	1048	1048	1045	1045	1042	1042	1039	1036	1036	1036	1033	1033	1030	1026	1026	1023	1023	1020	1017	1014	1011	1011	1008	1008	1008	1008	1008	1006	1006	1003	1000	997	997	997	994	994	991	991	991	991	988	985	985	985	985	983	983	980	977	977	974	974	974	972	972	972	969	966	966	969	969	969	0	0	0	0	0	0	0	0	0	0	0	0	0	0	0	0	0
0	0	0	0	0	0	0	0	0	0	0	0	0	0	0	0	0	0	0	0	0	0	0	0	0	1560	1546	1546	1553	1553	1553	1553	1553	1560	1560	1560	1560	1560	1553	1553	1553	1546	1546	1546	1546	1546	1546	1546	1546	1546	1546	1560	1553	1553	1567	1560	1560	1560	1553	1553	1560	1553	1553	1553	1560	1560	1560	1560	1553	1553	1553	1553	1553	1553	1553	1567	1589	1589	1589	1589	1589	1589	1574	1567	1567	1567	1567	1567	1567	1567	1567	1567	1567	1567	1567	1567	1567	1567	1574	1574	1574	1567	1567	1574	1574	1574	1574	1574	1574	1574	1581	1574	1574	1581	1581	1589	1581	1581	1581	1581	1581	1581	1574	1574	1574	1574	1574	1567	1567	1567	1574	1574	1574	1574	1574	1574	1581	1581	1596	1589	1581	1581	1596	1596	1589	1589	1589	1589	1581	1581	1589	1589	1589	1589	1589	1596	1603	1596	1603	1603	1603	1603	1603	1603	1603	1596	1596	1596	1603	1596	1596	1596	1603	1611	1611	1611	1611	1611	1611	1603	1603	1603	1603	1596	1596	1611	1611	1611	1611	1603	1603	1603	1603	1603	1603	1603	1611	1618	1618	1626	1626	1626	1626	1618	1618	1618	1626	1618	1618	1611	1611	1611	1611	1611	1611	1618	1611	1611	1618	1626	1626	1618	1618	1626	1634	1626	1626	1626	1626	1634	1634	1634	1626	1626	1626	1634	1626	1611	1611	1611	1611	1611	1611	1618	1519	1519	1519	1512	1512	1512	1506	1499	1492	1492	1486	1486	1486	1480	1473	1467	1467	1461	1461	1455	1455	1449	1449	1443	1437	1431	1425	1419	1419	1419	1413	1413	1413	1407	1402	1402	1396	1390	1385	1385	1379	1374	1368	1368	1363	1363	1358	1352	1352	1347	1347	1342	1336	1331	1326	1326	1321	1316	1316	1311	1311	1311	1311	1306	1301	1296	1296	1291	1291	1287	1282	1282	1277	1272	1272	1268	1263	1259	1254	1254	1249	1249	1245	1240	1240	1240	1236	1232	1232	1227	1227	1227	1223	1219	1214	1210	1210	1206	1202	1197	1197	1193	1193	1189	1185	1181	1181	1181	1177	1177	1173	1169	1165	1165	1161	1157	1153	1150	1150	1150	1146	1146	1146	1142	1138	1134	1134	1131	1131	1127	1123	1120	1120	1116	1113	1109	1109	1105	1105	1102	1102	1102	1098	1095	1091	1091	1088	1088	1081	1078	1078	1078	1078	1074	1074	1071	1068	1064	1061	1061	1061	1058	1055	1052	1052	1048	1045	1045	1042	1039	1039	1036	1036	1033	1026	1026	1023	1023	1023	1023	1023	1023	1023	1023	1026	1026	1026	1030	1033	1036	1036	1036	1036	1036	1039	1039	1263	1263	1263	1263	1259	1259	1259	1254	1249	1245	1240	1240	1240	1236	1236	1232	1227	1227	1223	1223	1223	1219	1219	1214	1214	1210	1210	1210	1206	1206	1206	1202	1202	1197	1193	1193	1193	1189	1189	1189	1185	1181	1177	1177	1173	1173	1173	1169	1169	1169	1165	1161	1161	1157	1157	1157	1157	1153	1150	1150	1150	1146	1146	1142	1142	1142	1138	1134	1134	1131	1131	1127	1127	1123	1123	1120	1120	1116	1116	1116	1113	1113	1109	1109	1105	1105	1102	1102	1098	1098	1095	1095	1091	1088	1088	1088	1088	1085	1081	1078	1078	1074	1074	1074	1074	1074	1071	1071	1068	1068	1064	1061	1058	1058	1058	1058	1055	1055	1052	1048	1048	1048	1045	1045	1045	1042	1039	1036	1036	1036	1036	1033	1033	1030	1030	1026	1023	1023	1020	1017	1014	1011	1011	1008	1008	1008	1008	1006	1006	1006	1003	1000	997	997	997	994	994	991	991	991	991	988	985	985	985	985	983	983	980	977	977	974	974	974	972	972	972	969	966	966	969	969	969	0	0	0	0	0	0	0	0	0	0	0	0	0	0	0	0	0
0	0	0	0	0	0	0	0	0	0	0	0	0	0	0	0	0	0	0	0	0	0	0	0	0	0	1539	1539	1539	1546	1546	1546	1546	1553	1539	1539	1546	1539	1532	1532	1539	1539	1539	1532	1532	1539	1539	1539	1532	1525	1532	1532	1539	1539	1553	1553	1553	1553	1546	1546	1546	1546	1546	1546	1553	1553	1553	1546	1546	1546	1539	1532	1532	1539	1539	1546	1546	1546	1546	1519	1553	1553	1553	1553	1553	1553	1553	1553	1560	1560	1560	1560	1560	1560	1560	1553	1553	1553	1560	1560	1560	1560	1560	1560	1560	1560	1560	1560	1567	1567	1574	1574	1574	1574	1574	1581	1567	1567	1567	1567	1567	1574	1567	1567	1567	1567	1567	1560	1560	1560	1560	1567	1560	1560	1567	1567	1560	1560	1567	1567	1567	1567	1574	1574	1574	1581	1581	1574	1574	1574	1581	1581	1581	1581	1581	1589	1589	1589	1596	1596	1596	1596	1596	1596	1581	1581	1581	1589	1596	1589	1589	1589	1596	1596	1596	1596	1603	1603	1603	1603	1603	1603	1589	1589	1589	1596	1596	1596	1596	1596	1596	1596	1596	1596	1596	1596	1603	1603	1603	1611	1611	1618	1618	1611	1611	1611	1611	1603	1603	1603	1596	1596	1603	1603	1603	1603	1596	1596	1603	1611	1611	1611	1611	1611	1611	1611	1603	1603	1603	1611	1603	1603	1611	1611	1611	1618	1626	1611	1611	1603	1603	1603	1603	1611	1519	1519	1519	1512	1512	1512	1506	1499	1492	1492	1486	1486	1486	1480	1473	1467	1461	1461	1461	1455	1455	1449	1449	1443	1437	1431	1425	1425	1419	1419	1413	1413	1413	1407	1402	1396	1396	1390	1385	1385	1379	1374	1368	1368	1363	1363	1358	1352	1352	1347	1347	1342	1336	1331	1331	1326	1326	1321	1316	1316	1311	1311	1306	1306	1301	1296	1296	1291	1291	1287	1282	1282	1277	1272	1272	1268	1263	1263	1259	1254	1249	1249	1245	1240	1240	1236	1232	1232	1232	1227	1227	1227	1223	1219	1214	1214	1210	1206	1202	1197	1197	1193	1193	1189	1189	1181	1181	1181	1181	1177	1173	1169	1169	1165	1161	1157	1153	1150	1150	1150	1146	1146	1146	1142	1138	1138	1134	1131	1131	1127	1123	1120	1120	1116	1113	1113	1109	1105	1105	1105	1102	1102	1098	1095	1091	1091	1088	1085	1081	1081	1078	1078	1074	1074	1074	1071	1068	1064	1061	1061	1061	1058	1055	1055	1052	1048	1045	1045	1042	1039	1039	1036	1036	1033	1026	1026	1023	1023	1023	1023	1023	1023	1023	1023	1026	1026	1026	1030	1033	1036	1036	1036	1039	1039	1039	1039	1263	1259	1259	1259	1259	1259	1254	1254	1245	1245	1240	1240	1240	1236	1236	1232	1227	1227	1223	1223	1223	1219	1219	1214	1214	1210	1210	1210	1206	1206	1206	1206	1202	1197	1193	1193	1193	1189	1189	1185	1185	1181	1177	1177	1177	1173	1173	1173	1169	1169	1165	1161	1161	1161	1161	1157	1157	1153	1153	1150	1150	1146	1142	1142	1142	1142	1138	1134	1134	1131	1131	1127	1127	1123	1123	1123	1120	1116	1116	1113	1113	1113	1109	1109	1109	1105	1102	1102	1098	1098	1095	1095	1091	1091	1088	1088	1088	1085	1081	1078	1078	1074	1074	1074	1071	1071	1071	1071	1068	1068	1068	1061	1058	1058	1058	1058	1055	1055	1052	1048	1048	1048	1045	1045	1045	1042	1039	1036	1036	1036	1036	1033	1033	1030	1030	1026	1023	1023	1020	1017	1014	1011	1011	1008	1008	1008	1008	1006	1006	1006	1003	1000	1000	997	997	994	994	991	991	991	991	988	985	985	985	985	983	983	983	980	977	977	977	974	974	972	972	969	966	966	969	969	969	0	0	0	0	0	0	0	0	0	0	0	0	0	0	0	0	0
0	0	0	0	0	0	0	0	0	0	0	0	0	0	0	0	0	0	0	0	0	0	0	0	0	0	1532	1532	1532	1532	1539	1532	1532	1546	1532	1532	1519	1519	1519	1519	1519	1519	1519	1519	1519	1519	1525	1525	1525	1525	1525	1525	1532	1532	1539	1546	1546	1539	1539	1539	1532	1532	1532	1532	1539	1539	1539	1532	1532	1532	1525	1525	1525	1525	1525	1525	1532	1532	1519	1519	1546	1546	1539	1532	1532	1539	1539	1539	1539	1546	1553	1553	1553	1553	1553	1553	1546	1546	1553	1553	1553	1553	1553	1553	1553	1546	1546	1553	1553	1560	1567	1560	1560	1567	1567	1574	1560	1553	1553	1560	1560	1567	1560	1560	1560	1560	1560	1553	1553	1553	1553	1553	1553	1553	1553	1546	1546	1546	1546	1546	1553	1560	1560	1560	1560	1567	1574	1567	1567	1567	1574	1567	1567	1574	1574	1581	1581	1581	1589	1581	1581	1581	1581	1581	1574	1574	1574	1581	1581	1574	1574	1574	1574	1574	1574	1574	1581	1581	1581	1581	1581	1581	1581	1581	1581	1589	1581	1581	1581	1589	1581	1581	1581	1589	1589	1589	1589	1581	1581	1581	1589	1589	1596	1596	1596	1596	1589	1589	1589	1589	1581	1581	1589	1596	1596	1589	1589	1589	1596	1596	1596	1596	1596	1596	1596	1596	1596	1589	1589	1596	1596	1596	1603	1603	1603	1596	1596	1603	1603	1603	1596	1596	1596	1596	1519	1519	1519	1512	1512	1512	1506	1499	1492	1492	1486	1486	1486	1473	1473	1467	1461	1461	1461	1455	1455	1449	1449	1443	1437	1437	1431	1425	1419	1419	1413	1413	1407	1402	1402	1396	1390	1390	1385	1385	1379	1374	1368	1368	1363	1363	1358	1352	1352	1347	1347	1342	1336	1331	1331	1331	1326	1321	1316	1311	1311	1311	1306	1306	1301	1296	1296	1291	1291	1287	1282	1282	1277	1272	1272	1268	1263	1259	1259	1254	1249	1249	1245	1240	1240	1236	1232	1232	1232	1227	1227	1227	1223	1219	1214	1214	1210	1210	1202	1202	1197	1193	1193	1193	1189	1181	1181	1181	1177	1177	1173	1169	1169	1165	1161	1157	1153	1150	1150	1150	1146	1146	1146	1142	1142	1138	1134	1131	1131	1127	1123	1123	1120	1116	1113	1113	1109	1105	1105	1105	1102	1102	1098	1095	1091	1091	1088	1088	1081	1081	1078	1078	1074	1074	1074	1071	1068	1064	1061	1061	1061	1058	1055	1055	1052	1048	1045	1045	1042	1039	1039	1036	1036	1033	1030	1026	1026	1023	1023	1023	1020	1020	1023	1023	1026	1026	1030	1033	1033	1036	1036	1036	1039	1039	1039	1039	0	1259	1259	1259	1259	1259	1254	1254	1245	1245	1240	1240	1240	1236	1236	1232	1227	1227	1223	1223	1223	1219	1219	1214	1214	1214	1210	1210	1206	1206	1206	1202	1202	1202	1193	1193	1193	1189	1189	1185	1185	1181	1177	1177	1177	1173	1173	1173	1173	1169	1165	1161	1161	1161	1161	1157	1157	1153	1153	1150	1150	1146	1142	1142	1142	1142	1138	1134	1134	1131	1131	1127	1127	1123	1123	1123	1120	1116	1113	1113	1113	1109	1109	1109	1105	1105	1102	1102	1098	1098	1095	1095	1091	1091	1088	1088	1088	1085	1081	1081	1078	1074	1074	1074	1071	1071	1071	1071	1068	1068	1068	1061	1058	1058	1058	1058	1055	1055	1052	1052	1048	1048	1048	1045	1045	1042	1039	1036	1036	1036	1036	1033	1033	1030	1030	1030	1023	1023	1020	1017	1014	1014	1011	1008	1008	1008	1008	1006	1006	1006	1003	1000	1000	997	997	994	994	991	991	991	991	988	985	985	985	985	983	983	983	980	977	977	977	974	974	974	972	972	969	969	969	972	972	0	0	0	0	0	0	0	0	0	0	0	0	0	0	0	0	0
0	0	0	0	0	0	0	0	0	0	0	0	0	0	0	0	0	0	0	0	0	0	0	0	0	0	1525	1525	1525	1519	1519	1519	1519	1519	1519	1512	1506	1506	1506	1506	1506	1506	1506	1512	1512	1512	1519	1519	1519	1519	1519	1519	1525	1525	1525	1525	1532	1532	1525	1525	1525	1525	1525	1525	1525	1525	1525	1519	1519	1519	1519	1512	1512	1512	1519	1519	1519	1519	1519	1512	1519	1532	1525	1525	1525	1525	1525	1532	1532	1532	1539	1539	1546	1539	1539	1539	1539	1532	1532	1539	1546	1546	1546	1546	1546	1539	1539	1546	1546	1553	1546	1546	1546	1546	1539	1539	1553	1553	1553	1553	1553	1553	1546	1546	1546	1546	1546	1546	1546	1546	1546	1546	1539	1539	1546	1539	1539	1539	1539	1546	1546	1553	1553	1553	1553	1553	1553	1553	1553	1553	1553	1553	1553	1553	1567	1567	1574	1574	1574	1581	1574	1574	1574	1567	1560	1560	1567	1567	1567	1560	1560	1560	1560	1567	1560	1560	1560	1567	1567	1567	1567	1567	1567	1574	1574	1574	1574	1574	1574	1574	1574	1574	1574	1574	1581	1581	1574	1574	1574	1574	1574	1574	1581	1581	1581	1581	1574	1574	1574	1574	1574	1574	1581	1581	1581	1581	1581	1581	1581	1581	1581	1581	1581	1581	1581	1581	1581	1581	1581	1581	1581	1589	1596	1596	1596	1589	1589	1596	1596	1596	1589	1589	1596	1596	1519	1519	1519	1512	1512	1512	1506	1499	1492	1492	1486	1486	1486	1473	1473	1467	1461	1461	1461	1455	1455	1449	1449	1443	1437	1437	1431	1425	1419	1419	1419	1413	1407	1402	1402	1396	1390	1390	1385	1385	1379	1374	1368	1368	1363	1363	1358	1352	1352	1347	1347	1342	1342	1336	1331	1331	1326	1321	1316	1311	1311	1311	1306	1306	1301	1296	1296	1291	1291	1287	1282	1282	1277	1272	1272	1268	1263	1259	1254	1254	1249	1249	1245	1245	1240	1236	1232	1232	1232	1227	1227	1227	1223	1219	1219	1214	1210	1210	1202	1202	1197	1193	1193	1193	1189	1181	1181	1181	1177	1177	1173	1169	1169	1165	1161	1157	1153	1150	1150	1150	1146	1146	1146	1146	1142	1138	1134	1134	1131	1127	1123	1123	1120	1116	1113	1113	1109	1105	1105	1105	1102	1102	1098	1098	1095	1091	1091	1088	1085	1081	1081	1078	1074	1074	1071	1071	1068	1064	1061	1061	1061	1058	1055	1055	1052	1048	1045	1045	1042	1039	1039	1036	1036	1033	1030	1026	1026	1023	1023	1023	1020	1020	1023	1023	1026	1026	1030	1033	1036	1036	1036	1036	1039	1039	1039	1039	1263	1263	1263	1259	1259	1259	1254	1249	1245	1245	1240	1240	1240	1240	1236	1232	1232	1227	1223	1223	1223	1219	1219	1214	1214	1214	1210	1210	1206	1206	1206	1202	1202	1202	1193	1193	1193	1189	1189	1185	1185	1181	1177	1177	1177	1173	1173	1173	1173	1169	1165	1161	1161	1161	1161	1157	1157	1157	1153	1153	1150	1146	1142	1142	1142	1142	1138	1134	1134	1131	1131	1127	1127	1123	1123	1123	1120	1116	1113	1113	1113	1109	1109	1109	1105	1105	1102	1102	1098	1098	1098	1098	1095	1091	1088	1088	1088	1085	1085	1081	1078	1074	1074	1074	1071	1071	1071	1071	1068	1068	1064	1064	1058	1058	1058	1058	1055	1055	1052	1052	1048	1048	1048	1045	1045	1045	1042	1036	1036	1036	1036	1033	1033	1030	1030	1026	1023	1020	1020	1017	1014	1014	1011	1008	1008	1008	1008	1006	1006	1006	1003	1003	1000	997	997	994	994	991	991	991	991	988	985	985	985	983	983	983	980	980	977	977	977	974	974	974	974	972	969	969	969	969	969	0	0	0	0	0	0	0	0	0	0	0	0	0	0	0	0	0
0	0	0	0	0	0	0	0	0	0	0	0	0	0	0	0	0	0	0	0	0	0	0	0	0	0	1512	1512	1512	1512	1512	1512	1506	1506	1506	1506	1492	1492	1492	1492	1492	1499	1499	1499	1499	1506	1506	1512	1512	1512	1512	1512	1512	1512	1506	1506	1512	1519	1519	1519	1519	1519	1519	1519	1525	1525	1519	1519	1506	1506	1512	1506	1506	1506	1506	1512	1506	1506	1512	1512	1519	1519	1519	1519	1519	1519	1525	1525	1519	1519	1525	1532	1546	1519	1519	1525	1525	1525	1525	1532	1546	1546	1539	1539	1539	1539	1539	1539	1539	1539	1539	1539	1539	1532	1525	1525	1525	1532	1532	1546	1532	1532	1532	1532	1532	1532	1532	1532	1532	1532	1532	1539	1532	1532	1532	1532	1532	1532	1532	1532	1539	1546	1546	1546	1546	1546	1539	1539	1546	1539	1539	1539	1546	1546	1546	1553	1553	1553	1567	1567	1567	1567	1560	1560	1553	1553	1560	1560	1553	1553	1553	1553	1553	1553	1553	1553	1553	1560	1560	1560	1560	1560	1560	1560	1567	1560	1560	1560	1560	1567	1567	1567	1567	1567	1567	1574	1567	1567	1567	1567	1567	1567	1574	1567	1567	1567	1567	1567	1567	1567	1567	1567	1567	1574	1574	1574	1574	1574	1574	1574	1574	1574	1574	1574	1581	1581	1581	1581	1581	1581	1574	1574	1581	1581	1574	1574	1581	1581	1581	1581	1581	1581	1574	1574	1519	1519	1519	1512	1512	1512	1506	1499	1492	1492	1486	1486	1486	1473	1473	1467	1461	1461	1461	1455	1455	1449	1449	1443	1443	1437	1437	1431	1425	1425	1419	1407	1407	1402	1396	1396	1390	1390	1385	1385	1379	1374	1368	1368	1363	1363	1358	1358	1352	1352	1347	1342	1342	1336	1331	1331	1326	1321	1321	1316	1311	1311	1311	1306	1301	1296	1296	1291	1291	1287	1287	1282	1277	1272	1272	1268	1263	1259	1259	1254	1249	1249	1245	1245	1240	1236	1232	1232	1232	1227	1227	1223	1223	1219	1214	1214	1210	1210	1202	1202	1197	1197	1193	1193	1189	1181	1181	1181	1181	1177	1173	1169	1169	1165	1161	1157	1157	1153	1150	1150	1150	1146	1146	1146	1142	1142	1138	1134	1134	1131	1123	1123	1120	1116	1113	1113	1109	1109	1105	1105	1102	1102	1098	1098	1095	1091	1091	1088	1085	1085	1081	1078	1074	1074	1071	1071	1068	1064	1064	1061	1061	1058	1055	1055	1052	1048	1045	1045	1042	1042	1039	1039	1036	1036	1033	1030	1026	1026	1023	1023	1020	1020	1023	1023	1026	1026	1033	1033	1036	1036	1039	1039	1039	1039	1039	1039	1263	1263	1263	1259	1259	1259	1254	1249	1245	1245	1240	1240	1240	1240	1236	1232	1232	1227	1223	1223	1223	1219	1219	1219	1219	1214	1210	1210	1210	1206	1206	1202	1202	1202	1193	1193	1193	1189	1189	1189	1185	1181	1177	1177	1177	1173	1173	1173	1173	1169	1165	1161	1161	1161	1161	1157	1157	1157	1153	1153	1146	1146	1142	1142	1142	1142	1138	1138	1134	1131	1131	1131	1127	1123	1123	1123	1120	1116	1116	1113	1113	1113	1109	1109	1109	1105	1105	1102	1098	1098	1098	1098	1095	1091	1088	1088	1088	1085	1085	1081	1078	1078	1074	1074	1071	1071	1071	1071	1068	1068	1064	1064	1061	1058	1058	1058	1058	1058	1055	1052	1048	1048	1048	1045	1045	1045	1042	1039	1036	1036	1036	1033	1033	1030	1030	1026	1023	1020	1020	1017	1014	1014	1011	1011	1011	1008	1008	1006	1006	1006	1006	1003	1000	1000	997	994	994	991	991	991	991	988	985	985	985	985	983	983	983	983	977	977	977	974	974	974	974	972	969	969	969	969	969	0	0	0	0	0	0	0	0	0	0	0	0	0	0	0	0	0
