0	0	0	0	0	0	0	0	0	0	0	0	0	0	0	0	0	0	0	0	0	0	0	2181	2181	2181	2181	0	0	0	0	0	0	0	0	0	0	0	0	0	0	0	0	2297	2297	2281	2252	2252	2312	2312	2327	2327	0	0	0	0	0	0	0	0	0	0	0	0	0	0	2426	2426	2409	2359	2359	2359	2376	2359	2359	2359	2359	2359	2359	0	0	0	0	0	0	0	0	0	0	0	0	0	0	0	0	0	0	0	0	0	0	0	0	0	0	0	0	0	0	0	0	0	0	0	0	0	0	0	2343	2343	2343	2392	2392	2392	2343	2343	2359	2359	2359	2359	2343	2343	2343	2376	2376	2376	2376	2392	2460	2443	2443	2460	2460	2460	2443	2443	2426	2409	2409	2409	2409	2409	2392	2392	2392	2392	2376	2359	2343	2343	2343	2343	2327	2327	2327	2327	2327	2312	2297	2297	2281	2281	2266	2252	2252	2237	2237	2223	2223	2223	2223	2223	2208	2208	2208	2208	2194	2181	2167	2167	2153	2153	2153	2153	2140	2127	2114	2114	2101	2101	2088	2088	2076	2076	2063	2063	2063	2063	2063	1546	1546	1546	1546	1546	1546	1546	1539	1532	1532	1525	1519	1512	1506	1499	1499	1492	1492	1486	1486	1486	1480	1473	1467	1461	1455	1455	1443	1437	1437	1437	1431	1431	1425	1419	1419	1413	1407	1407	1402	1396	1396	1390	1390	1385	1379	1374	1368	1368	1363	1358	1358	1352	1347	1342	1336	1336	1331	1326	1326	1326	1316	1311	1311	1306	1306	1301	1296	1291	1287	1282	1277	1277	1272	1272	1268	1268	1263	1263	1259	1254	1249	1245	1245	1236	1236	1232	1227	1227	1223	1223	1219	1219	1214	1214	1210	1206	1206	1202	1202	1197	1193	1193	1185	1185	1181	1181	1177	1173	1173	1169	1169	1165	1161	1161	1157	1153	1153	1150	1150	1150	1146	1146	1142	1134	1134	1131	1131	1127	1123	1123	1120	1116	1113	1113	1109	1109	1105	1105	1102	1098	1095	1095	1091	1088	1088	1085	1081	1078	1078	1074	1074	1074	1071	1071	1071	1071	1071	1074	1074	1074	1074	1078	1078	1078	1081	1085	1088	1091	1091	1091	0	1321	1321	1321	1321	1321	1321	1321	1316	1316	1311	1306	1301	1301	1301	1296	1296	1291	1291	1291	1287	1287	1282	1277	1272	1268	1268	1268	1263	1263	1263	1259	1254	1249	1249	1245	1245	1245	1245	1245	1240	1236	1232	1232	1232	1227	1227	1223	1219	1214	1214	1210	1210	1210	1210	1206	1202	1197	1197	1193	1193	1193	1189	1189	1189	1185	1185	1181	1181	1177	1177	1173	1169	1165	1165	1165	1161	1161	1161	1161	1157	1157	1153	1153	1150	1150	1146	1146	1142	1142	1138	1134	1134	1131	1131	1131	1127	1123	1120	1120	1120	1116	1116	1116	1113	1113	1109	1105	1102	1102	1102	1098	1098	1095	1095	1091	1091	1091	1088	1088	1088	1088	1085	1081	1078	1074	1074	1071	1071	1068	1064	1064	1064	1064	1061	1061	1061	1058	1058	1055	1052	1052	1048	1048	1045	1045	1045	1039	1039	1036	1036	1036	1036	1033	1033	1030	1030	1026	1026	1023	1023	1020	1017	1017	1014	1011	1011	1006	1003	1003	1003	1000	1000	997	997	997	994	994	991	988	988	988	985	985	985	983	983	980	977	974	974	972	969	969	966	966	966	963	963	963	961	958	958	958	955	955	953	953	953	948	948	945	945	942	942	942	940	937	935	935	935	935	935	935	932	932	930	930	927	927	922	922	920	917	917	915	915	915	915	915	915	913	913	913	0	0	0	0	0	0	0	0	0	0	0	0	0	0	0	0
0	0	0	0	0	0	0	0	0	0	0	0	0	0	0	0	0	0	0	0	0	0	0	2181	2181	2181	2194	2208	2208	2208	0	0	0	0	0	0	0	0	0	0	2266	2266	2266	2281	2266	2252	2252	2252	2266	2297	2312	2312	0	0	0	0	0	0	0	0	0	0	0	0	0	0	0	0	0	2359	2359	2359	2376	2359	2359	2343	2359	2359	2359	0	0	0	0	0	0	0	0	0	0	0	0	0	0	0	0	0	0	0	0	0	0	0	0	0	0	0	0	0	0	0	0	0	0	0	2327	2327	2327	2343	2343	2343	2343	2343	2343	2343	2327	2327	2327	2327	2327	2327	2343	2343	2343	2343	2376	2376	2376	2392	2392	2443	2460	2460	2460	2460	2426	2426	2409	2409	2409	2409	2409	2392	2392	2392	2392	2392	2376	2359	2343	2343	2343	2343	2327	2327	2327	2327	2327	2312	2297	2297	2281	2281	2266	2252	2252	2237	2237	2223	2223	2223	2223	2223	2208	2208	2208	2208	2194	2167	2167	2167	2153	2153	2153	2153	2140	2127	2127	2114	2114	2101	2101	2088	2076	2076	2076	2063	2063	2063	0	1546	1546	1546	1546	1546	1546	1546	1539	1532	1532	1525	1519	1512	1512	1506	1499	1492	1492	1486	1486	1486	1480	1473	1467	1461	1455	1455	1443	1443	1437	1437	1437	1431	1425	1419	1419	1413	1407	1407	1402	1396	1396	1390	1390	1385	1379	1374	1368	1368	1363	1358	1352	1352	1347	1342	1336	1336	1331	1326	1326	1326	1321	1316	1311	1311	1306	1301	1296	1291	1287	1287	1277	1277	1272	1272	1268	1268	1263	1263	1259	1254	1254	1249	1245	1240	1236	1232	1227	1227	1223	1219	1219	1219	1214	1214	1210	1206	1202	1202	1197	1197	1193	1193	1189	1185	1181	1181	1177	1173	1173	1169	1169	1165	1161	1161	1157	1153	1153	1150	1150	1150	1146	1146	1138	1134	1134	1131	1131	1127	1123	1123	1120	1116	1113	1113	1109	1109	1105	1105	1102	1098	1095	1095	1091	1088	1088	1085	1081	1078	1074	1074	1071	1071	1071	1071	1071	1071	1071	1071	1074	1074	1074	1074	1078	1081	1081	1085	1088	1088	1091	1091	0	1321	1321	1321	1321	1321	1321	1321	1321	1316	1311	1306	1306	1301	1301	1296	1296	1291	1291	1291	1287	1287	1282	1277	1272	1268	1268	1268	1263	1263	1263	1259	1254	1249	1249	1245	1245	1245	1245	1245	1240	1236	1232	1232	1232	1227	1227	1223	1219	1214	1214	1210	1210	1210	1210	1206	1202	1197	1197	1193	1193	1193	1189	1189	1189	1185	1181	1181	1181	1177	1177	1173	1173	1169	1165	1165	1161	1161	1161	1161	1157	1157	1153	1153	1150	1150	1146	1146	1142	1142	1138	1134	1134	1131	1131	1131	1127	1127	1120	1120	1120	1116	1116	1116	1113	1113	1109	1105	1102	1102	1102	1098	1098	1095	1095	1091	1091	1091	1088	1088	1088	1088	1085	1081	1078	1074	1074	1071	1068	1068	1064	1064	1064	1064	1064	1061	1061	1058	1058	1055	1052	1052	1048	1048	1045	1045	1045	1042	1039	1039	1036	1036	1036	1033	1033	1030	1030	1026	1026	1023	1023	1020	1020	1017	1014	1011	1011	1006	1003	1003	1003	1000	1000	997	997	997	994	994	991	988	988	988	985	985	985	983	983	980	977	974	974	969	969	966	966	966	963	963	963	963	961	958	958	958	955	953	953	953	953	950	948	948	945	942	942	942	940	937	935	935	935	935	935	932	932	932	930	930	927	927	922	922	920	917	917	915	915	915	915	915	915	915	915	915	0	0	0	0	0	0	0	0	0	0	0	0	0	0	0	0
0	0	0	0	0	0	0	0	0	0	0	0	0	0	0	0	0	0	0	0	0	0	0	2167	2167	2167	2181	2181	2181	2181	0	0	0	0	0	0	0	0	0	2237	2237	2237	2237	2252	2252	2237	2237	2237	2252	2252	2312	2312	0	0	0	0	0	0	0	0	0	0	0	0	0	0	0	0	0	2359	2359	2359	2376	2359	2359	2343	2359	2359	2359	0	0	0	0	0	0	0	0	0	0	0	0	0	0	0	0	0	0	0	0	0	0	0	0	0	0	0	0	0	0	0	2281	2281	2281	2281	2281	2312	2312	2327	2327	2327	2327	2343	2327	2312	2297	2297	2297	2297	2297	2312	2312	2327	2327	2327	2343	2343	2343	2343	2343	0	2460	2281	2281	2426	2327	2327	2327	2343	2343	2343	2343	2343	2343	2343	2359	2359	2359	2359	2343	2343	2343	2327	2327	2327	2327	2312	2312	2312	2297	2281	2281	2281	2266	2252	2252	2237	2237	2223	2223	2223	2223	2223	2208	2208	2194	2194	2181	2167	2167	2167	2153	2153	2153	2153	2140	2127	2127	2114	2101	2101	2101	2088	2088	2076	2076	2076	2063	2063	2063	1546	1553	1546	1546	1546	1546	1546	1539	1532	1525	1519	1519	1519	1512	1506	1506	1499	1492	1492	1486	1486	1480	1473	1467	1467	1461	1455	1443	1443	1443	1437	1437	1431	1425	1419	1419	1413	1413	1407	1402	1396	1396	1390	1390	1385	1379	1374	1368	1368	1358	1358	1352	1347	1347	1342	1342	1336	1331	1331	1326	1326	1321	1316	1311	1311	1306	1301	1301	1296	1291	1287	1277	1277	1272	1272	1272	1268	1268	1263	1263	1259	1254	1249	1245	1240	1240	1236	1227	1227	1223	1219	1219	1219	1214	1210	1210	1206	1202	1197	1197	1197	1193	1189	1185	1185	1181	1181	1177	1173	1173	1173	1169	1165	1161	1161	1157	1153	1153	1153	1150	1150	1146	1146	1142	1134	1134	1131	1131	1127	1127	1123	1120	1116	1116	1113	1113	1109	1105	1105	1102	1098	1095	1095	1091	1088	1085	1085	1081	1078	1074	1074	1071	1071	1071	1071	1071	1071	1071	1071	1074	1074	1074	1078	1081	1081	1085	1088	1088	1091	1091	1091	0	1326	1326	1321	1321	1321	1321	1321	1316	1311	1306	1306	1301	1301	1301	1296	1296	1291	1291	1291	1287	1287	1277	1277	1272	1268	1268	1268	1263	1263	1263	1259	1254	1249	1249	1249	1245	1245	1245	1245	1240	1236	1232	1232	1232	1227	1227	1223	1219	1214	1214	1210	1210	1210	1210	1206	1202	1197	1197	1193	1193	1193	1189	1189	1189	1185	1181	1181	1181	1177	1177	1173	1173	1169	1165	1165	1161	1161	1161	1161	1157	1157	1153	1153	1150	1150	1146	1146	1142	1142	1138	1134	1134	1131	1131	1131	1127	1127	1120	1120	1120	1116	1116	1116	1113	1113	1109	1105	1105	1102	1102	1102	1098	1095	1095	1095	1091	1091	1088	1088	1088	1088	1085	1081	1078	1074	1071	1071	1068	1068	1064	1064	1064	1064	1064	1061	1061	1058	1058	1055	1055	1052	1048	1048	1045	1045	1045	1042	1039	1039	1036	1036	1036	1033	1033	1030	1030	1026	1026	1023	1023	1020	1020	1017	1014	1011	1011	1008	1006	1003	1003	1000	1000	997	997	997	994	994	991	991	988	988	985	985	985	983	983	980	977	974	974	969	969	966	966	966	963	963	963	963	961	958	958	955	955	953	953	953	953	950	950	948	945	942	940	940	940	937	935	935	935	935	935	932	932	932	932	930	927	927	922	922	920	917	917	917	917	915	915	915	915	915	915	915	0	0	0	0	0	0	0	0	0	0	0	0	0	0	0	0
0	0	0	0	0	0	0	0	0	0	0	0	0	0	0	0	0	0	0	0	0	0	0	2153	2153	2153	2167	2181	2181	2181	0	0	0	0	0	0	0	0	0	2237	2237	2223	2223	2237	2237	2237	2223	2223	2223	2223	2237	2223	2223	2223	0	0	0	0	0	0	0	0	0	0	0	0	0	0	0	0	0	0	0	0	0	2343	2359	2359	2359	2223	2208	2208	2181	2181	2181	2181	0	0	0	0	0	0	0	0	0	0	0	2252	2252	2252	2252	2252	0	0	0	0	0	0	0	2266	2266	2266	2281	2281	2281	2297	2327	2327	2327	2327	2343	2343	2297	2297	2281	2281	2281	2281	2281	2297	2297	2327	2327	2343	2343	2343	2343	2343	2343	0	0	2281	2281	2426	2297	2297	2297	2312	2312	2312	2297	2297	2312	2312	2327	2343	2343	2343	2327	2327	2327	2327	2312	2312	2312	2312	2297	2297	2281	2281	2281	2266	2266	2252	2252	2252	2237	2223	2223	2223	2223	2208	2208	2208	2194	2194	2181	2167	2167	2167	2153	2153	2153	2140	2127	2127	2114	2114	2101	2101	2101	2088	2088	2076	2076	2076	2063	2063	2063	1553	1553	1553	1553	1553	1546	1539	1539	1532	1525	1519	1519	1519	1512	1512	1506	1499	1499	1492	1486	1486	1480	1473	1467	1461	1455	1455	1443	1443	1443	1437	1437	1431	1425	1419	1419	1413	1413	1407	1402	1402	1396	1390	1390	1385	1379	1374	1368	1368	1358	1358	1352	1347	1347	1342	1342	1336	1331	1331	1326	1326	1321	1316	1311	1311	1306	1301	1301	1296	1291	1287	1282	1277	1272	1272	1272	1268	1268	1263	1263	1259	1254	1249	1245	1240	1240	1236	1232	1227	1223	1219	1219	1219	1214	1210	1210	1206	1202	1197	1197	1197	1193	1189	1185	1185	1181	1181	1177	1177	1173	1173	1169	1165	1165	1161	1157	1153	1153	1153	1150	1150	1146	1146	1142	1138	1134	1131	1131	1127	1123	1120	1120	1116	1116	1113	1113	1109	1109	1105	1102	1098	1095	1095	1091	1088	1085	1085	1081	1081	1078	1074	1071	1071	1071	1071	1071	1071	1071	1071	1074	1074	1074	1078	1081	1085	1085	1088	1088	1088	1088	1091	0	1326	1326	1321	1321	1326	1321	1316	1316	1311	1306	1306	1301	1301	1301	1296	1296	1291	1291	1291	1287	1287	1282	1277	1272	1268	1268	1268	1263	1263	1263	1259	1254	1249	1249	1249	1245	1245	1245	1245	1240	1236	1236	1232	1232	1227	1227	1223	1223	1219	1214	1214	1210	1210	1210	1206	1202	1202	1197	1197	1193	1193	1193	1189	1189	1185	1181	1181	1181	1177	1177	1173	1173	1169	1165	1165	1165	1161	1161	1161	1157	1157	1153	1153	1150	1150	1146	1146	1142	1142	1138	1134	1134	1131	1131	1127	1127	1123	1123	1120	1120	1120	1116	1116	1116	1113	1109	1105	1105	1102	1102	1102	1098	1098	1095	1095	1091	1091	1091	1088	1088	1088	1085	1078	1078	1074	1071	1071	1068	1068	1068	1068	1064	1064	1064	1061	1061	1058	1058	1055	1055	1052	1048	1048	1045	1045	1045	1042	1039	1039	1036	1036	1033	1033	1033	1030	1026	1026	1026	1023	1023	1020	1020	1017	1014	1011	1011	1008	1006	1003	1003	1000	1000	997	997	997	994	994	991	991	988	988	985	985	985	985	983	977	977	974	974	969	969	969	966	966	963	963	963	963	961	958	958	955	953	953	953	953	950	950	950	948	945	942	940	940	940	937	935	935	935	935	935	932	932	932	932	930	927	927	925	922	920	917	917	915	915	915	915	915	915	915	915	915	0	0	0	0	0	0	0	0	0	0	0	0	0	0	0	0
0	0	0	0	0	0	0	0	0	0	0	0	0	0	0	0	0	0	0	0	0	0	0	2153	2153	2153	2153	2167	2167	2167	0	0	0	0	0	0	0	0	2223	2208	2208	2208	2208	2208	2194	2194	2194	2194	2194	2194	2194	2208	2208	2208	2237	2237	0	0	0	0	0	0	0	0	0	0	0	0	0	0	0	0	0	0	0	0	0	0	2237	2223	2208	2194	2181	2181	2181	2181	0	0	0	0	0	0	0	0	0	0	2208	2208	2252	2252	2252	2252	0	0	0	0	0	0	0	2266	2266	2266	2266	2281	2281	2297	2297	2327	2327	2327	2327	2327	2297	2266	2266	2266	2266	2266	2266	2297	2297	2327	2327	2343	2343	2343	2343	2343	2343	0	0	0	0	2281	2281	2281	2281	2281	2281	2281	2281	2281	2266	2266	2281	2281	2297	2297	2297	2312	2312	2312	2297	2297	2312	2297	2297	2281	2281	2266	2266	2266	2266	2252	2252	2252	2237	2223	2223	2223	2223	2208	2208	2208	2194	2194	2181	2167	2167	2167	2153	2153	2153	2140	2127	2127	2114	2114	2101	2101	2088	2088	2088	2076	2076	2076	2063	2063	0	1553	1553	1553	1546	1546	1546	1539	1539	1532	1525	1519	1519	1519	1512	1512	1506	1499	1492	1492	1486	1480	1473	1467	1467	1461	1455	1455	1449	1443	1443	1437	1431	1431	1425	1419	1419	1413	1413	1407	1402	1402	1396	1390	1390	1385	1379	1374	1368	1368	1363	1358	1352	1347	1347	1347	1342	1336	1336	1331	1331	1326	1321	1321	1316	1311	1306	1301	1301	1296	1291	1287	1282	1282	1277	1272	1272	1268	1268	1268	1263	1259	1254	1249	1245	1240	1240	1236	1232	1232	1227	1223	1223	1219	1214	1214	1210	1206	1202	1197	1197	1197	1193	1189	1185	1185	1181	1181	1177	1177	1173	1173	1169	1165	1165	1161	1157	1157	1153	1153	1150	1150	1146	1142	1138	1138	1134	1131	1131	1127	1123	1120	1120	1116	1116	1116	1113	1109	1105	1105	1102	1098	1095	1095	1091	1088	1085	1085	1081	1078	1074	1074	1071	1071	1068	1068	1071	1071	1071	1074	1074	1074	1078	1081	1085	1085	1085	1088	1088	1088	1088	0	0	1331	1326	1326	1326	1326	1321	1316	1316	1311	1306	1306	1301	1301	1301	1296	1296	1296	1291	1291	1287	1287	1282	1277	1272	1272	1268	1268	1268	1263	1263	1259	1254	1254	1249	1249	1245	1245	1245	1245	1240	1236	1236	1232	1232	1227	1227	1223	1223	1219	1214	1214	1214	1210	1210	1206	1202	1197	1197	1197	1193	1193	1193	1189	1189	1185	1185	1181	1181	1177	1177	1177	1173	1169	1165	1165	1165	1161	1161	1161	1161	1157	1157	1153	1150	1150	1146	1146	1142	1142	1138	1134	1134	1134	1131	1127	1127	1123	1123	1123	1120	1120	1116	1116	1116	1113	1109	1105	1105	1105	1102	1102	1098	1098	1098	1095	1091	1091	1091	1088	1088	1088	1085	1078	1078	1074	1074	1071	1068	1068	1068	1068	1068	1064	1064	1061	1061	1061	1058	1055	1055	1052	1048	1048	1048	1045	1045	1042	1039	1039	1036	1036	1033	1033	1033	1030	1026	1026	1026	1023	1023	1020	1020	1017	1014	1014	1011	1006	1003	1003	1000	1000	1000	997	997	997	994	994	991	991	988	988	985	985	985	985	983	977	977	974	974	969	969	969	966	966	966	966	966	963	963	961	958	955	953	953	953	950	950	948	948	948	945	945	942	942	940	937	935	935	935	935	935	932	932	932	930	927	927	925	925	922	920	917	917	915	915	915	915	915	915	915	917	917	0	0	0	0	0	0	0	0	0	0	0	0	0	0	0	0
0	0	0	0	0	0	0	0	0	0	0	0	0	0	0	0	0	0	0	0	0	0	0	2114	2114	2127	2140	2140	2140	2167	0	0	0	0	0	0	0	0	2208	2208	2208	2208	2208	2208	2181	2181	2181	2181	2181	2181	2194	2194	2208	2208	2237	2237	0	0	0	0	0	0	0	0	0	0	0	0	0	0	0	0	0	0	0	0	0	0	2237	2223	2208	2194	2181	2181	2181	2181	0	0	0	0	0	0	0	0	0	0	2208	2208	2237	2237	2237	2237	2237	0	0	0	0	0	0	2266	2266	2266	2266	2266	2266	2266	2297	0	2327	2327	2327	2327	2223	2223	2237	2237	2237	2237	2237	2237	2237	0	0	0	2343	2343	2343	0	0	0	0	0	0	2266	2266	2266	2266	2266	2266	2266	2266	2266	2252	2252	2266	2266	2266	2266	2281	2281	2281	2281	2281	2281	2281	2281	2281	2281	2281	2266	2266	2266	2266	2252	2252	2252	2237	2237	2223	2223	2223	2208	2208	2208	2194	2194	2181	2167	2167	2167	2153	2153	2153	2140	2127	2114	2114	2114	2101	2101	2088	2088	2088	2076	2076	2076	2076	2076	0	1560	1560	1553	1546	1546	1546	1539	1539	1532	1525	1519	1519	1519	1512	1512	1506	1499	1492	1492	1486	1480	1473	1467	1467	1461	1461	1455	1449	1443	1443	1437	1431	1425	1425	1419	1419	1413	1413	1407	1402	1402	1396	1390	1390	1379	1379	1374	1368	1363	1363	1358	1352	1352	1347	1347	1342	1336	1336	1331	1331	1326	1321	1321	1316	1311	1306	1306	1301	1296	1291	1287	1287	1282	1277	1277	1272	1268	1268	1268	1263	1259	1254	1249	1245	1245	1240	1236	1232	1232	1227	1223	1223	1219	1219	1214	1210	1206	1202	1202	1197	1197	1193	1189	1185	1181	1181	1177	1177	1173	1173	1173	1169	1165	1165	1161	1157	1157	1157	1153	1150	1150	1146	1142	1138	1138	1134	1131	1131	1127	1123	1120	1120	1116	1116	1116	1113	1109	1105	1105	1102	1102	1098	1095	1091	1088	1085	1085	1081	1078	1074	1074	1071	1071	1068	1068	1071	1071	1071	1074	1074	1078	1078	1081	1081	1085	1085	1085	1085	1088	1088	0	1331	1331	1326	1326	1326	1326	1321	1316	1316	1311	1306	1306	1301	1301	1301	1296	1296	1296	1291	1291	1287	1287	1282	1277	1272	1272	1268	1268	1268	1263	1263	1259	1254	1254	1249	1249	1245	1245	1245	1240	1236	1236	1232	1232	1232	1227	1227	1223	1223	1214	1214	1214	1214	1210	1210	1206	1202	1197	1197	1197	1193	1193	1193	1193	1189	1189	1185	1181	1181	1177	1177	1177	1173	1173	1165	1165	1165	1161	1161	1161	1157	1157	1157	1153	1150	1150	1146	1146	1146	1142	1142	1138	1134	1134	1131	1127	1127	1123	1123	1123	1120	1120	1120	1116	1116	1113	1109	1105	1105	1105	1102	1102	1102	1098	1098	1095	1091	1091	1091	1088	1088	1088	1085	1078	1078	1074	1074	1074	1071	1068	1068	1064	1064	1064	1064	1061	1061	1061	1058	1055	1055	1052	1048	1048	1048	1045	1045	1042	1039	1039	1036	1036	1036	1036	1033	1030	1026	1026	1026	1023	1023	1020	1020	1017	1014	1011	1011	1006	1003	1003	1000	1000	1000	997	997	997	994	994	994	991	988	988	988	985	985	985	983	977	977	977	974	969	969	969	966	966	966	966	966	963	963	961	958	955	953	950	950	950	950	948	948	948	945	945	942	942	940	937	935	935	935	932	932	932	932	930	930	927	927	925	925	922	920	917	917	915	915	915	915	915	915	915	915	915	0	0	0	0	0	0	0	0	0	0	0	0	0	0	0	0
0	0	0	0	0	0	0	0	0	0	0	0	0	0	0	0	0	0	0	0	0	0	0	2088	2088	2088	2101	2101	2101	2167	0	0	0	0	0	0	0	0	2208	2208	2127	2127	2127	2127	2127	2127	2127	2140	2167	2181	2181	2181	2194	2208	2208	2237	0	0	0	0	0	0	0	0	0	0	0	0	0	0	0	0	0	0	0	0	0	0	2237	2208	2194	2181	2181	2167	2167	2167	0	0	0	0	0	0	0	2167	2167	2181	2181	2194	2208	2223	2223	2237	2237	0	0	0	0	0	0	2266	2266	2266	2266	2266	2266	2266	0	0	0	0	0	0	2223	2223	2223	2223	2223	2223	2223	2223	2223	0	0	0	0	0	0	0	0	0	0	0	2252	2252	2252	2252	2252	2252	2252	2252	2252	2252	2252	2252	2252	2252	2252	2252	2252	2252	2266	2266	2266	2266	2266	2266	2266	2266	2266	2266	2266	2266	2266	2266	2252	2252	2237	2237	2223	2223	2223	2208	2208	2208	2194	2194	2181	2167	2167	2167	2153	2153	2153	2140	2127	2114	2114	2114	2101	2101	2088	2088	2088	2076	2076	2076	2063	2063	0	1560	1560	1553	1546	1546	1546	1539	1539	1525	1525	1519	1519	1519	1512	1512	1506	1499	1492	1492	1486	1480	1473	1467	1467	1461	1461	1455	1449	1443	1443	1437	1431	1425	1419	1419	1419	1413	1413	1407	1402	1402	1396	1390	1390	1379	1379	1374	1368	1363	1358	1358	1352	1352	1347	1347	1347	1336	1336	1331	1331	1326	1321	1321	1316	1311	1306	1301	1301	1296	1291	1291	1287	1287	1282	1277	1272	1272	1268	1268	1263	1259	1254	1249	1249	1245	1240	1240	1236	1232	1227	1223	1223	1223	1219	1214	1214	1210	1206	1202	1197	1197	1193	1189	1185	1181	1177	1177	1177	1173	1173	1173	1169	1165	1165	1161	1161	1157	1157	1153	1150	1150	1146	1142	1138	1134	1134	1131	1131	1127	1123	1120	1120	1116	1116	1116	1113	1109	1109	1105	1102	1102	1098	1095	1091	1088	1088	1085	1081	1078	1074	1074	1071	1071	1071	1071	1071	1071	1071	1074	1074	1078	1078	1081	1081	1085	1085	1085	1085	1085	1088	0	1331	1331	1326	1326	1326	1326	1321	1316	1316	1311	1306	1306	1301	1301	1301	1296	1296	1296	1291	1287	1287	1282	1282	1277	1272	1268	1268	1268	1268	1263	1263	1263	1259	1254	1249	1249	1245	1245	1245	1240	1236	1236	1232	1232	1232	1227	1227	1223	1223	1214	1214	1214	1214	1210	1210	1206	1202	1197	1197	1197	1193	1193	1193	1193	1193	1189	1185	1181	1181	1177	1177	1177	1173	1173	1169	1165	1165	1161	1161	1161	1157	1157	1153	1150	1150	1150	1146	1146	1146	1142	1142	1138	1134	1134	1131	1131	1127	1127	1127	1123	1123	1120	1120	1116	1116	1113	1109	1105	1105	1105	1102	1102	1102	1098	1098	1095	1091	1091	1091	1088	1088	1085	1085	1078	1078	1074	1074	1074	1071	1068	1068	1064	1064	1064	1064	1061	1061	1061	1058	1055	1055	1052	1052	1048	1048	1045	1045	1042	1039	1039	1036	1036	1036	1036	1033	1030	1026	1026	1026	1023	1023	1020	1020	1017	1014	1011	1011	1006	1003	1003	1000	1000	1000	997	997	997	994	994	994	991	991	991	988	985	985	985	983	974	974	974	972	969	969	969	966	966	966	966	966	963	963	961	958	955	953	950	950	950	950	948	948	948	945	945	942	942	940	937	935	935	935	932	932	932	932	930	930	927	925	925	925	922	920	917	917	915	915	915	915	915	915	915	915	915	0	0	0	0	0	0	0	0	0	0	0	0	0	0	0	0
0	0	0	0	0	0	0	0	0	0	0	0	0	0	0	0	0	0	0	0	0	0	0	2063	2063	2063	2063	2063	2063	0	0	0	0	0	0	2076	2076	2127	2127	2127	2127	2127	2114	2114	2114	2114	2114	2114	2127	2153	2153	2167	2181	2181	2181	0	0	0	0	0	0	0	0	0	0	0	0	0	0	0	0	0	0	0	0	0	0	0	2181	2181	2181	2167	2167	2167	2167	2167	0	0	0	0	0	0	2153	2153	2167	2167	2167	2181	2208	2208	2208	2208	2237	0	0	0	0	0	0	0	0	0	2266	2266	2266	2266	0	0	0	0	0	0	2208	2208	2208	2208	2208	2208	2208	2208	2208	0	0	0	0	0	0	0	0	0	0	0	2237	2237	2237	2237	2237	2237	2237	2237	2237	2237	2237	2237	2237	2237	2237	2237	2237	2252	2266	2252	2237	2237	2237	2237	2237	2237	2252	2252	2252	2266	2266	2252	2252	2252	2237	2223	2223	2223	2223	2208	2208	2208	2194	2194	2181	2167	2167	2167	2153	2153	2140	2140	2140	2114	2114	2114	2101	2101	2088	2088	2088	2076	2076	2076	2063	2063	0	1560	1560	1553	1546	1546	1546	1539	1539	1525	1525	1519	1519	1519	1512	1512	1506	1499	1492	1486	1486	1480	1473	1467	1467	1461	1461	1455	1449	1443	1443	1437	1431	1425	1419	1419	1413	1413	1413	1407	1402	1402	1396	1390	1390	1385	1379	1374	1368	1363	1358	1352	1352	1352	1347	1347	1347	1336	1336	1331	1331	1326	1326	1321	1316	1311	1306	1301	1301	1296	1291	1291	1287	1287	1282	1277	1272	1272	1268	1268	1263	1259	1259	1249	1249	1245	1240	1240	1236	1232	1227	1227	1223	1223	1219	1219	1214	1214	1210	1202	1202	1197	1193	1189	1185	1181	1177	1177	1177	1177	1173	1173	1173	1165	1165	1161	1161	1157	1157	1153	1150	1146	1146	1142	1138	1134	1134	1131	1131	1127	1123	1120	1120	1116	1116	1116	1113	1109	1109	1105	1102	1098	1095	1095	1091	1088	1088	1085	1081	1078	1074	1074	1071	1071	1071	1071	1071	1071	1074	1074	1074	1078	1078	1081	1081	1081	1081	1085	1085	1085	0	1331	1331	1331	1326	1326	1326	1326	1321	1316	1316	1311	1306	1306	1301	1301	1301	1301	1296	1296	1291	1287	1287	1282	1282	1277	1272	1268	1268	1268	1268	1263	1263	1263	1259	1254	1254	1249	1249	1245	1245	1240	1236	1232	1232	1232	1232	1227	1227	1227	1223	1214	1214	1214	1214	1210	1210	1206	1206	1202	1197	1197	1197	1193	1193	1193	1193	1189	1185	1181	1181	1177	1177	1177	1173	1169	1165	1165	1165	1161	1161	1161	1157	1157	1153	1150	1150	1150	1146	1146	1146	1142	1142	1138	1134	1134	1131	1131	1127	1127	1123	1123	1120	1120	1120	1116	1113	1113	1109	1105	1105	1105	1102	1102	1102	1098	1098	1098	1095	1091	1091	1088	1088	1085	1085	1078	1078	1074	1074	1074	1071	1068	1068	1068	1068	1064	1064	1061	1061	1061	1058	1055	1055	1052	1052	1048	1048	1045	1045	1042	1039	1039	1036	1036	1036	1036	1033	1030	1026	1026	1023	1023	1020	1020	1017	1014	1014	1011	1011	1008	1006	1003	1000	1000	1000	1000	997	997	997	994	994	991	988	988	988	985	985	985	983	974	974	974	972	969	969	969	966	966	966	966	966	963	963	961	958	955	953	950	950	950	950	948	948	948	945	945	942	942	940	937	935	935	935	932	932	932	932	930	930	927	925	925	925	922	922	920	917	917	915	915	915	915	915	915	915	915	0	0	0	0	0	0	0	0	0	0	0	0	0	0	0	0
0	0	0	0	0	0	0	0	0	0	0	0	0	0	0	0	0	0	0	0	0	0	0	2051	2051	2039	2039	2027	2027	2051	2051	2063	2063	2063	2076	2076	2076	2088	2088	2088	2088	2101	2088	2088	2101	2101	2114	2114	2114	2114	2140	2167	2181	2181	2181	0	0	0	0	0	0	0	0	0	0	0	0	0	0	0	0	0	0	0	0	0	0	0	2153	2153	2153	2140	2140	2153	2153	2153	2153	0	0	0	0	0	2153	2153	2153	2153	2153	2140	2140	2127	2127	2127	0	0	0	0	0	0	0	0	0	0	0	0	0	0	0	0	0	0	0	0	2194	2194	2194	2194	2194	2194	2194	2208	2208	0	0	0	0	0	0	0	0	0	0	2223	2223	2223	2223	2223	2223	2223	2223	2223	2237	2223	2223	2223	2223	2223	2223	2181	2181	2181	2181	2194	2208	2208	2208	2223	2223	2223	2237	2237	2237	2252	2252	2252	2252	2237	2223	2223	2223	2223	2223	2208	2208	2208	2194	2194	2167	2167	2167	2167	2153	2153	2140	2140	2127	2114	2114	2101	2101	2088	2088	2088	2088	2076	2076	2076	2076	2063	1567	1560	1560	1553	1546	1546	1546	1539	1539	1532	1525	1525	1519	1519	1512	1512	1506	1499	1492	1486	1486	1480	1473	1467	1467	1461	1461	1455	1449	1443	1437	1437	1425	1419	1419	1419	1413	1413	1413	1407	1402	1396	1396	1390	1390	1385	1379	1374	1368	1363	1358	1352	1352	1352	1347	1347	1347	1336	1336	1331	1331	1326	1326	1321	1316	1311	1306	1301	1301	1296	1291	1291	1291	1287	1282	1277	1272	1272	1268	1268	1263	1259	1259	1249	1249	1245	1240	1240	1236	1232	1232	1227	1227	1223	1219	1219	1214	1214	1210	1206	1202	1197	1193	1189	1185	1181	1181	1177	1177	1177	1177	1177	1173	1165	1165	1161	1161	1157	1157	1153	1150	1146	1146	1142	1138	1134	1134	1131	1131	1123	1123	1120	1120	1116	1116	1113	1113	1109	1105	1105	1102	1098	1095	1095	1091	1088	1088	1085	1081	1078	1074	1074	1071	1071	1071	1071	1071	1071	1074	1074	1074	1078	1078	1081	1081	1081	1081	1085	1085	1085	0	1331	1326	1326	1326	1326	1326	1326	1321	1316	1316	1311	1306	1306	1306	1301	1301	1301	1296	1291	1291	1287	1287	1282	1282	1277	1272	1268	1268	1268	1268	1268	1263	1263	1259	1259	1254	1249	1249	1245	1245	1236	1236	1232	1232	1232	1232	1227	1227	1223	1219	1214	1214	1214	1210	1210	1210	1206	1202	1202	1197	1197	1197	1193	1193	1193	1193	1189	1185	1185	1181	1177	1177	1177	1173	1169	1165	1165	1165	1161	1161	1157	1157	1157	1153	1150	1150	1150	1146	1146	1146	1142	1142	1138	1134	1134	1131	1131	1127	1127	1123	1123	1120	1120	1120	1116	1113	1113	1109	1105	1105	1105	1105	1102	1102	1102	1098	1095	1091	1091	1091	1088	1088	1085	1085	1078	1078	1078	1074	1074	1071	1071	1068	1068	1068	1064	1064	1061	1061	1061	1058	1055	1055	1052	1052	1048	1048	1045	1045	1045	1039	1039	1036	1036	1036	1036	1033	1030	1026	1026	1023	1023	1020	1020	1017	1014	1014	1011	1011	1006	1006	1003	1000	1000	1000	1000	997	997	997	994	994	991	988	988	988	985	985	983	983	977	977	977	974	972	969	969	966	966	966	966	966	963	963	961	961	958	955	955	950	950	950	948	948	948	948	945	942	942	940	937	935	935	935	932	932	932	932	930	930	927	927	925	925	925	922	920	917	917	915	915	915	915	915	915	915	915	0	0	0	0	0	0	0	0	0	0	0	0	0	0	0	0
0	0	0	0	0	0	0	0	0	0	0	0	0	0	0	0	0	0	0	0	0	0	0	2051	2039	2039	2039	2015	2015	2027	2039	2051	2051	2051	2063	2063	2063	2076	2063	2063	2063	2076	2076	2076	2088	2088	2088	2088	2088	2088	2114	2167	2167	2181	2181	0	0	0	0	0	0	0	0	0	0	0	0	0	0	0	0	2114	2114	2114	2101	2088	2088	2114	2127	2127	2127	2127	2127	2127	2127	2114	2114	2101	2101	0	0	0	2153	2153	2153	2153	2114	2114	2114	2114	2114	2114	2114	0	0	0	0	0	0	0	0	0	0	0	0	0	0	0	0	0	0	2167	2167	2181	2181	2194	2194	2194	2194	2194	2208	0	0	0	0	0	0	0	0	0	0	2181	2181	2181	2181	2181	2223	2223	2223	2223	2223	2223	2223	2223	2181	2181	2208	2181	2181	2181	2181	2181	2181	2194	2194	2194	2208	2208	2208	2208	2223	2223	2223	2223	2223	2237	2223	2208	2208	2208	2208	2208	2208	2208	2194	2194	2167	2167	2167	2153	2153	2153	2153	2140	2127	2114	2114	2101	2101	2088	2088	2088	2088	2076	2076	2076	2076	0	1567	1560	1560	1553	1546	1546	1546	1539	1539	1532	1525	1525	1519	1519	1512	1512	1506	1499	1492	1486	1486	1480	1473	1467	1467	1461	1461	1455	1449	1443	1437	1437	1425	1419	1419	1419	1413	1413	1413	1407	1402	1396	1396	1390	1390	1385	1379	1374	1368	1363	1358	1352	1352	1352	1352	1347	1347	1342	1336	1331	1331	1326	1326	1321	1316	1311	1306	1301	1301	1296	1291	1291	1291	1287	1282	1277	1272	1272	1268	1268	1263	1259	1259	1249	1249	1245	1240	1240	1236	1232	1232	1227	1227	1223	1223	1219	1214	1214	1210	1206	1202	1197	1193	1189	1185	1185	1181	1181	1181	1177	1177	1177	1173	1165	1165	1161	1161	1157	1157	1153	1150	1146	1146	1142	1138	1138	1134	1134	1131	1123	1123	1120	1120	1116	1116	1113	1109	1109	1105	1105	1102	1098	1095	1095	1091	1088	1088	1085	1081	1081	1074	1074	1071	1071	1071	1071	1071	1071	1074	1074	1074	1078	1078	1081	1081	1081	1081	1085	1085	1085	1336	1331	1326	1326	1326	1326	1326	1326	1321	1321	1316	1311	1306	1306	1306	1306	1306	1301	1296	1291	1291	1287	1287	1282	1282	1277	1272	1268	1268	1268	1268	1268	1263	1263	1263	1259	1254	1249	1249	1245	1245	1236	1236	1232	1232	1232	1232	1227	1227	1223	1219	1214	1214	1214	1210	1210	1210	1206	1202	1202	1197	1197	1197	1197	1193	1193	1193	1189	1185	1185	1181	1177	1177	1177	1173	1169	1165	1165	1165	1161	1161	1157	1157	1153	1153	1150	1150	1146	1146	1146	1142	1142	1142	1138	1134	1134	1131	1131	1131	1127	1123	1123	1120	1120	1120	1116	1113	1113	1109	1105	1105	1105	1105	1102	1102	1102	1098	1095	1091	1091	1091	1088	1088	1085	1085	1078	1078	1078	1074	1074	1074	1071	1071	1068	1068	1064	1064	1061	1061	1061	1058	1055	1052	1052	1052	1048	1048	1048	1045	1045	1039	1039	1036	1036	1036	1036	1033	1030	1026	1026	1023	1023	1020	1020	1017	1014	1014	1011	1011	1006	1003	1003	1000	1000	1000	1000	997	997	997	994	994	991	988	988	985	985	985	983	983	980	977	977	974	972	969	969	966	966	966	966	966	963	963	961	961	958	955	953	953	950	950	950	948	948	948	945	942	942	942	940	937	937	935	935	932	930	930	927	927	927	927	925	925	925	922	920	917	917	917	915	915	915	915	915	915	915	0	0	0	0	0	0	0	0	0	0	0	0	0	0	0	0
0	0	0	0	0	0	0	0	0	0	0	0	0	0	0	0	0	0	0	0	0	0	0	0	2027	2027	2027	2015	2015	2027	2027	2039	2027	2027	2039	2051	2051	2051	2051	2051	2051	2051	2063	2063	2076	2076	2076	2076	2076	2076	2101	2101	2101	0	0	0	0	0	0	0	0	0	0	0	0	0	0	0	0	0	0	2088	2088	2088	2076	2076	2076	2088	2088	2088	2114	2114	2114	2114	2101	2088	2088	2088	2088	2076	2076	2076	2167	2167	2167	2167	2114	2101	2101	2101	2101	2101	2101	2101	0	0	0	0	0	0	0	0	0	0	0	0	0	0	0	0	0	2153	2153	2167	2167	2167	2167	2167	2167	2194	0	0	0	0	0	0	0	0	0	2167	2167	2167	2167	2167	2167	2167	2167	2167	2223	2223	2223	2223	2208	2181	2181	2181	2167	2167	2167	2167	2167	2167	2167	2167	2167	2181	2194	2194	2194	2194	2194	2194	2208	2208	2208	2208	2208	2208	2208	2208	2208	2194	2194	2194	2181	2181	2167	2167	2167	2153	2153	2153	2153	2140	2140	2114	2114	2114	2101	2101	2088	2088	2088	2076	2076	2076	2076	0	1567	1560	1560	1553	1546	1546	1546	1539	1539	1532	1525	1525	1519	1519	1512	1512	1506	1499	1492	1486	1486	1480	1473	1467	1467	1461	1461	1455	1449	1443	1437	1437	1425	1419	1419	1419	1413	1413	1413	1407	1402	1396	1396	1390	1385	1379	1379	1374	1368	1363	1358	1352	1352	1352	1352	1347	1347	1342	1336	1331	1331	1326	1326	1321	1316	1311	1306	1301	1301	1296	1291	1291	1291	1287	1282	1277	1272	1272	1268	1268	1263	1259	1259	1249	1249	1245	1245	1240	1236	1232	1232	1232	1227	1223	1223	1219	1219	1214	1210	1210	1202	1197	1193	1189	1185	1185	1181	1181	1181	1177	1177	1177	1173	1165	1165	1161	1161	1157	1157	1153	1150	1146	1146	1142	1138	1134	1134	1131	1131	1127	1123	1120	1120	1116	1116	1113	1109	1105	1105	1102	1098	1098	1095	1095	1091	1088	1088	1085	1081	1078	1074	1071	1071	1071	1071	1071	1071	1071	1074	1074	1074	1078	1078	1081	1081	1081	1081	1085	1085	0	1331	1331	1326	1326	1326	1326	1326	1326	1321	1321	1316	1311	1306	1306	1306	1306	1306	1301	1296	1291	1291	1287	1287	1282	1282	1277	1272	1268	1268	1268	1268	1268	1263	1263	1263	1259	1254	1249	1249	1245	1245	1236	1236	1232	1232	1232	1227	1227	1227	1223	1219	1214	1214	1214	1210	1210	1210	1206	1206	1202	1202	1197	1197	1197	1197	1193	1193	1193	1189	1185	1181	1181	1177	1177	1169	1169	1165	1165	1165	1161	1161	1157	1153	1153	1150	1150	1150	1146	1146	1146	1142	1142	1138	1138	1134	1134	1131	1131	1131	1127	1123	1123	1120	1120	1120	1116	1113	1113	1109	1105	1105	1105	1105	1105	1102	1102	1098	1095	1095	1091	1091	1088	1088	1085	1085	1078	1078	1078	1074	1074	1074	1071	1071	1068	1064	1064	1061	1061	1061	1061	1058	1055	1052	1052	1052	1048	1048	1045	1045	1045	1039	1039	1036	1036	1036	1036	1033	1030	1026	1026	1023	1020	1020	1017	1017	1014	1014	1011	1008	1006	1003	1000	1000	1000	1000	1000	997	997	997	994	994	991	988	988	985	985	985	983	980	980	977	977	974	972	969	969	966	966	966	966	966	963	963	961	958	958	955	953	953	950	950	950	948	948	948	945	942	942	942	940	937	937	935	935	932	930	930	927	927	927	927	925	925	925	922	922	917	917	915	915	915	915	915	915	915	915	0	0	0	0	0	0	0	0	0	0	0	0	0	0	0	0
0	0	0	0	0	0	0	0	0	0	0	0	0	0	0	0	0	0	0	0	0	0	0	0	2015	2015	2015	2003	2003	2015	2015	2015	2015	2015	2027	2027	2039	2027	2027	2027	2039	2027	2027	2063	2063	2063	2063	2063	2063	2051	2051	2051	2051	0	0	0	0	0	0	0	0	0	0	0	0	0	0	0	0	0	0	2076	2063	2063	2063	2063	2076	2076	2063	2063	2114	2114	2114	2114	2076	2063	2063	2076	2063	2063	2063	2051	2051	2051	2051	2114	2114	2076	2063	2063	2063	2063	2063	2063	2076	2076	2076	0	0	0	0	2088	2088	2076	2076	2088	2088	2088	0	0	0	2153	2153	2167	2167	2167	2167	2167	2167	0	0	0	0	0	0	0	0	0	0	2167	2153	2153	2153	2153	2153	2153	2153	2153	2223	2223	2223	2223	2208	2181	2167	2167	2167	2153	2153	2153	2153	2153	2153	2153	2153	2167	2181	2181	2181	2167	2167	2167	2167	2167	2167	2181	2181	2181	2194	2194	2194	2194	2194	2194	2181	2181	2167	2167	2153	2153	2153	2153	2153	2140	2127	2114	2114	2114	2101	2101	2088	2088	2088	2076	2076	2076	2076	0	1567	1560	1560	1553	1546	1546	1546	1539	1539	1532	1525	1525	1519	1519	1512	1512	1506	1499	1492	1486	1486	1480	1473	1467	1467	1461	1461	1455	1449	1443	1437	1437	1425	1419	1419	1419	1413	1413	1413	1407	1402	1396	1396	1390	1385	1379	1379	1368	1368	1363	1363	1358	1352	1352	1352	1347	1347	1342	1336	1331	1331	1326	1326	1321	1316	1311	1306	1301	1301	1296	1291	1291	1291	1287	1282	1277	1272	1272	1268	1268	1263	1263	1259	1254	1249	1249	1245	1240	1240	1236	1232	1232	1227	1223	1223	1219	1219	1214	1214	1210	1202	1197	1197	1193	1189	1185	1185	1181	1181	1181	1181	1177	1177	1169	1165	1165	1161	1157	1153	1153	1150	1146	1146	1142	1138	1134	1134	1131	1131	1127	1123	1123	1120	1116	1113	1109	1105	1105	1105	1102	1098	1098	1095	1095	1091	1091	1088	1085	1081	1078	1074	1071	1071	1071	1071	1071	1071	1071	1074	1074	1074	1078	1078	1081	1081	1081	1081	1085	1088	1088	1331	1331	1326	1326	1326	1326	1326	1326	1321	1321	1316	1311	1306	1306	1306	1306	1306	1301	1296	1291	1287	1287	1287	1282	1277	1277	1272	1268	1268	1268	1268	1268	1263	1263	1263	1259	1254	1249	1249	1245	1245	1236	1236	1232	1232	1232	1227	1227	1227	1223	1219	1214	1214	1214	1210	1210	1210	1206	1206	1202	1197	1197	1197	1197	1197	1193	1193	1189	1185	1185	1181	1177	1177	1173	1169	1169	1165	1165	1165	1161	1161	1157	1153	1153	1150	1150	1150	1146	1146	1146	1142	1142	1138	1138	1134	1134	1131	1131	1131	1127	1127	1123	1123	1120	1120	1116	1113	1113	1109	1105	1105	1105	1105	1105	1102	1102	1098	1095	1095	1091	1091	1088	1085	1085	1085	1078	1078	1078	1074	1074	1074	1071	1071	1068	1064	1064	1061	1061	1061	1061	1058	1055	1055	1052	1052	1048	1048	1045	1045	1045	1039	1039	1036	1036	1036	1036	1033	1030	1026	1026	1023	1020	1020	1017	1017	1014	1014	1011	1008	1006	1003	1000	1000	1000	1000	1000	1000	997	997	997	994	991	991	988	988	985	985	983	980	980	977	977	974	972	969	969	966	966	966	966	966	963	961	961	958	958	955	953	953	953	950	950	948	948	948	945	945	942	942	940	940	937	935	935	932	932	930	927	927	927	927	925	925	925	922	922	920	917	915	915	915	915	915	915	915	915	0	0	0	0	0	0	0	0	0	0	0	0	0	0	0	0
0	0	0	0	0	0	0	0	0	0	0	0	0	0	0	0	0	0	0	0	0	0	0	0	2015	2015	2003	2003	2003	1992	1992	2003	2003	2003	2015	2015	2015	2015	2015	2015	2015	2015	2015	2027	2039	2051	2039	2039	2051	2051	2051	2051	2051	0	0	0	0	0	2027	2027	2027	0	0	0	0	0	0	0	0	0	0	2076	2063	2051	2051	2051	2063	2063	2051	2039	2039	2051	2051	2063	2051	2051	2051	2063	2063	2063	2063	2051	2051	2051	2051	2051	2063	2063	2063	2063	2063	2063	2063	2063	2063	2063	2063	2063	2076	2076	2076	2076	2076	2076	2076	2076	2088	2088	2088	0	0	2153	2153	2167	2167	2167	2167	2167	2167	0	0	0	0	0	0	0	0	0	0	2167	2153	2140	2140	2140	2140	2140	2153	2153	0	0	0	0	2208	2181	2167	2127	2127	2114	2114	2153	2127	2127	2140	2140	2140	2153	2167	2153	2153	2140	2140	2140	2153	2153	2153	2167	2167	2167	2167	2181	2194	2194	2194	2194	2167	2167	2167	2167	2153	2153	2153	2153	2153	2140	2127	2114	2114	2114	2101	2101	2088	2088	2088	2076	2076	2076	2076	0	1560	1560	1553	1553	1546	1546	1546	1539	1539	1532	1525	1525	1519	1519	1512	1512	1506	1499	1492	1486	1486	1480	1473	1467	1467	1461	1461	1455	1449	1449	1443	1437	1431	1425	1419	1419	1413	1413	1413	1407	1402	1396	1396	1390	1385	1385	1379	1368	1368	1363	1358	1352	1352	1352	1347	1347	1347	1342	1336	1331	1326	1326	1321	1316	1311	1311	1306	1301	1301	1296	1291	1291	1291	1287	1282	1277	1272	1272	1268	1268	1263	1263	1259	1254	1249	1249	1245	1245	1240	1236	1232	1232	1227	1223	1223	1219	1219	1214	1210	1210	1202	1197	1197	1193	1189	1189	1185	1181	1181	1181	1181	1181	1177	1169	1165	1161	1157	1153	1153	1150	1150	1146	1146	1142	1138	1134	1134	1134	1131	1127	1127	1123	1120	1116	1113	1109	1105	1105	1102	1102	1098	1098	1095	1095	1091	1088	1088	1085	1081	1078	1074	1071	1071	1071	1071	1068	1068	1071	1071	1074	1074	1074	1078	1078	1081	1081	1085	1085	1085	1088	1331	1331	1326	1326	1326	1326	1326	1326	1321	1321	1316	1311	1306	1306	1306	1306	1306	1301	1296	1291	1287	1287	1287	1282	1277	1277	1272	1268	1268	1268	1268	1268	1263	1263	1263	1259	1254	1249	1249	1245	1245	1236	1236	1232	1232	1232	1227	1227	1227	1223	1219	1214	1214	1214	1214	1210	1210	1206	1202	1202	1197	1197	1197	1197	1197	1197	1193	1189	1185	1185	1181	1177	1177	1173	1169	1169	1165	1165	1165	1161	1161	1157	1153	1150	1150	1150	1150	1146	1146	1146	1142	1142	1138	1138	1134	1134	1131	1131	1131	1127	1127	1127	1123	1120	1120	1116	1113	1113	1109	1105	1105	1105	1105	1105	1102	1102	1098	1095	1095	1091	1091	1088	1085	1085	1085	1078	1078	1078	1074	1074	1071	1071	1068	1068	1064	1064	1061	1061	1061	1061	1058	1055	1055	1052	1052	1048	1048	1048	1045	1045	1042	1039	1039	1036	1036	1036	1033	1030	1030	1026	1023	1020	1020	1020	1017	1014	1014	1011	1008	1006	1003	1000	1000	1000	997	997	997	997	997	997	994	991	991	988	985	985	985	983	983	980	977	977	974	972	969	969	966	966	966	966	966	963	961	958	958	955	955	953	953	950	950	950	948	948	948	945	945	942	942	940	940	937	935	935	932	932	930	930	927	927	927	925	925	925	922	922	920	917	917	915	915	915	915	915	915	915	0	0	0	0	0	0	0	0	0	0	0	0	0	0	0	0
0	0	0	0	0	0	0	0	0	0	0	0	0	0	0	0	0	0	0	0	0	0	0	0	2015	2015	1992	1992	1992	1992	1992	1980	1980	1980	1992	1992	1992	2003	2003	2015	2015	2015	2015	2015	2027	2015	2003	1992	1992	2015	1992	1992	1992	2027	2027	2027	2027	0	2027	2027	2027	0	0	0	0	0	0	0	0	0	0	2076	2063	2015	2015	2039	2051	2051	2051	2039	2039	2051	2051	2051	2051	2039	2039	2051	2051	2051	2051	2039	2039	2039	2039	2039	2051	2051	2039	2039	2051	2051	2051	2051	2051	2051	2051	2051	2063	2063	2063	2076	2076	2063	2063	2063	2088	2088	2088	0	0	0	0	2167	2167	2167	2167	2167	0	0	0	0	0	0	0	0	0	0	0	0	2153	2140	2140	2140	2101	2101	2101	2153	0	0	0	0	0	2114	2114	2114	2101	2101	2101	2101	2114	2114	2127	2127	2127	2127	2127	2127	2127	2114	2114	2127	2127	2127	2140	2140	2140	2140	2140	2140	2167	2167	2114	2114	2140	2140	2140	2140	2140	2140	2140	2127	2127	2127	2114	2114	2114	2101	2101	2101	2088	2088	2088	2076	2076	2076	2076	0	1560	1560	1553	1553	1546	1546	1546	1539	1539	1532	1532	1525	1519	1519	1519	1512	1506	1499	1492	1486	1480	1473	1473	1467	1467	1461	1461	1455	1449	1443	1443	1437	1431	1425	1419	1413	1413	1413	1407	1407	1402	1396	1396	1390	1385	1385	1379	1368	1368	1363	1358	1358	1352	1352	1352	1347	1347	1342	1336	1331	1326	1326	1321	1316	1311	1311	1306	1301	1301	1296	1291	1291	1287	1287	1282	1277	1272	1272	1268	1268	1263	1259	1259	1254	1249	1249	1245	1245	1240	1236	1232	1232	1227	1223	1219	1219	1219	1214	1210	1210	1202	1197	1197	1197	1193	1189	1185	1185	1185	1181	1181	1181	1177	1165	1165	1161	1157	1153	1153	1150	1150	1146	1146	1138	1138	1134	1134	1134	1131	1127	1123	1123	1120	1116	1113	1109	1105	1102	1102	1102	1098	1095	1095	1091	1091	1088	1088	1085	1081	1078	1074	1074	1071	1071	1071	1068	1068	1071	1074	1074	1074	1078	1078	1081	1085	1085	1085	1088	1088	1088	1331	1326	1326	1326	1326	1326	1326	1326	1321	1321	1311	1311	1306	1306	1306	1306	1306	1301	1296	1287	1287	1287	1287	1282	1277	1277	1272	1268	1268	1268	1268	1268	1263	1263	1259	1259	1254	1249	1249	1245	1245	1236	1236	1232	1232	1232	1227	1227	1227	1223	1219	1214	1214	1214	1214	1210	1210	1206	1202	1197	1197	1197	1197	1197	1197	1193	1193	1189	1185	1185	1181	1177	1177	1173	1169	1169	1165	1165	1165	1161	1161	1157	1153	1150	1150	1150	1150	1146	1146	1146	1142	1142	1138	1138	1134	1134	1131	1131	1131	1127	1127	1123	1123	1120	1120	1116	1113	1113	1109	1105	1105	1105	1105	1102	1102	1102	1098	1095	1091	1091	1091	1088	1085	1085	1085	1081	1078	1078	1074	1074	1071	1071	1068	1068	1064	1064	1064	1061	1061	1061	1058	1058	1055	1052	1052	1048	1048	1048	1045	1045	1042	1039	1036	1036	1036	1033	1033	1030	1030	1026	1023	1023	1020	1020	1017	1017	1014	1011	1011	1006	1003	1000	1000	1000	997	997	997	997	997	997	994	991	991	988	985	985	985	983	983	980	977	977	974	972	969	969	966	966	966	966	963	963	961	958	958	955	955	953	953	950	950	950	948	948	948	945	945	942	942	940	940	937	935	935	932	932	930	930	927	927	927	927	925	925	922	922	920	920	917	917	917	917	915	915	915	915	0	0	0	0	0	0	0	0	0	0	0	0	0	0	0	0
0	0	0	0	0	0	0	0	0	0	0	0	0	0	0	0	0	0	0	0	0	0	0	0	2015	2015	1992	1980	1980	1980	1980	1969	1969	1980	1992	1992	1992	2003	2003	2015	2015	2015	2015	2015	2015	2003	1992	1980	1980	1980	1980	1992	1992	1992	2003	2027	2027	1992	1992	1992	1992	1992	1992	0	0	0	0	0	0	0	0	0	0	2003	2003	2015	2027	2027	2051	2039	2039	2051	2051	2051	2039	2027	2027	2039	2039	2039	2039	2027	2027	2027	2027	2027	2027	2015	2015	2027	2039	2039	2039	2039	2039	2039	2039	2051	2051	2051	2063	2063	2063	2063	2063	2063	2063	2063	2088	0	2027	2015	2015	2015	2015	2015	2015	0	0	0	0	0	0	2039	2039	2039	2039	2039	2039	0	0	2140	2140	2140	2088	2088	2088	2088	0	0	0	0	0	2114	2114	2101	2088	2088	2088	2088	2101	2101	2101	2101	2101	2101	2101	2101	2101	2088	2101	2114	2114	2114	2114	2127	2127	2114	2101	2101	2101	2101	2101	2114	2114	2114	2127	2140	2127	2127	2114	2114	2114	2114	2101	2101	2114	2101	2088	2088	2076	2076	2076	2076	2076	2076	2076	0	1567	1560	1553	1553	1546	1546	1546	1546	1539	1532	1532	1525	1519	1519	1519	1512	1506	1499	1492	1486	1480	1473	1473	1467	1467	1461	1461	1455	1449	1443	1443	1437	1437	1425	1419	1419	1413	1413	1407	1407	1402	1396	1396	1390	1385	1385	1379	1368	1368	1363	1363	1358	1352	1352	1352	1347	1347	1342	1336	1331	1326	1326	1321	1316	1311	1311	1306	1301	1301	1296	1291	1291	1287	1287	1282	1277	1272	1272	1268	1268	1263	1259	1254	1254	1249	1249	1245	1245	1240	1236	1236	1232	1227	1223	1219	1219	1219	1214	1210	1210	1202	1197	1197	1197	1193	1189	1189	1185	1185	1181	1181	1177	1173	1165	1165	1161	1157	1153	1153	1150	1150	1146	1146	1142	1142	1138	1134	1134	1131	1127	1123	1123	1120	1116	1116	1109	1105	1102	1102	1102	1098	1095	1095	1091	1091	1088	1088	1085	1081	1078	1074	1074	1071	1071	1071	1068	1068	1071	1074	1074	1074	1078	1078	1081	1085	1085	1085	1088	1088	1088	1331	1326	1326	1326	1326	1326	1326	1326	1321	1316	1311	1311	1306	1306	1306	1306	1301	1296	1291	1287	1287	1287	1287	1282	1277	1277	1272	1268	1268	1268	1268	1263	1263	1263	1259	1259	1254	1249	1249	1245	1245	1240	1240	1236	1236	1232	1232	1227	1227	1223	1219	1219	1219	1214	1214	1210	1210	1206	1202	1197	1197	1197	1197	1197	1197	1193	1193	1189	1185	1185	1181	1177	1177	1173	1169	1169	1165	1165	1165	1161	1161	1157	1153	1150	1150	1150	1150	1146	1146	1142	1142	1142	1138	1134	1134	1134	1131	1131	1131	1127	1127	1123	1120	1120	1120	1116	1116	1113	1109	1105	1105	1105	1105	1102	1102	1102	1098	1095	1091	1091	1091	1088	1085	1085	1085	1081	1078	1078	1078	1074	1074	1071	1071	1068	1064	1064	1064	1064	1061	1061	1061	1058	1055	1052	1052	1048	1048	1048	1045	1042	1039	1039	1036	1036	1036	1033	1030	1030	1026	1026	1023	1023	1020	1020	1017	1017	1014	1011	1011	1006	1003	1003	1000	1000	997	997	997	997	997	994	994	991	988	988	985	985	985	983	983	983	980	977	974	972	969	969	966	966	966	966	963	963	961	958	958	955	955	953	953	953	950	950	948	948	945	945	945	942	942	942	940	937	937	935	935	932	930	930	927	927	927	927	925	925	922	922	920	920	920	917	917	920	915	915	915	915	0	0	0	0	0	0	0	0	0	0	0	0	0	0	0	0
0	0	0	0	0	0	0	0	0	0	0	0	0	0	0	0	0	0	0	0	0	0	0	0	0	0	1980	1980	1980	1969	1958	1958	1958	1958	1969	1969	1980	1980	2003	2003	2003	2003	2003	2003	2003	1980	1969	1969	1969	1969	1969	1969	1969	1969	1969	1980	1980	1969	1969	1980	1980	1980	1992	1992	0	0	0	0	0	0	0	1992	1992	1992	1992	2003	2015	2015	2015	2015	2015	2015	2015	2015	2015	2015	2015	2027	2027	2039	2039	2027	2027	2015	2015	2015	2015	2015	2003	2003	2003	2015	2015	2027	2027	2015	2027	2027	2027	2039	2039	2039	2051	2051	2051	2051	2051	2051	1992	1992	1992	1992	1992	2003	2003	2003	2003	2003	2003	2015	2015	2015	2015	2015	2027	2015	2015	2015	2015	2015	2015	0	2140	2003	2003	2088	2088	2088	0	0	0	0	0	2063	2063	2063	2063	2063	2063	2063	2088	2088	2088	2101	2101	2101	2101	2101	2076	2076	2101	2101	2101	2101	2101	2101	2101	2076	2063	2063	2063	2051	2051	2051	2114	2114	2114	2114	2101	2101	2101	2101	2101	2088	2088	2088	2101	2101	2088	2088	2076	2076	2076	2076	2076	2063	2063	0	1567	1560	1553	1553	1546	1546	1546	1546	1539	1532	1525	1525	1519	1519	1512	1512	1506	1499	1492	1492	1480	1480	1473	1467	1467	1461	1461	1455	1449	1443	1437	1437	1437	1431	1425	1419	1413	1413	1407	1407	1402	1396	1396	1390	1390	1385	1379	1368	1368	1363	1363	1358	1352	1352	1352	1347	1347	1342	1336	1331	1326	1326	1321	1316	1311	1311	1306	1306	1301	1296	1291	1291	1287	1287	1282	1282	1272	1272	1268	1268	1263	1259	1254	1254	1249	1249	1245	1240	1240	1236	1236	1232	1227	1223	1219	1219	1219	1214	1210	1210	1202	1197	1197	1197	1193	1193	1189	1185	1185	1181	1181	1177	1173	1165	1165	1161	1157	1157	1153	1150	1150	1146	1146	1142	1142	1138	1134	1134	1131	1127	1127	1123	1123	1116	1116	1109	1105	1102	1102	1102	1098	1098	1095	1095	1091	1091	1088	1085	1081	1078	1074	1074	1071	1071	1071	1071	1071	1071	1074	1074	1074	1078	1078	1081	1085	1085	1085	1088	1088	1088	1088	1326	1326	1326	1326	1326	1326	1326	1321	1316	1311	1311	1306	1306	1306	1301	1301	1296	1291	1287	1287	1287	1287	1282	1277	1277	1272	1268	1268	1268	1268	1263	1263	1263	1259	1259	1254	1249	1249	1249	1245	1240	1240	1240	1236	1232	1232	1227	1227	1223	1219	1219	1219	1214	1214	1210	1210	1206	1202	1202	1202	1197	1197	1197	1197	1193	1193	1189	1185	1181	1181	1177	1177	1173	1173	1169	1169	1165	1165	1161	1161	1157	1157	1153	1153	1150	1150	1150	1150	1142	1142	1142	1138	1134	1134	1134	1134	1131	1131	1127	1123	1123	1120	1120	1120	1116	1116	1113	1109	1109	1105	1105	1102	1102	1102	1102	1095	1091	1091	1091	1091	1088	1088	1085	1081	1078	1078	1078	1078	1074	1074	1071	1071	1068	1068	1064	1064	1064	1061	1061	1061	1058	1055	1048	1048	1048	1048	1048	1045	1042	1039	1039	1036	1036	1036	1033	1030	1030	1026	1026	1023	1023	1020	1020	1017	1017	1014	1011	1011	1006	1003	1003	1000	1000	997	997	997	997	997	994	994	991	988	988	985	985	985	983	983	983	980	977	974	972	969	969	966	966	966	966	963	963	961	958	958	955	955	953	953	953	950	950	948	948	945	945	945	942	942	942	940	937	937	935	935	932	932	930	930	927	927	925	925	922	922	922	922	920	920	917	917	920	915	915	915	915	0	0	0	0	0	0	0	0	0	0	0	0	0	0	0	0
0	0	0	0	0	0	0	0	0	0	0	0	0	0	0	0	0	0	0	0	0	0	0	0	1883	1883	1883	1980	1980	1969	1947	1936	1936	1947	1947	1947	1958	1958	1958	1980	1992	1992	2003	2003	1969	1958	1947	1947	1947	1958	1947	1947	1947	1947	1947	1958	1958	1969	1969	1969	1969	1980	1980	1980	1980	1980	0	0	0	0	1980	1980	1980	1992	1992	1992	2003	2003	2003	2015	2015	1969	1958	1958	1958	1969	1980	2003	2003	2003	2003	1992	1992	1980	1969	1969	1969	1969	1969	1969	1969	1980	2003	2003	2003	2003	2003	2003	2015	2027	2039	2051	2051	2051	2051	1958	1958	1980	1980	1980	1980	1980	1992	1992	1992	1992	1992	1992	2003	1992	1992	2003	2015	2015	2015	1992	1992	1992	1992	2003	2003	0	2003	2003	2003	2015	2015	2015	2015	2027	2039	2039	2039	2039	2051	2051	2051	2051	2051	2051	2063	2063	2063	2063	2088	2101	2101	2051	2051	2051	2051	2076	2076	2076	2076	2063	2051	2051	2051	2051	2051	2051	2051	2051	2051	2088	2088	2088	2088	2088	2076	2076	2076	2076	2063	2063	2063	2063	2063	2063	2063	2063	2063	2063	2063	2063	2063	2063	1567	1553	1553	1553	1546	1546	1546	1546	1539	1532	1525	1519	1519	1519	1512	1512	1499	1499	1492	1486	1480	1480	1473	1467	1467	1461	1461	1461	1449	1443	1437	1437	1437	1431	1425	1419	1419	1413	1407	1407	1402	1396	1396	1390	1390	1390	1379	1374	1368	1368	1363	1358	1358	1352	1352	1347	1347	1342	1336	1331	1326	1326	1321	1316	1316	1311	1306	1306	1301	1296	1291	1291	1287	1287	1282	1282	1277	1272	1268	1268	1263	1259	1254	1249	1249	1245	1245	1240	1240	1236	1232	1232	1227	1223	1223	1219	1219	1214	1210	1210	1202	1202	1197	1197	1197	1193	1189	1185	1185	1181	1177	1177	1173	1165	1165	1161	1157	1157	1153	1150	1150	1146	1146	1146	1142	1138	1134	1134	1131	1131	1127	1127	1123	1116	1116	1109	1105	1105	1102	1102	1098	1098	1095	1091	1091	1088	1088	1085	1081	1081	1074	1074	1071	1071	1071	1071	1071	1074	1074	1074	1074	1078	1078	1081	1085	1085	1085	1088	1088	1088	1088	1326	1326	1326	1326	1326	1326	1326	1321	1316	1311	1311	1306	1306	1306	1301	1301	1296	1291	1287	1287	1287	1287	1282	1277	1277	1272	1268	1268	1268	1268	1263	1263	1263	1259	1259	1254	1249	1249	1249	1245	1245	1240	1240	1236	1232	1232	1232	1227	1227	1223	1219	1219	1214	1214	1214	1210	1206	1206	1202	1202	1197	1197	1197	1193	1193	1189	1189	1185	1181	1181	1177	1177	1173	1173	1169	1169	1165	1165	1165	1161	1161	1157	1157	1153	1153	1150	1150	1146	1142	1142	1142	1138	1134	1134	1134	1134	1131	1127	1127	1123	1120	1120	1120	1116	1116	1116	1113	1109	1109	1105	1105	1102	1102	1098	1098	1098	1095	1095	1091	1091	1088	1088	1085	1081	1078	1078	1078	1078	1074	1074	1071	1071	1071	1068	1064	1064	1064	1061	1061	1061	1058	1055	1048	1048	1048	1048	1045	1045	1042	1039	1039	1036	1036	1036	1033	1030	1030	1030	1026	1023	1023	1020	1020	1017	1017	1014	1014	1011	1006	1003	1003	1000	1000	997	997	997	997	997	994	994	991	988	988	985	985	985	985	983	983	980	977	974	972	969	969	966	966	966	963	963	961	961	958	955	955	955	953	953	953	950	950	948	948	948	945	945	942	942	940	940	937	935	935	935	932	932	930	930	927	927	925	925	922	922	922	922	920	917	917	917	920	917	917	917	917	0	0	0	0	0	0	0	0	0	0	0	0	0	0	0	0
0	0	0	0	0	0	0	0	0	0	0	0	0	0	0	0	0	0	0	0	0	0	0	0	1883	1883	1873	1873	1873	1873	1925	1915	1915	1925	1925	1936	1936	1925	1925	1936	1936	1936	1936	1936	1936	1936	1936	1936	1936	1947	1947	1947	1936	1936	1947	1947	1947	1947	1958	1958	1969	1947	1958	1958	1958	1958	0	0	0	0	1958	1958	1969	1969	1969	1969	1969	1969	1969	1936	1936	1936	1936	1936	1936	1947	1958	1969	1969	1980	1980	1958	1958	1958	1958	1958	1958	1947	1947	1958	1958	1958	1958	1969	1980	1992	1980	1980	1992	2027	2039	2039	1958	1958	1958	1958	1958	1969	1969	1969	1980	1980	1980	1980	1980	1980	1980	1980	1992	1992	1992	2003	2003	2003	1992	1980	1980	1980	1980	1992	1992	1992	1992	1992	2003	1980	1980	2003	2003	2003	2039	2039	2003	2003	2039	2015	2015	2027	2039	2039	2039	2039	2039	2051	2051	2051	2027	2027	2027	2039	2039	2039	2039	2039	2051	2039	2039	2039	2039	2039	2039	2039	2051	2051	2051	2063	2063	2063	2051	2051	2051	2051	2063	2051	2051	2051	2051	2051	2051	2051	2051	2051	2063	2063	2051	2051	2051	2051	0	1553	1553	1553	1553	1546	1546	1546	1539	1532	1525	1519	1519	1519	1512	1506	1499	1492	1492	1486	1480	1480	1473	1467	1467	1461	1461	1455	1449	1443	1443	1437	1437	1431	1431	1419	1419	1413	1407	1402	1402	1396	1396	1390	1390	1390	1379	1374	1368	1363	1358	1358	1352	1352	1347	1347	1342	1342	1336	1331	1326	1326	1321	1316	1316	1311	1311	1306	1301	1296	1291	1291	1291	1287	1282	1282	1277	1272	1268	1268	1263	1259	1254	1249	1249	1245	1240	1240	1236	1236	1232	1227	1227	1223	1219	1219	1214	1214	1210	1210	1202	1202	1197	1197	1197	1193	1189	1185	1185	1181	1177	1177	1173	1165	1165	1161	1157	1153	1153	1150	1150	1146	1146	1146	1142	1138	1134	1134	1131	1127	1127	1123	1123	1120	1116	1109	1105	1105	1102	1102	1098	1098	1095	1091	1091	1088	1088	1085	1081	1081	1074	1074	1071	1071	1071	1071	1071	1074	1074	1074	1074	1078	1081	1081	1085	1085	1088	1088	1088	1088	1091	1091	1326	1326	1326	1326	1326	1326	1321	1316	1311	1311	1306	1306	1306	1301	1301	1301	1296	1291	1287	1287	1287	1282	1277	1277	1272	1268	1268	1268	1268	1263	1263	1263	1259	1259	1254	1249	1249	1249	1245	1245	1240	1240	1236	1232	1232	1232	1227	1227	1223	1219	1219	1214	1214	1214	1210	1206	1206	1202	1197	1197	1197	1197	1193	1193	1189	1189	1185	1181	1181	1177	1177	1173	1173	1173	1169	1165	1165	1165	1165	1161	1161	1157	1153	1153	1150	1150	1146	1142	1142	1142	1138	1138	1134	1134	1134	1131	1127	1127	1123	1120	1120	1116	1116	1116	1116	1113	1109	1109	1105	1105	1102	1102	1098	1098	1098	1095	1091	1091	1091	1088	1088	1085	1081	1081	1078	1078	1078	1074	1074	1074	1071	1071	1068	1064	1064	1064	1064	1064	1058	1055	1052	1048	1048	1048	1045	1045	1042	1039	1039	1039	1036	1036	1036	1033	1033	1030	1030	1026	1023	1023	1020	1020	1017	1017	1014	1014	1011	1006	1003	1003	1000	1000	997	997	997	997	997	994	994	991	988	988	988	985	985	985	983	983	980	977	974	972	969	969	969	966	966	963	963	961	961	958	955	955	955	953	953	953	950	950	948	948	948	945	945	942	942	940	940	937	935	935	935	932	932	932	930	927	925	925	925	922	922	922	922	920	917	917	917	920	917	917	917	917	0	0	0	0	0	0	0	0	0	0	0	0	0	0	0	0
0	0	0	0	0	0	0	0	0	0	0	0	0	0	0	0	0	0	0	0	0	0	0	0	1873	1873	1863	1863	1873	1894	1894	1904	1904	1904	1915	1925	1925	1915	1915	1915	1925	1925	1925	1904	1915	1915	1915	1915	1925	1925	1915	1915	1925	1925	1925	1904	1894	1894	1915	1915	1915	1915	1936	1936	1925	1925	1925	1915	1915	1925	1925	1958	1958	1958	1958	1958	1947	1936	1936	1936	1925	1925	1925	1936	1936	1936	1936	1925	1925	1947	1947	1936	1936	1936	1936	1936	1947	1936	1936	1947	1947	1947	1947	1947	1958	1958	1958	1958	1969	1969	1958	1958	1958	1958	1958	1958	1958	1969	1969	1969	1969	1969	1969	1969	1969	1969	1969	1969	1980	1980	1980	1980	1980	1980	1969	1969	1969	1969	1969	1969	1969	1980	1980	1980	1992	1980	1969	1969	1969	1969	1980	1980	1980	2003	2003	2003	2003	2003	2015	2015	2015	2015	2015	2027	2015	2015	2015	2015	2015	2027	2015	2015	2015	2015	2015	2015	2015	2015	2015	2027	2027	2039	2039	2039	2039	2039	2051	2039	2039	2039	2039	2039	2051	2039	2039	2039	2051	2039	2039	2039	2039	2051	2051	2051	2051	2039	2039	2051	1560	1560	1553	1553	1553	1553	1546	1546	1539	1532	1525	1519	1519	1519	1512	1506	1499	1492	1492	1486	1480	1480	1473	1467	1467	1461	1461	1455	1449	1443	1443	1443	1437	1431	1431	1419	1419	1413	1407	1402	1402	1396	1396	1390	1390	1385	1379	1374	1368	1363	1358	1358	1352	1352	1347	1347	1342	1342	1336	1331	1326	1326	1321	1316	1316	1311	1311	1306	1301	1296	1291	1291	1291	1287	1287	1282	1277	1272	1268	1268	1263	1259	1254	1249	1249	1245	1240	1240	1236	1236	1232	1227	1227	1223	1219	1219	1214	1214	1210	1210	1202	1202	1197	1197	1197	1193	1189	1185	1185	1181	1177	1177	1173	1165	1165	1161	1157	1153	1153	1150	1150	1146	1146	1146	1142	1138	1134	1134	1131	1127	1123	1123	1123	1120	1116	1113	1109	1105	1102	1102	1098	1098	1098	1091	1091	1091	1088	1085	1085	1081	1078	1074	1074	1074	1071	1071	1071	1074	1074	1074	1074	1078	1081	1081	1085	1088	1088	1088	1088	1088	1091	1091	1331	1331	1326	1326	1326	1326	1321	1316	1311	1311	1306	1306	1306	1301	1301	1301	1296	1291	1287	1287	1287	1282	1277	1277	1277	1272	1268	1268	1268	1263	1263	1263	1259	1259	1254	1254	1249	1249	1245	1240	1240	1240	1236	1232	1232	1232	1227	1227	1223	1223	1219	1219	1214	1210	1210	1206	1206	1202	1197	1197	1197	1193	1193	1193	1189	1189	1185	1181	1181	1177	1177	1177	1173	1173	1169	1165	1165	1165	1161	1161	1157	1157	1153	1153	1150	1150	1146	1146	1142	1142	1138	1138	1134	1134	1134	1131	1127	1127	1123	1120	1120	1116	1116	1116	1113	1113	1109	1109	1105	1105	1102	1102	1098	1098	1098	1095	1091	1091	1091	1088	1088	1088	1085	1081	1078	1078	1078	1074	1074	1074	1071	1071	1068	1068	1064	1064	1064	1064	1058	1055	1052	1048	1048	1048	1045	1045	1042	1039	1039	1039	1036	1036	1036	1033	1033	1030	1030	1026	1026	1023	1023	1023	1023	1017	1017	1014	1011	1006	1006	1003	1000	1000	1000	997	997	997	991	991	991	988	988	988	985	985	985	985	983	983	980	977	974	972	972	969	969	966	966	963	963	961	961	958	958	955	955	953	953	953	950	950	948	948	948	945	945	942	942	940	940	935	935	935	935	932	932	932	930	927	925	925	925	922	922	922	922	922	920	920	920	920	917	917	917	917	0	0	0	0	0	0	0	0	0	0	0	0	0	0	0	0
0	0	0	0	0	0	0	0	0	0	0	0	0	0	0	0	0	0	0	0	0	0	0	0	1873	1863	1853	1853	1853	1873	1883	1883	1883	1883	1883	1883	1863	1863	1873	1873	1873	1873	1873	1883	1883	1883	1894	1894	1904	1904	1894	1894	1904	1915	1904	1883	1883	1883	1894	1894	1894	1894	1894	1915	1904	1904	1904	1915	1925	1915	1915	1925	1936	1936	1936	1936	1925	1925	1925	1925	1925	1915	1915	1925	1925	1925	1925	1925	1925	1925	1925	1925	1925	1925	1925	1925	1925	1925	1925	1925	1936	1936	1936	1936	1936	1936	1936	1936	1947	1936	1936	1936	1936	1947	1947	1947	1936	1969	1969	1969	1969	1969	1958	1958	1958	1958	1947	1947	1958	1958	1958	1958	1969	1958	1947	1947	1947	1947	1947	1969	1969	1969	1969	1980	1980	1969	1969	1969	1969	1969	1969	1969	1969	1980	1980	1980	1980	1992	2003	2003	2003	2003	2015	2015	2003	2003	2003	2003	2003	2003	2003	2003	2003	2003	2015	2015	2015	2015	2015	2015	2015	2015	2027	2027	2027	2027	2027	2027	2027	2015	2015	2027	2027	2027	2027	2039	2039	2039	2039	2027	2027	2039	2039	2039	2039	2039	2039	0	1560	1560	1560	1560	1553	1553	1553	1546	1539	1525	1525	1519	1519	1519	1512	1506	1506	1499	1492	1486	1480	1480	1473	1467	1467	1461	1461	1455	1449	1443	1443	1443	1437	1431	1431	1419	1419	1413	1407	1402	1402	1396	1396	1390	1390	1385	1379	1374	1368	1363	1358	1358	1352	1352	1347	1347	1342	1342	1336	1331	1331	1326	1321	1316	1316	1311	1311	1306	1301	1296	1291	1291	1291	1287	1287	1282	1277	1272	1268	1263	1263	1259	1254	1249	1249	1245	1245	1240	1236	1236	1232	1232	1227	1227	1223	1219	1214	1214	1210	1210	1202	1202	1197	1197	1197	1193	1193	1189	1185	1181	1181	1177	1173	1165	1165	1161	1157	1153	1153	1150	1150	1146	1146	1146	1142	1138	1134	1134	1131	1127	1123	1123	1123	1120	1116	1113	1109	1105	1102	1102	1098	1098	1098	1091	1091	1091	1088	1085	1085	1078	1074	1074	1071	1071	1071	1071	1074	1074	1074	1074	1078	1078	1081	1081	1085	1088	1088	1088	1088	1088	1088	1091	1336	1331	1326	1326	1326	1326	1321	1316	1311	1311	1306	1306	1306	1306	1301	1301	1296	1291	1287	1287	1287	1282	1277	1277	1277	1272	1268	1268	1268	1263	1263	1263	1259	1259	1254	1254	1249	1249	1245	1240	1240	1240	1236	1232	1232	1232	1227	1227	1223	1223	1219	1219	1214	1210	1210	1206	1206	1202	1197	1197	1197	1193	1193	1193	1189	1189	1185	1181	1181	1177	1177	1177	1173	1173	1169	1165	1165	1165	1161	1161	1157	1157	1153	1153	1150	1150	1146	1146	1142	1142	1138	1138	1134	1134	1134	1131	1127	1127	1123	1120	1116	1116	1116	1116	1113	1113	1109	1109	1105	1105	1105	1102	1102	1102	1098	1098	1095	1091	1091	1088	1088	1088	1085	1081	1078	1078	1074	1074	1074	1074	1071	1068	1068	1068	1064	1064	1064	1064	1061	1055	1055	1052	1052	1048	1045	1045	1042	1042	1039	1039	1036	1036	1036	1033	1033	1030	1030	1026	1026	1023	1020	1020	1020	1020	1017	1014	1011	1006	1006	1006	1003	1000	1000	997	997	994	991	991	991	988	988	988	985	985	985	985	983	983	980	977	974	972	972	969	969	966	966	963	963	961	961	961	958	955	955	955	953	953	950	950	948	948	948	945	945	942	942	942	940	935	935	935	935	932	932	932	930	927	927	925	925	922	922	922	922	922	922	922	922	920	917	917	920	920	0	0	0	0	0	0	0	0	0	0	0	0	0	0	0	0
0	0	0	0	0	0	0	0	0	0	0	0	0	0	0	0	0	0	0	0	0	0	0	0	1853	1853	1853	1853	1863	1873	1863	1863	1863	1863	1863	1863	1853	1853	1863	1863	1863	1863	1863	1873	1863	1863	1873	1883	1883	1873	1873	1873	1883	1894	1883	1883	1883	1883	1883	1894	1894	1894	1894	1904	1894	1894	1894	1894	1894	1894	1894	1904	1904	1915	1925	1936	1925	1925	1925	1925	1925	1915	1915	1915	1915	1925	1915	1904	1904	1915	1915	1915	1915	1915	1915	1915	1925	1915	1915	1915	1925	1925	1925	1915	1915	1915	1915	1925	1925	1925	1925	1925	1925	1925	1925	1936	1936	1936	1969	1969	1958	1936	1936	1936	1936	1936	1936	1936	1936	1936	1936	1947	1947	1947	1936	1936	1936	1925	1925	1925	1958	1958	1958	1969	1969	1969	1969	1969	1969	1969	1969	1969	1969	1969	1969	1969	1969	1969	1969	2003	2003	2003	2003	2003	2003	2003	1992	1992	1980	1980	1980	1980	1992	1992	2003	2003	2003	2003	2003	2003	2003	2015	2015	2015	2015	2015	2015	2003	2003	2015	2015	2015	2015	2015	2015	2015	2027	2027	2027	2015	2015	2015	2015	2015	2015	2015	2039	1539	1539	1560	1560	1560	1553	1553	1553	1539	1532	1525	1519	1519	1519	1519	1512	1506	1506	1499	1492	1486	1486	1480	1473	1467	1467	1461	1461	1455	1449	1443	1443	1443	1437	1431	1425	1419	1419	1413	1407	1402	1402	1396	1396	1390	1390	1385	1379	1374	1368	1363	1358	1358	1352	1352	1347	1347	1342	1342	1336	1331	1331	1326	1321	1321	1316	1311	1311	1306	1301	1296	1291	1291	1291	1287	1287	1282	1277	1272	1268	1263	1263	1259	1254	1249	1249	1245	1245	1240	1236	1236	1232	1232	1227	1227	1223	1219	1214	1214	1210	1210	1202	1202	1202	1197	1197	1193	1193	1189	1185	1181	1181	1177	1173	1169	1165	1165	1157	1157	1153	1150	1150	1146	1146	1142	1138	1134	1134	1131	1131	1127	1123	1123	1120	1120	1116	1113	1109	1105	1105	1102	1098	1098	1098	1095	1091	1091	1088	1085	1081	1078	1074	1074	1071	1071	1071	1071	1074	1074	1074	1074	1078	1078	1081	1085	1088	1088	1088	1088	1091	1091	1088	0	1336	1331	1326	1326	1326	1326	1321	1316	1311	1311	1311	1306	1306	1306	1301	1301	1296	1291	1291	1287	1287	1282	1277	1277	1277	1272	1268	1268	1268	1263	1263	1263	1259	1259	1254	1254	1249	1249	1245	1240	1240	1236	1232	1232	1232	1227	1227	1223	1223	1219	1219	1214	1214	1210	1210	1206	1206	1202	1197	1197	1197	1193	1193	1193	1189	1189	1185	1181	1181	1177	1177	1177	1173	1169	1169	1165	1165	1165	1161	1161	1161	1157	1157	1153	1153	1150	1146	1146	1146	1142	1138	1138	1134	1134	1134	1131	1127	1127	1123	1120	1116	1116	1116	1116	1113	1113	1109	1105	1105	1105	1105	1102	1102	1098	1098	1098	1095	1091	1091	1088	1088	1088	1085	1081	1078	1078	1074	1074	1074	1074	1071	1068	1068	1068	1064	1064	1064	1064	1061	1055	1055	1052	1052	1048	1048	1048	1045	1042	1039	1039	1036	1036	1036	1033	1033	1030	1030	1026	1026	1023	1020	1020	1020	1020	1017	1014	1011	1006	1006	1003	1000	1000	1000	1000	997	997	991	991	991	988	988	985	985	985	985	985	983	980	980	977	974	972	972	969	966	966	966	963	963	961	961	961	958	955	955	955	953	953	953	953	950	948	948	948	945	942	942	942	940	937	935	935	935	932	932	932	930	930	927	927	925	925	925	925	922	922	920	920	920	917	917	917	917	917	0	0	0	0	0	0	0	0	0	0	0	0	0	0	0	0
0	0	0	0	0	0	0	0	0	0	0	0	0	0	0	0	0	0	0	0	0	0	0	0	1843	1843	1853	1853	1843	1843	1843	1853	1853	1833	1833	1853	1853	1853	1863	1863	1853	1853	1853	1863	1853	1853	1853	1863	1873	1863	1863	1873	1873	1883	1873	1873	1873	1873	1873	1883	1883	1883	1883	1883	1894	1883	1883	1883	1883	1883	1883	1894	1894	1904	1915	1925	1925	1925	1925	1925	1925	1915	1915	1915	1915	1904	1904	1894	1894	1904	1904	1894	1894	1904	1904	1904	1915	1915	1915	1915	1915	1915	1915	1904	1904	1904	1904	1915	1915	1915	1915	1925	1915	1915	1915	1904	1904	1904	1894	1894	1958	1936	1925	1915	1915	1915	1915	1925	1925	1925	1925	1936	1947	1925	1915	1915	1915	1915	1915	1915	1915	1958	1947	1947	1958	1958	1958	1958	1958	1958	1969	1969	1969	1969	1969	1969	1969	1958	1958	1958	1958	1958	1992	1992	1980	1980	1980	1980	1980	1969	1969	1969	1980	1980	1992	1992	1992	2003	1992	1969	1969	1980	1980	1980	1980	1980	1992	1992	1980	1992	1992	2003	2003	2003	2003	2015	2015	2015	2015	2015	2015	2015	2003	2003	1992	1992	0	1539	1539	1560	1560	1560	1560	1553	1553	1539	1532	1519	1519	1519	1512	1512	1512	1506	1506	1499	1499	1492	1486	1480	1480	1467	1467	1461	1461	1455	1449	1443	1443	1437	1437	1431	1425	1419	1419	1413	1407	1407	1402	1396	1396	1390	1390	1385	1379	1374	1368	1368	1358	1358	1352	1352	1347	1347	1342	1342	1336	1331	1331	1326	1321	1321	1316	1311	1311	1306	1301	1296	1291	1291	1291	1287	1287	1282	1277	1272	1268	1263	1263	1259	1254	1249	1249	1245	1245	1240	1236	1236	1232	1232	1232	1227	1223	1219	1214	1214	1210	1210	1202	1202	1202	1197	1197	1193	1193	1189	1185	1185	1181	1177	1173	1169	1165	1165	1157	1153	1153	1150	1146	1146	1142	1142	1138	1134	1134	1131	1131	1127	1123	1123	1120	1116	1116	1113	1109	1105	1105	1102	1098	1098	1098	1091	1091	1088	1088	1085	1081	1078	1074	1074	1071	1071	1071	1071	1074	1074	1074	1078	1078	1078	1081	1085	1088	1088	1088	1091	1091	1091	0	1342	1336	1336	1331	1331	1331	1326	1326	1316	1316	1311	1311	1306	1306	1306	1301	1301	1296	1291	1291	1287	1287	1282	1277	1277	1277	1272	1268	1268	1268	1263	1263	1263	1259	1259	1254	1254	1249	1249	1245	1240	1236	1236	1232	1232	1227	1227	1223	1223	1223	1219	1219	1214	1214	1210	1210	1206	1206	1202	1197	1197	1197	1197	1193	1193	1189	1189	1185	1181	1181	1177	1177	1173	1173	1169	1169	1165	1165	1165	1165	1161	1161	1157	1157	1153	1153	1150	1146	1146	1146	1142	1138	1138	1134	1134	1134	1131	1131	1127	1123	1120	1120	1116	1116	1116	1113	1113	1109	1105	1105	1105	1105	1102	1102	1098	1098	1098	1095	1091	1091	1088	1088	1088	1085	1081	1078	1078	1074	1074	1074	1074	1071	1071	1068	1068	1064	1064	1064	1061	1058	1055	1052	1052	1052	1048	1048	1048	1045	1042	1039	1039	1039	1036	1036	1036	1033	1033	1030	1026	1026	1023	1020	1020	1020	1020	1017	1014	1011	1006	1006	1003	1000	1000	1000	997	997	997	994	991	991	988	988	985	985	985	985	985	983	980	980	977	974	972	972	969	966	966	966	966	963	963	963	961	961	958	955	955	955	955	953	953	950	950	948	948	945	945	942	942	937	935	935	935	935	932	932	932	930	930	927	927	925	925	925	925	922	922	920	917	917	917	915	915	917	917	0	0	0	0	0	0	0	0	0	0	0	0	0	0	0	0
0	0	0	0	0	0	0	0	0	0	0	0	0	0	0	0	0	0	0	0	0	0	0	0	1843	1843	1843	1833	1824	1824	1824	1824	1824	1824	1824	1824	1833	1843	1853	1853	1853	1853	1853	1853	1843	1843	1843	1853	1853	1853	1853	1853	1853	1853	1853	1853	1863	1863	1873	1873	1873	1873	1873	1883	1883	1873	1873	1873	1873	1873	1873	1883	1883	1894	1904	1915	1915	1915	1925	1915	1915	1904	1904	1894	1894	1894	1894	1894	1894	1894	1894	1894	1894	1894	1894	1894	1915	1904	1904	1904	1883	1883	1883	1894	1894	1894	1894	1904	1904	1904	1915	1915	1904	1904	1904	1894	1894	1894	1894	1894	1883	1894	1894	1894	1904	1904	1915	1915	1915	1915	1915	1925	1925	1925	1925	1894	1894	1894	1894	1894	1904	1915	1915	1936	1958	1947	1947	1947	1958	1958	1958	1958	1958	1958	1958	1958	1947	1947	1947	1947	1936	1936	1969	1969	1969	1969	1969	1969	1969	1969	1969	1969	1969	1969	1969	1969	1980	1969	1969	1969	1969	1958	1958	1969	1969	1969	1969	1969	1980	1980	1980	1980	1980	1992	2003	2003	2003	2003	2003	2003	2003	1992	1992	1980	1969	1969	0	1539	1539	1560	1560	1560	1560	1553	1546	1539	1532	1519	1519	1519	1512	1512	1512	1506	1506	1499	1499	1492	1486	1486	1480	1467	1467	1461	1461	1455	1443	1443	1443	1437	1437	1431	1425	1419	1419	1413	1407	1407	1402	1396	1396	1390	1390	1390	1385	1374	1374	1368	1358	1358	1352	1352	1347	1347	1342	1342	1336	1331	1331	1326	1326	1321	1316	1311	1311	1306	1301	1296	1291	1291	1291	1287	1282	1277	1272	1272	1268	1263	1263	1259	1254	1249	1249	1245	1245	1240	1236	1236	1232	1232	1232	1227	1227	1219	1214	1214	1210	1210	1202	1202	1202	1197	1197	1193	1189	1185	1185	1181	1181	1177	1177	1169	1165	1165	1157	1153	1153	1150	1146	1146	1142	1142	1138	1134	1134	1131	1131	1127	1123	1123	1120	1116	1116	1113	1109	1105	1105	1102	1098	1098	1098	1091	1091	1088	1088	1085	1081	1078	1074	1074	1071	1071	1071	1071	1074	1074	1074	1078	1078	1081	1081	1085	1088	1088	1088	1091	1091	1091	0	1336	1336	1336	1331	1331	1331	1326	1326	1316	1316	1311	1311	1306	1306	1306	1306	1301	1296	1291	1291	1287	1287	1287	1282	1277	1277	1272	1268	1268	1268	1263	1263	1263	1259	1259	1254	1249	1249	1249	1245	1240	1236	1236	1232	1232	1227	1227	1223	1223	1219	1219	1219	1214	1214	1210	1210	1206	1206	1202	1197	1197	1197	1197	1193	1193	1189	1189	1185	1181	1181	1177	1177	1173	1173	1169	1169	1165	1165	1165	1165	1161	1161	1157	1157	1157	1153	1150	1146	1146	1146	1142	1138	1138	1134	1134	1134	1131	1131	1127	1123	1120	1120	1116	1116	1116	1113	1113	1109	1109	1105	1105	1105	1102	1102	1102	1098	1098	1095	1091	1091	1088	1088	1088	1085	1085	1081	1078	1078	1074	1074	1074	1071	1071	1068	1068	1064	1064	1064	1061	1058	1055	1052	1052	1052	1048	1048	1048	1042	1042	1042	1039	1039	1036	1036	1036	1036	1033	1030	1026	1026	1023	1023	1020	1020	1020	1017	1014	1011	1006	1006	1006	1000	1000	1000	997	997	997	994	991	991	988	988	985	985	985	985	983	983	980	977	974	974	972	972	969	969	969	966	966	963	963	963	961	961	958	955	955	955	955	953	953	950	950	948	948	945	942	942	940	937	935	935	935	935	932	932	932	930	927	927	927	925	925	925	922	922	920	917	917	917	917	915	915	917	917	0	0	0	0	0	0	0	0	0	0	0	0	0	0	0	0
0	0	0	0	0	0	0	0	0	0	0	0	0	0	0	0	0	0	0	0	0	0	0	0	1843	1843	1833	1814	1814	1814	1814	1814	1814	1814	1814	1814	1824	1833	1833	1833	1833	1833	1833	1833	1833	1833	1833	1833	1833	1833	1824	1824	1824	1824	1824	1843	1843	1843	1853	1863	1863	1863	1863	1873	1873	1863	1863	1863	1853	1853	1863	1873	1883	1883	1904	1915	1915	1915	1925	1915	1915	1883	1883	1883	1883	1883	1883	1883	1883	1894	1894	1883	1883	1883	1873	1873	1873	1873	1873	1894	1863	1863	1873	1873	1883	1883	1883	1894	1904	1904	1904	1894	1894	1904	1904	1894	1894	1894	1894	1894	1883	1883	1883	1894	1894	1894	1904	1915	1904	1904	1904	1904	1894	1894	1883	1883	1883	1894	1894	1894	1883	1883	1883	1894	1958	1925	1925	1925	1958	1958	1958	1958	1958	1947	1947	1947	1936	1936	1936	1936	1925	1925	1936	1947	1947	1936	1936	1947	1947	1947	1947	1947	1969	1969	1969	1969	1980	1958	1958	1958	1947	1947	1947	1947	1947	1947	1947	1947	1958	1969	1969	1958	1958	1969	1980	1992	1980	1980	1969	1969	1969	1969	1969	1969	1969	1969	1567	1560	1560	1567	1567	1567	1560	1553	1546	1539	1532	1519	1519	1519	1519	1512	1512	1506	1506	1499	1499	1492	1486	1486	1480	1467	1467	1461	1461	1455	1443	1443	1443	1437	1437	1431	1425	1419	1419	1413	1407	1407	1402	1396	1396	1390	1390	1385	1379	1374	1368	1368	1363	1358	1352	1352	1347	1347	1342	1342	1336	1331	1331	1326	1321	1321	1316	1311	1311	1306	1301	1296	1291	1291	1291	1287	1282	1277	1272	1272	1268	1263	1263	1263	1259	1249	1249	1249	1245	1240	1236	1236	1232	1232	1232	1227	1227	1219	1214	1214	1210	1210	1202	1202	1197	1197	1193	1189	1189	1185	1185	1181	1181	1177	1177	1169	1165	1165	1157	1153	1153	1150	1146	1146	1142	1138	1134	1134	1131	1131	1131	1127	1123	1120	1120	1116	1116	1113	1109	1105	1105	1102	1098	1098	1095	1091	1091	1088	1085	1085	1081	1078	1074	1074	1071	1071	1071	1071	1071	1074	1074	1074	1078	1078	1081	1085	1088	1088	1091	1091	1091	1091	0	1336	1336	1336	1331	1331	1331	1326	1326	1316	1316	1311	1311	1306	1306	1306	1306	1301	1296	1291	1287	1287	1287	1287	1282	1277	1277	1272	1272	1268	1268	1268	1263	1263	1259	1259	1254	1249	1249	1249	1245	1240	1240	1236	1232	1232	1227	1227	1223	1223	1219	1219	1219	1214	1214	1210	1210	1206	1202	1202	1197	1197	1197	1193	1193	1193	1189	1189	1185	1181	1181	1177	1177	1173	1173	1173	1169	1169	1165	1165	1161	1161	1161	1157	1157	1153	1153	1150	1146	1146	1146	1142	1138	1138	1134	1134	1134	1131	1131	1127	1123	1120	1120	1120	1116	1116	1113	1113	1113	1109	1105	1105	1105	1102	1102	1102	1098	1098	1095	1091	1091	1088	1088	1088	1085	1085	1081	1078	1074	1074	1074	1074	1071	1071	1068	1068	1064	1064	1061	1061	1058	1055	1052	1052	1052	1048	1048	1048	1042	1042	1042	1039	1039	1036	1036	1036	1036	1033	1030	1026	1026	1026	1023	1020	1020	1017	1017	1014	1011	1006	1006	1006	1000	1000	1000	997	997	997	994	991	991	988	988	985	985	985	985	983	983	980	977	974	974	972	972	969	969	969	966	966	963	963	963	961	961	958	955	955	955	955	953	953	950	950	948	945	945	945	945	942	940	937	937	935	935	932	932	932	930	927	927	927	925	925	925	922	922	920	920	917	917	917	917	917	917	917	0	0	0	0	0	0	0	0	0	0	0	0	0	0	0	0
0	0	0	0	0	0	0	0	0	0	0	0	0	0	0	0	0	0	0	0	0	0	0	0	1814	1804	1795	1795	1795	1804	1804	1804	1804	1804	1804	1814	1814	1814	1814	1824	1824	1824	1824	1824	1824	1824	1824	1824	1824	1833	1824	1824	1824	1824	1824	1833	1833	1833	1833	1843	1843	1843	1843	1843	1843	1843	1843	1843	1833	1833	1833	1833	1863	1883	1883	1883	1804	1804	1915	1915	1915	1863	1863	1863	1863	1863	1873	1883	1883	1883	1894	1873	1873	1883	1873	1873	1873	1863	1853	1853	1853	1863	1863	1863	1863	1873	1873	1873	1873	1904	1904	1894	1894	1894	1894	1804	1853	1863	1863	1853	1853	1853	1873	1873	1873	1883	1883	1894	1883	1883	1883	1883	1883	1883	1883	1873	1873	1883	1873	1873	1873	1873	1883	1883	1883	1883	1894	1925	1915	1915	1947	1947	1947	1947	1936	1936	1925	1925	1925	1925	1925	1925	1925	1925	1925	1925	1925	1925	1936	1936	1936	1936	1936	1936	1883	1947	1947	1947	1947	1947	1936	1936	1936	1936	1936	1936	1936	1936	1936	1936	1947	1958	1958	1958	1958	1958	1958	1947	1947	1947	1947	1958	1958	1958	1947	1947	1567	1567	1567	1567	1567	1560	1560	1553	1546	1539	1532	1519	1519	1519	1519	1512	1512	1506	1506	1499	1499	1492	1486	1486	1480	1473	1467	1461	1461	1455	1443	1443	1443	1437	1437	1431	1431	1419	1419	1413	1407	1407	1402	1396	1396	1390	1390	1385	1379	1374	1368	1368	1363	1358	1352	1352	1352	1347	1347	1342	1336	1331	1331	1326	1321	1321	1316	1311	1306	1306	1301	1296	1291	1291	1287	1282	1282	1277	1272	1268	1268	1263	1263	1259	1259	1254	1249	1249	1245	1240	1236	1236	1236	1232	1232	1227	1223	1223	1219	1214	1214	1210	1202	1202	1197	1197	1193	1189	1189	1185	1185	1181	1181	1177	1177	1169	1165	1165	1157	1153	1150	1150	1146	1146	1146	1142	1134	1134	1131	1131	1127	1127	1123	1120	1120	1116	1116	1113	1109	1105	1102	1098	1098	1098	1095	1091	1091	1088	1085	1085	1081	1078	1074	1071	1071	1071	1071	1071	1071	1074	1074	1078	1078	1081	1081	1085	1085	1088	1088	1091	1091	1095	0	1336	1336	1336	1326	1326	1326	1326	1326	1316	1316	1311	1311	1306	1306	1306	1301	1301	1296	1291	1287	1287	1287	1287	1282	1277	1277	1272	1272	1268	1268	1268	1263	1263	1259	1259	1254	1249	1249	1249	1245	1240	1236	1236	1232	1232	1227	1227	1223	1223	1219	1219	1219	1214	1214	1210	1210	1206	1202	1202	1197	1197	1197	1193	1193	1193	1189	1189	1185	1181	1181	1177	1177	1177	1173	1173	1169	1169	1165	1165	1161	1161	1157	1157	1157	1153	1153	1150	1146	1146	1146	1142	1138	1138	1134	1134	1134	1131	1131	1127	1123	1123	1120	1120	1120	1116	1116	1113	1113	1109	1105	1105	1105	1105	1102	1102	1098	1098	1095	1091	1091	1088	1088	1088	1085	1081	1078	1078	1074	1074	1074	1074	1071	1071	1068	1068	1064	1064	1061	1061	1058	1055	1052	1052	1052	1048	1048	1048	1045	1042	1042	1039	1036	1036	1036	1036	1036	1033	1030	1026	1026	1026	1023	1020	1020	1017	1017	1014	1011	1006	1006	1006	1000	1000	1000	997	997	997	994	994	991	988	988	988	985	985	985	983	983	980	980	977	974	974	972	969	966	966	966	966	963	963	961	961	958	958	955	955	955	955	953	953	950	950	948	945	945	945	945	942	940	937	937	935	935	932	932	932	930	927	927	927	925	925	922	922	922	920	917	917	915	915	917	917	917	917	0	0	0	0	0	0	0	0	0	0	0	0	0	0	0	0
0	0	0	0	0	0	0	0	0	0	0	0	0	0	0	0	0	0	0	0	0	0	0	0	1768	1768	1777	1777	1786	1786	1786	1786	1795	1795	1804	1804	1804	1804	1804	1814	1814	1814	1814	1814	1804	1804	1804	1804	1804	1814	1814	1814	1814	1814	1814	1824	1824	1824	1824	1824	1824	1824	1814	1814	1814	1824	1824	1833	1833	1824	1824	1824	1843	1843	1814	1804	1804	1804	1795	1795	1833	1833	1833	1833	1833	1843	1853	1863	1873	1873	1883	1873	1873	1883	1873	1873	1873	1863	1833	1833	1843	1843	1843	1843	1843	1853	1863	1863	1873	1873	1843	1843	1843	1843	1804	1804	1853	1853	1853	1853	1853	1853	1853	1863	1863	1873	1873	1883	1873	1873	1863	1863	1873	1873	1873	1853	1853	1863	1863	1863	1873	1873	1873	1873	1873	1853	1853	1853	1863	1873	1947	1947	1947	1947	1936	1936	1925	1915	1915	1915	1915	1915	1915	1915	1915	1915	1915	1925	1925	1925	1925	1883	1883	1883	1883	1883	1883	1883	1915	1915	1915	1915	1915	1915	1904	1904	1904	1904	1904	1915	1915	1925	1925	1925	1915	1915	1915	1915	1915	1925	1925	1925	1925	1925	1925	1925	1567	1567	1567	1567	1567	1560	1553	1546	1546	1546	1539	1525	1525	1519	1519	1512	1512	1506	1506	1499	1499	1492	1486	1486	1486	1473	1473	1467	1461	1455	1443	1443	1443	1437	1437	1431	1431	1419	1419	1413	1407	1407	1402	1396	1396	1390	1390	1385	1379	1374	1374	1368	1363	1358	1352	1352	1352	1352	1347	1347	1342	1331	1331	1326	1321	1316	1316	1311	1306	1306	1301	1296	1291	1291	1287	1282	1277	1277	1272	1272	1268	1268	1263	1259	1259	1254	1249	1249	1245	1240	1240	1236	1236	1232	1227	1227	1223	1219	1219	1214	1214	1210	1202	1202	1197	1197	1193	1189	1189	1185	1185	1181	1181	1177	1177	1169	1165	1165	1157	1153	1150	1150	1146	1146	1146	1142	1138	1134	1131	1131	1131	1127	1123	1120	1120	1116	1116	1113	1109	1105	1102	1098	1098	1098	1095	1091	1091	1088	1085	1085	1078	1078	1074	1071	1071	1071	1071	1071	1071	1074	1074	1078	1078	1081	1085	1085	1088	1088	1091	1091	1091	1095	0	1331	1331	1331	1326	1326	1326	1326	1326	1316	1316	1311	1311	1306	1306	1306	1301	1301	1296	1291	1287	1287	1287	1287	1282	1277	1277	1272	1268	1268	1268	1268	1263	1263	1259	1259	1254	1249	1249	1249	1245	1240	1236	1236	1232	1227	1227	1227	1223	1223	1219	1214	1214	1214	1214	1210	1210	1206	1202	1202	1197	1197	1197	1197	1193	1193	1189	1189	1185	1181	1181	1177	1177	1173	1173	1173	1169	1169	1165	1165	1161	1161	1157	1157	1157	1153	1150	1150	1146	1146	1146	1142	1138	1138	1134	1134	1131	1131	1131	1127	1127	1123	1120	1120	1120	1116	1116	1113	1113	1109	1105	1105	1105	1105	1102	1102	1098	1095	1091	1091	1088	1088	1088	1088	1085	1081	1078	1078	1078	1074	1074	1074	1071	1068	1068	1068	1064	1064	1061	1061	1058	1055	1052	1052	1052	1048	1048	1048	1045	1045	1042	1039	1036	1036	1036	1036	1036	1033	1030	1026	1026	1026	1023	1020	1020	1017	1017	1014	1011	1006	1006	1003	1000	1000	1000	997	997	997	994	991	991	988	988	988	985	985	985	983	983	983	980	977	974	974	972	969	966	966	966	966	963	963	961	958	958	955	955	955	955	955	953	953	950	948	948	945	945	945	945	942	940	940	937	935	935	932	932	932	930	927	925	925	925	925	922	922	922	920	917	915	915	915	915	915	915	915	0	0	0	0	0	0	0	0	0	0	0	0	0	0	0	0
0	0	0	0	0	0	0	0	0	0	0	0	0	0	0	0	0	0	0	0	0	0	0	0	1768	1750	1750	1750	1768	1777	1777	1777	1786	1786	1795	1795	1804	1804	1804	1804	1804	1814	1814	1814	1804	1804	1795	1786	1786	1804	1804	1814	1804	1804	1814	1814	1814	1804	1804	1804	1804	1804	1804	1804	1804	1814	1814	1814	1824	1814	1814	1824	1814	1814	1814	1804	1804	1804	1795	1795	1795	1814	1814	1814	1814	1824	1824	1833	1873	1873	1883	1883	1883	1883	1759	1759	1833	1833	1833	1833	1814	1814	1814	1814	1814	1824	1833	1833	1824	1824	1824	1814	1814	1804	1804	1804	1804	1833	1833	1843	1843	1843	1843	1853	1853	1863	1863	1863	1863	1853	1843	1843	1873	1873	1843	1843	1843	1853	1853	1853	1853	1863	1873	1843	1843	1843	1843	1843	1853	1853	1853	1853	1843	1843	1833	1843	1843	1843	1853	1873	1873	1853	1853	1873	1863	1863	1863	1873	1873	1883	1883	1883	1883	1883	1883	1883	1883	1894	1894	1904	1904	1904	1904	1883	1883	1894	1904	1904	1904	1904	1915	1915	1894	1894	1883	1883	1883	1894	1894	1894	1915	1904	1904	1915	1915	1915	0	1567	1567	1567	1567	1560	1553	1546	1546	1546	1539	1525	1525	1519	1519	1512	1512	1506	1506	1499	1499	1492	1492	1486	1486	1480	1473	1467	1461	1455	1443	1443	1437	1437	1437	1431	1431	1419	1419	1413	1413	1407	1402	1396	1390	1390	1390	1385	1379	1374	1374	1368	1363	1358	1352	1352	1352	1352	1347	1347	1342	1331	1326	1326	1321	1316	1316	1311	1306	1306	1306	1301	1291	1291	1287	1282	1277	1277	1277	1272	1268	1268	1263	1259	1254	1254	1249	1249	1245	1240	1240	1236	1236	1232	1227	1227	1223	1219	1219	1214	1214	1210	1202	1202	1197	1197	1193	1189	1189	1185	1185	1185	1181	1181	1177	1173	1165	1161	1157	1153	1150	1150	1146	1146	1146	1142	1138	1134	1134	1131	1131	1127	1123	1120	1120	1116	1116	1113	1109	1105	1102	1102	1098	1098	1095	1095	1091	1088	1085	1085	1078	1078	1074	1071	1071	1071	1071	1071	1071	1071	1074	1078	1078	1081	1081	1085	1088	1088	1091	1091	1091	1091	0	1331	1331	1331	1326	1326	1326	1326	1326	1316	1316	1311	1311	1306	1306	1306	1301	1301	1296	1291	1287	1287	1287	1287	1282	1277	1277	1272	1268	1268	1268	1268	1263	1263	1263	1259	1254	1249	1249	1249	1245	1240	1236	1236	1232	1227	1227	1227	1223	1223	1219	1214	1214	1214	1214	1214	1210	1206	1202	1202	1197	1197	1197	1197	1193	1193	1189	1189	1185	1185	1181	1177	1177	1173	1173	1169	1169	1169	1165	1165	1161	1161	1157	1157	1153	1153	1150	1150	1146	1146	1146	1142	1138	1138	1134	1134	1131	1131	1131	1127	1127	1123	1123	1120	1120	1120	1116	1113	1113	1109	1105	1105	1105	1105	1102	1098	1098	1095	1091	1091	1088	1088	1088	1088	1085	1081	1078	1078	1078	1074	1074	1071	1071	1068	1068	1068	1064	1064	1061	1061	1058	1055	1052	1052	1052	1048	1048	1048	1042	1042	1039	1039	1036	1036	1036	1036	1036	1033	1033	1026	1026	1026	1023	1020	1017	1017	1017	1014	1011	1006	1006	1003	1000	1000	997	997	997	997	994	991	991	988	988	988	985	985	985	983	983	980	980	977	974	974	972	969	969	966	966	966	963	963	961	958	958	955	955	955	955	955	953	953	950	948	948	945	945	945	945	942	940	940	937	935	935	932	932	932	930	927	925	925	925	925	922	922	922	920	917	915	915	915	915	915	915	915	0	0	0	0	0	0	0	0	0	0	0	0	0	0	0	0
0	0	0	0	0	0	0	0	0	0	0	0	0	0	0	0	0	0	0	0	0	0	0	0	0	1741	1741	1741	1750	1759	1759	1768	1768	1777	1786	1786	1786	1786	1786	1795	1804	1804	1804	1804	1795	1795	1795	1777	1777	1777	1795	1804	1804	1804	1804	1814	1804	1795	1786	1786	1795	1795	1795	1786	1786	1795	1795	1804	1804	1804	1814	1814	1804	1804	1804	1786	1786	1786	1777	1777	1786	1795	1804	1804	1804	1814	1814	1814	1843	1843	1843	1768	1768	1759	1759	1759	1768	1795	1795	1795	1795	1795	1804	1804	1804	1804	1814	1814	1814	1804	1804	1804	1804	1804	1804	1804	1804	1814	1814	1833	1833	1833	1843	1843	1824	1833	1833	1843	1843	1804	1804	1804	1804	1804	1814	1824	1824	1824	1824	1833	1833	1814	1814	1824	1833	1833	1833	1843	1843	1843	1853	1843	1843	1843	1833	1843	1843	1843	1843	1853	1853	1843	1843	1843	1843	1843	1843	1843	1863	1863	1873	1873	1863	1863	1863	1873	1873	1873	1873	1873	1894	1904	1904	1883	1883	1883	1894	1883	1883	1894	1904	1894	1894	1883	1883	1883	1883	1883	1883	1883	1883	1883	1894	1894	1894	1894	1894	1574	1574	1574	1567	1560	1553	1546	1546	1546	1532	1525	1525	1519	1512	1512	1506	1506	1506	1499	1492	1492	1486	1486	1486	1480	1480	1467	1461	1461	1443	1443	1437	1437	1437	1431	1431	1425	1419	1413	1413	1407	1402	1396	1390	1390	1390	1385	1379	1374	1374	1368	1363	1358	1352	1352	1352	1352	1347	1347	1342	1331	1326	1326	1321	1316	1316	1311	1306	1306	1306	1301	1291	1291	1287	1282	1277	1277	1277	1272	1268	1268	1263	1259	1254	1254	1249	1249	1245	1240	1240	1236	1232	1232	1227	1227	1223	1219	1219	1214	1214	1210	1202	1202	1197	1197	1193	1189	1189	1185	1185	1181	1181	1181	1177	1173	1165	1161	1157	1153	1150	1150	1146	1146	1146	1142	1138	1134	1134	1134	1131	1127	1123	1120	1120	1116	1116	1113	1109	1105	1102	1102	1098	1098	1095	1095	1091	1088	1085	1081	1078	1078	1074	1071	1071	1071	1071	1071	1071	1071	1074	1078	1078	1078	1081	1085	1085	1088	1091	1091	1091	1091	0	1331	1331	1331	1326	1326	1326	1326	1326	1321	1316	1311	1311	1306	1306	1306	1301	1301	1296	1291	1287	1287	1287	1287	1282	1277	1277	1272	1268	1268	1268	1268	1263	1263	1263	1259	1254	1249	1249	1249	1245	1240	1236	1236	1232	1232	1227	1227	1223	1223	1219	1214	1214	1214	1214	1214	1210	1206	1202	1202	1197	1197	1197	1193	1193	1193	1193	1189	1185	1185	1181	1177	1177	1173	1173	1169	1169	1169	1165	1165	1161	1161	1157	1153	1153	1150	1150	1150	1146	1146	1146	1146	1142	1138	1134	1134	1134	1131	1131	1131	1131	1127	1123	1120	1120	1120	1116	1113	1113	1109	1105	1105	1105	1102	1102	1098	1098	1095	1091	1091	1088	1088	1088	1088	1085	1081	1081	1078	1078	1074	1074	1071	1071	1068	1068	1068	1064	1061	1061	1058	1055	1055	1052	1052	1052	1048	1048	1045	1042	1042	1039	1036	1036	1036	1036	1036	1036	1033	1030	1026	1026	1026	1023	1020	1017	1017	1014	1014	1011	1006	1003	1003	997	997	997	997	997	997	994	994	994	991	988	988	985	985	983	983	980	980	977	977	974	974	972	972	969	969	966	966	963	963	963	961	961	958	958	955	955	955	953	950	948	945	945	945	945	945	942	942	940	940	937	935	935	932	932	932	930	925	925	925	925	925	922	922	922	920	917	917	917	917	915	915	915	915	0	0	0	0	0	0	0	0	0	0	0	0	0	0	0	0
0	0	0	0	0	0	0	0	0	0	0	0	0	0	0	0	0	0	0	0	0	0	0	0	0	1741	1741	1741	1741	1741	1750	1750	1759	1759	1759	1759	1768	1768	1777	1795	1795	1795	1795	1804	1795	1777	1777	1777	1777	1777	1795	1804	1804	1804	1804	1814	1804	1768	1768	1768	1777	1777	1777	1777	1777	1786	1795	1795	1795	1795	1795	1795	1795	1786	1786	1786	1777	1777	1777	1777	1786	1786	1786	1786	1795	1804	1804	1804	1804	1804	1768	1768	1768	1759	1759	1759	1768	1768	1777	1777	1786	1786	1795	1795	1795	1795	1795	1795	1795	1795	1786	1786	1786	1795	1795	1795	1795	1795	1795	1804	1804	1804	1804	1795	1795	1795	1795	1795	1795	1795	1795	1804	1804	1804	1804	1814	1804	1804	1786	1786	1795	1795	1804	1804	1814	1824	1833	1833	1833	1843	1843	1843	1843	1833	1824	1824	1824	1824	1833	1833	1833	1833	1833	1833	1833	1833	1843	1833	1833	1843	1843	1843	1833	1833	1843	1843	1853	1853	1853	1863	1863	1873	1873	1873	1873	1873	1873	1873	1873	1883	1883	1863	1863	1863	1863	1863	1863	1873	1873	1873	1873	1873	1873	1873	1883	1883	1883	1574	1574	1574	1567	1560	1553	1546	1546	1546	1532	1532	1525	1519	1512	1512	1506	1506	1506	1499	1492	1492	1486	1486	1486	1480	1480	1473	1461	1455	1443	1443	1437	1437	1431	1431	1425	1425	1419	1413	1413	1407	1402	1396	1390	1390	1385	1385	1379	1374	1374	1368	1363	1358	1352	1352	1352	1352	1347	1347	1342	1331	1326	1326	1321	1321	1316	1311	1311	1306	1306	1301	1296	1291	1287	1282	1282	1282	1277	1272	1268	1268	1263	1259	1254	1254	1249	1249	1245	1240	1240	1236	1232	1232	1227	1227	1223	1219	1219	1214	1214	1210	1202	1202	1197	1197	1193	1189	1189	1185	1185	1181	1181	1177	1177	1169	1165	1161	1157	1153	1150	1150	1146	1146	1146	1146	1142	1138	1134	1134	1131	1127	1123	1120	1120	1116	1116	1113	1109	1105	1105	1102	1098	1098	1095	1095	1091	1088	1085	1081	1078	1078	1074	1071	1071	1071	1071	1071	1071	1074	1074	1078	1078	1078	1081	1085	1085	1088	1091	1091	1091	1091	1336	1336	1336	1331	1331	1326	1326	1326	1326	1321	1316	1311	1311	1306	1306	1306	1301	1301	1296	1291	1287	1287	1287	1287	1282	1277	1272	1272	1268	1268	1268	1268	1263	1263	1263	1259	1254	1249	1249	1249	1245	1240	1236	1236	1232	1232	1232	1227	1227	1223	1219	1219	1214	1214	1214	1214	1210	1206	1202	1202	1197	1197	1197	1193	1193	1193	1193	1189	1185	1185	1181	1181	1177	1177	1173	1169	1169	1165	1165	1165	1161	1161	1157	1153	1150	1150	1150	1150	1146	1146	1146	1146	1142	1138	1134	1134	1134	1131	1131	1131	1131	1127	1123	1120	1120	1120	1116	1113	1113	1109	1105	1105	1105	1102	1098	1098	1095	1091	1091	1091	1088	1088	1088	1088	1085	1081	1081	1078	1078	1074	1074	1071	1071	1068	1064	1064	1064	1061	1061	1058	1055	1055	1052	1052	1052	1048	1048	1045	1042	1042	1039	1036	1036	1036	1036	1036	1036	1033	1030	1026	1026	1026	1023	1020	1017	1017	1014	1011	1011	1006	1003	1003	997	997	997	997	997	997	994	994	994	991	988	988	985	985	983	983	980	980	977	977	974	974	972	972	972	969	969	966	963	963	961	961	961	958	958	955	955	955	953	950	948	945	945	945	945	942	942	942	942	940	937	935	935	932	932	932	930	925	925	925	925	925	925	922	922	920	920	917	917	917	917	915	915	915	0	0	0	0	0	0	0	0	0	0	0	0	0	0	0	0
0	0	0	0	0	0	0	0	0	0	0	0	0	0	0	0	0	0	0	0	0	0	0	0	0	1732	1732	1732	1732	1732	1732	1741	1750	1741	1741	1741	1750	1759	1759	1759	1723	1706	1706	1706	1706	1777	1706	1706	1706	1715	1715	1715	1706	1706	1706	1750	1750	1750	1750	1759	1759	1759	1759	1768	1768	1777	1777	1777	1786	1786	1786	1786	1786	1777	1777	1777	1777	1777	1777	1777	1777	1786	1786	1786	1795	1795	1786	1777	1777	1768	1759	1759	1750	1750	1750	1750	1750	1750	1750	1750	1759	1759	1768	1777	1777	1777	1786	1786	1786	1786	1786	1786	1786	1786	1786	1786	1795	1795	1795	1795	1795	1795	1786	1777	1777	1777	1777	1795	1795	1795	1795	1795	1795	1795	1804	1804	1804	1804	1786	1786	1795	1795	1795	1804	1804	1814	1824	1824	1824	1843	1843	1833	1833	1824	1814	1814	1814	1814	1814	1814	1814	1824	1824	1824	1824	1824	1833	1833	1824	1824	1824	1833	1814	1814	1833	1833	1843	1843	1843	1843	1853	1843	1833	1833	1833	1833	1833	1833	1843	1853	1843	1843	1843	1843	1843	1843	1853	1863	1863	1863	1863	1863	1863	1863	1873	1873	1873	1574	1574	1567	1567	1560	1553	1546	1546	1546	1532	1532	1525	1519	1512	1512	1512	1506	1506	1499	1499	1492	1492	1486	1486	1486	1480	1473	1461	1455	1443	1443	1443	1437	1431	1431	1425	1425	1419	1413	1413	1407	1402	1396	1390	1390	1385	1379	1379	1374	1374	1368	1363	1358	1352	1352	1352	1352	1347	1347	1342	1336	1331	1326	1321	1321	1316	1311	1311	1306	1306	1301	1296	1291	1287	1282	1282	1282	1277	1272	1268	1268	1263	1259	1254	1254	1249	1249	1245	1240	1236	1236	1232	1227	1227	1223	1223	1219	1219	1214	1214	1210	1202	1202	1197	1197	1193	1189	1189	1185	1185	1181	1181	1177	1177	1169	1165	1161	1157	1153	1150	1150	1146	1146	1146	1142	1138	1138	1134	1134	1131	1127	1123	1120	1120	1116	1116	1113	1109	1105	1105	1102	1098	1098	1098	1095	1091	1088	1088	1085	1081	1078	1074	1071	1071	1071	1071	1071	1074	1074	1074	1078	1078	1078	1081	1085	1088	1088	1091	1091	1091	0	1331	1326	1326	1331	1331	1326	1326	1326	1326	1321	1316	1316	1311	1306	1306	1306	1301	1301	1296	1291	1287	1287	1287	1287	1282	1277	1272	1272	1268	1268	1268	1263	1263	1263	1259	1259	1254	1249	1249	1249	1245	1245	1240	1236	1232	1232	1232	1227	1227	1223	1219	1219	1214	1214	1214	1214	1210	1206	1206	1202	1197	1197	1197	1193	1193	1193	1193	1189	1185	1185	1181	1181	1177	1177	1173	1169	1169	1165	1165	1161	1161	1161	1157	1153	1150	1150	1150	1150	1146	1146	1146	1146	1142	1138	1134	1134	1134	1131	1131	1131	1131	1127	1123	1120	1120	1120	1116	1113	1113	1109	1105	1105	1102	1102	1098	1098	1095	1091	1091	1091	1088	1088	1088	1088	1085	1081	1078	1078	1074	1074	1074	1071	1068	1068	1064	1064	1061	1061	1058	1058	1055	1055	1052	1052	1052	1048	1048	1045	1042	1039	1039	1036	1036	1036	1036	1036	1036	1033	1030	1026	1026	1026	1023	1020	1017	1017	1014	1011	1011	1006	1003	1003	1000	997	997	997	997	997	997	994	991	991	991	988	988	985	985	983	980	980	977	977	977	974	974	972	972	969	969	966	963	963	961	961	961	958	958	958	955	955	953	950	948	945	945	945	945	942	942	942	942	940	937	935	935	932	932	932	930	925	925	925	925	925	922	922	922	922	920	920	920	920	917	915	915	915	0	0	0	0	0	0	0	0	0	0	0	0	0	0	0	0
0	0	0	0	0	0	0	0	0	0	0	0	0	0	0	0	0	0	0	0	0	0	0	0	0	1715	1715	1715	1706	1706	1706	1706	1723	1723	1723	1723	1732	1732	1723	1723	1723	1706	1706	1706	1706	1706	1706	1706	1706	1715	1715	1715	1706	1706	1706	1750	1750	1750	1750	1750	1750	1750	1759	1759	1759	1759	1768	1768	1768	1768	1768	1768	1777	1768	1768	1768	1768	1768	1768	1768	1768	1777	1777	1786	1777	1777	1777	1768	1759	1759	1759	1759	1750	1750	1750	1741	1741	1741	1741	1741	1741	1741	1741	1750	1750	1759	1759	1768	1768	1768	1768	1768	1777	1777	1777	1777	1777	1786	1786	1786	1786	1786	1777	1768	1768	1768	1768	1768	1768	1786	1786	1786	1786	1786	1795	1795	1786	1777	1777	1777	1786	1786	1786	1795	1795	1804	1804	1804	1804	1804	1824	1824	1814	1804	1804	1804	1804	1804	1804	1804	1804	1814	1814	1814	1814	1814	1824	1814	1814	1804	1804	1804	1795	1795	1804	1814	1833	1833	1833	1843	1833	1833	1833	1833	1804	1804	1814	1814	1833	1843	1833	1824	1824	1833	1833	1833	1843	1843	1843	1843	1843	1843	1853	1853	1863	1863	1863	1567	1567	1567	1560	1560	1553	1546	1546	1546	1539	1532	1525	1519	1512	1512	1512	1506	1506	1499	1492	1492	1492	1486	1486	1480	1473	1467	1461	1455	1449	1443	1443	1437	1437	1431	1425	1419	1419	1413	1413	1407	1402	1396	1390	1390	1385	1379	1379	1374	1374	1368	1358	1358	1352	1352	1352	1352	1347	1347	1342	1336	1331	1326	1321	1321	1316	1311	1311	1306	1306	1301	1296	1291	1287	1287	1282	1282	1277	1272	1268	1263	1263	1259	1259	1254	1249	1249	1245	1240	1236	1236	1232	1227	1227	1223	1223	1219	1219	1214	1214	1210	1206	1202	1197	1197	1193	1189	1189	1185	1185	1181	1181	1177	1173	1169	1165	1161	1157	1153	1150	1150	1146	1146	1142	1142	1138	1138	1134	1134	1131	1127	1123	1120	1120	1116	1116	1113	1109	1105	1105	1102	1098	1098	1098	1095	1091	1091	1088	1085	1081	1078	1074	1071	1071	1071	1071	1071	1074	1074	1074	1078	1078	1081	1085	1085	1088	1088	1091	1088	1088	1088	1331	1326	1326	1331	1326	1326	1326	1326	1326	1321	1316	1316	1311	1306	1306	1306	1301	1301	1296	1291	1291	1287	1287	1287	1282	1277	1272	1272	1268	1268	1268	1263	1263	1263	1259	1259	1254	1249	1249	1249	1245	1245	1240	1236	1232	1227	1227	1227	1227	1227	1223	1219	1219	1214	1214	1214	1210	1206	1206	1202	1197	1197	1197	1193	1193	1193	1193	1189	1189	1189	1185	1181	1177	1177	1173	1169	1169	1165	1165	1161	1161	1161	1157	1153	1150	1150	1150	1150	1146	1146	1146	1146	1142	1138	1134	1134	1134	1131	1131	1131	1131	1127	1123	1120	1120	1116	1116	1113	1113	1109	1105	1105	1102	1098	1095	1095	1095	1091	1091	1091	1088	1088	1088	1088	1085	1081	1078	1078	1078	1074	1074	1071	1068	1068	1064	1064	1061	1061	1058	1058	1055	1055	1052	1052	1052	1048	1048	1045	1042	1039	1039	1036	1036	1036	1036	1036	1036	1033	1030	1026	1026	1026	1020	1020	1020	1017	1014	1011	1011	1006	1003	1003	1000	1000	997	997	997	997	997	994	991	991	988	988	985	985	985	983	980	980	980	977	977	974	974	972	972	969	969	966	963	963	961	961	961	958	958	955	955	953	953	950	948	945	945	945	945	942	942	942	940	940	937	937	937	935	932	932	930	925	925	925	925	925	922	922	922	922	920	917	917	920	917	915	915	915	0	0	0	0	0	0	0	0	0	0	0	0	0	0	0	0
0	0	0	0	0	0	0	0	0	0	0	0	0	0	0	0	0	0	0	0	0	0	0	0	0	1706	1706	1698	1690	1690	1698	1698	1706	1706	1706	1715	1715	1715	1706	1706	1698	1698	1698	1698	1706	1706	1706	1706	1706	1706	1706	1690	1706	1706	1706	1706	1715	1732	1732	1732	1715	1715	1715	1715	1732	1732	1732	1741	1741	1741	1741	1741	1741	1750	1741	1741	1750	1759	1768	1768	1768	1768	1777	1768	1706	1706	1706	1706	1741	1741	1741	1750	1741	1741	1741	1732	1732	1732	1732	1732	1732	1732	1732	1732	1732	1732	1741	1741	1732	1732	1741	1741	1759	1759	1768	1768	1768	1768	1786	1759	1759	1768	1759	1759	1759	1759	1759	1759	1759	1768	1777	1777	1777	1777	1768	1768	1768	1768	1768	1768	1786	1786	1777	1777	1777	1777	1777	1777	1804	1804	1804	1804	1795	1795	1795	1795	1795	1795	1795	1795	1795	1795	1795	1795	1814	1814	1814	1814	1804	1804	1795	1795	1795	1795	1795	1804	1814	1824	1833	1833	1824	1804	1804	1804	1804	1795	1795	1804	1824	1824	1814	1814	1814	1814	1814	1814	1814	1833	1833	1833	1833	1833	1843	1843	1843	1843	1574	1567	1567	1567	1560	1560	1553	1546	1546	1546	1539	1532	1525	1519	1512	1512	1512	1506	1499	1499	1492	1492	1492	1486	1486	1480	1473	1467	1461	1455	1449	1443	1443	1437	1431	1431	1425	1419	1419	1413	1413	1407	1396	1396	1390	1390	1385	1379	1379	1374	1374	1368	1358	1358	1352	1352	1352	1352	1347	1347	1342	1336	1331	1326	1321	1321	1316	1311	1311	1306	1306	1301	1296	1291	1287	1287	1282	1282	1277	1272	1268	1263	1263	1259	1259	1254	1249	1249	1245	1240	1240	1236	1232	1232	1227	1223	1223	1219	1219	1214	1214	1210	1206	1202	1197	1197	1193	1189	1189	1185	1185	1181	1181	1177	1173	1169	1165	1161	1157	1153	1150	1150	1146	1146	1142	1142	1138	1138	1138	1134	1131	1127	1123	1120	1120	1116	1116	1113	1109	1105	1105	1102	1102	1098	1098	1095	1091	1091	1088	1085	1081	1078	1074	1071	1071	1071	1071	1071	1074	1074	1078	1078	1081	1081	1085	1088	1088	1088	1088	1088	1088	1088	1326	1326	1326	1331	1326	1326	1326	1326	1326	1321	1316	1316	1311	1306	1306	1306	1301	1301	1296	1296	1291	1287	1287	1287	1282	1282	1277	1272	1268	1268	1268	1263	1263	1263	1259	1259	1254	1249	1249	1249	1245	1245	1240	1236	1232	1227	1227	1227	1227	1227	1219	1219	1219	1214	1214	1214	1210	1206	1206	1202	1197	1197	1197	1193	1193	1193	1193	1189	1189	1185	1181	1177	1177	1177	1173	1169	1165	1165	1165	1161	1161	1161	1157	1153	1150	1150	1150	1150	1146	1146	1146	1146	1142	1138	1134	1134	1134	1131	1131	1131	1131	1127	1123	1120	1120	1116	1116	1113	1113	1109	1105	1105	1102	1098	1095	1095	1095	1091	1091	1091	1088	1088	1088	1088	1085	1081	1078	1078	1078	1074	1074	1071	1068	1068	1064	1064	1061	1061	1058	1058	1055	1055	1052	1052	1052	1048	1048	1045	1042	1042	1039	1036	1036	1036	1036	1036	1036	1033	1030	1026	1026	1023	1020	1017	1017	1017	1014	1014	1011	1006	1003	1000	1000	1000	1000	997	997	997	997	994	994	991	988	988	985	985	985	983	980	980	980	977	977	974	974	972	972	969	969	966	963	963	961	961	958	958	958	955	955	953	953	950	948	945	945	945	942	942	940	940	940	937	937	935	935	935	932	932	932	927	925	925	925	925	925	922	922	922	920	917	917	920	917	915	915	915	0	0	0	0	0	0	0	0	0	0	0	0	0	0	0	0
