0	0	0	0	0	0	0	0	0	0	0	0	0	0	0	0	0	0	0	0	0	0	0	0	0	0	0	0	0	0	0	0	0	0	0	0	0	0	0	0	572	572	573	574	576	577	578	579	581	582	585	590	590	590	590	590	593	593	593	0	527	529	529	529	529	529	529	529	529	529	529	529	530	530	530	530	530	530	530	530	530	530	531	531	530	530	530	530	530	531	531	531	531	531	531	531	531	532	532	532	532	532	532	533	533	533	533	534	534	535	535	536	536	536	536	537	537	538	539	540	541	542	542	543	544	545	545	546	547	548	548	551	552	553	554	555	555	556	557	559	559	0	0	0	0	0	0	0	0	0	0	0	0	0	0	0	0	0	0	0	1003	1006	1006	1006	1006	1008	1008	1008	1011	1014	1017	1017	1020	1026	1026	1030	1030	1030	1033	1033	1036	1036	1039	1042	1045	1045	1048	1048	1055	1055	1055	1058	1058	1061	1064	1068	1068	1071	1071	1074	1078	1081	1081	1085	1085	1088	1088	1091	1095	1095	1095	1095	1095	0	908	908	908	905	903	903	903	903	901	901	901	901	901	901	898	898	901	901	901	901	901	903	903	903	901	901	901	901	901	901	901	901	901	901	0	0	0	0	0	0	0	0	0	0	524	523	522	520	519	519	519	517	515	514	514	513	512	511	511	510	510	510	510	510	508	508	508	507	507	507	507	507	507	507	507	507	507	507	508	508	508	508	508	508	508	509	509	510	510	510	511	511	511	511	513	514	515	516	516	517	518	519	520	520	520	521	523	523	523	0	0	0	0	0	0	0	0	0	0	0	0	0	0	0	0	0	0	0	0	0	0	0	0	0	0	0	1525	1525	1532	1532	1532	1532	1532	1539	1546	1553	1553	1560	1560	1567	1567	1574	1574	1581	1589	1589	1596	1596	1603	1603	1611	1611	1618	1626	1634	1634	1641	1649	1649	1649	1657	1657	1673	1681	1681	1681	1690	1690	1698	1698	1706	1715	1723	1723	1723	1732	1741	1750	1750	1750	1759	1768	1777	1777	1786	1786	1786	1795	1804	1804	1804	1804	1786	1777	1768	1768	1750	1750	1750	1732	1732	1723	1715	1698	1690	1681	1681	1673	1673	1673	1673	1673	1673	1665	1665	1665	1657	1657	1649	1649	1649	1649	1641	1641	1641	1641	1641	1641	1641	1641	1641	1641	1641	1641	1641	1641	1649	1657	1657	1665	1657	1649	1634	1634	1626	1618	1618	1618	1618	1618	1833	1843	1843	1843	1843	1843	1843	1843	1843	1843	1843	1843	1843	1843	1824	1824	1814	1804	1804	1804	1804	1804	1804	1814	1814	1814	1824	1814	1814	1824	1824	1833	1833	1833	1833	1833	1833	1833	1833	1833	1833	1539	1539	1539	1539	1539	1546	1546	1546	1546	1539	1525	1525	1519	1519	1512	1512	1512	1512	1532	1532	1532	1532	1532	1539	1546	1546	1539	1539	1539	1539	1532	1532	1532	1532	1532	1532	1532	1532	1532	1532	1532	1532	1532	0	0	0	0	0	1553	1553	1553	1546	1546	1539	1539	1539	1546	1546	1546	1546	1553	1553	1553	1553	1560	1560	1560	1560	1546	1546	1560	1560	1560	1567	1567	1574	1574	1567	1567	1567	1567	1567	1560	1560	1553	1553	1553	1560	1560	1560	1560	1560	1560	1560	1560	1553	1553	1567	1567	1567	1567	1567	1567	0	0	0	0	0	0	0	0	0	0	0	0	0	0	0	0	0	0	0	0	0	0
0	0	0	0	0	0	0	0	0	0	0	0	0	0	0	0	0	0	0	0	0	0	0	0	0	0	0	0	0	0	0	0	0	0	0	0	0	0	0	0	572	572	573	574	576	576	577	579	581	582	582	589	589	591	592	592	593	593	595	595	0	529	531	531	529	529	530	530	531	530	530	530	530	530	531	531	531	531	531	531	531	531	531	531	531	531	531	531	531	531	531	531	531	531	531	532	532	532	532	532	532	533	533	533	533	534	534	534	534	535	536	536	536	536	537	537	538	538	539	540	541	542	542	543	544	545	545	546	546	548	548	551	552	553	554	555	555	556	557	560	562	563	563	0	0	0	0	0	0	0	0	0	0	0	0	0	0	0	0	1006	1006	1006	1006	1006	1006	1008	1008	1008	1011	1014	1017	1017	1023	1026	1026	1030	1030	1030	1033	1033	1036	1039	1039	1042	1045	1048	1052	1052	1055	1055	1055	1058	1058	1064	1068	1068	1071	1071	1071	1074	1078	1081	1085	1088	1088	1088	1091	1091	1095	1095	1095	1095	1095	0	913	910	910	905	905	903	903	903	901	901	901	901	901	901	898	898	901	901	901	901	901	903	903	903	901	901	901	901	901	901	898	898	898	901	0	0	0	0	0	0	0	0	0	525	524	523	522	521	520	519	519	518	516	515	514	513	513	512	512	511	510	510	510	510	509	508	508	509	508	508	508	507	507	508	508	508	508	508	508	508	508	508	508	508	508	509	509	510	510	510	510	510	511	511	513	514	515	516	516	517	518	519	520	520	521	522	523	523	523	0	0	0	0	0	0	0	0	0	0	0	0	0	0	0	0	0	0	0	0	0	0	0	0	0	0	0	1525	1525	1532	1532	1532	1532	1539	1539	1546	1553	1560	1560	1560	1567	1567	1574	1581	1581	1589	1596	1596	1596	1603	1603	1611	1618	1618	1626	1634	1641	1641	1649	1649	1657	1657	1665	1673	1681	1681	1690	1690	1698	1706	1706	1715	1715	1723	1723	1732	1741	1741	1750	1750	1750	1759	1777	1777	1777	1786	1786	1795	1795	1804	1804	1804	1804	1786	1768	1759	1750	1741	1741	1741	1723	1723	1715	1706	1690	1681	1681	1681	1673	1673	1673	1673	1673	1673	1665	1665	1665	1657	1657	1649	1649	1649	1649	1649	1641	1641	1641	1641	1641	1641	1641	1641	1641	1641	1641	1641	1649	1649	1657	1665	1665	1665	1649	1634	1634	1626	1626	1618	1618	1618	1618	1833	1843	1843	1843	1843	1843	1843	1843	1833	1833	1833	1833	1824	1824	1804	1795	1786	1786	1795	1795	1795	1795	1795	1795	1804	1804	1804	1804	1804	1814	1814	1824	1824	1824	1824	1824	1824	1833	1833	1532	1532	1539	1532	1532	1539	1539	1539	1539	1539	1546	1539	1539	1539	1525	1525	1519	1519	1519	1539	1539	1539	1539	1539	1539	1539	1546	1546	1539	1539	1546	1539	1532	1532	1525	1525	1532	1532	1532	1546	1546	1546	1532	1532	1532	0	0	0	0	1546	1546	1546	1546	1546	1539	1539	1539	1539	1546	1546	1546	1546	1553	1553	1553	1553	1560	1560	1560	1560	1546	1546	1560	1560	1567	1567	1567	1567	1567	1567	1567	1567	1567	1560	1560	1560	1553	1553	1560	1560	1560	1560	1560	1560	1567	1560	1560	1560	1567	1567	1567	1567	1567	1574	1574	0	0	0	0	0	0	0	0	0	0	0	0	0	0	0	0	0	0	0	0	0	0
0	0	0	0	0	0	0	0	0	0	0	0	0	0	0	0	0	0	0	0	0	0	0	0	0	0	0	0	0	0	0	0	0	0	0	0	0	0	0	0	571	571	572	574	575	576	577	578	580	582	583	587	589	591	592	593	593	595	595	598	598	0	532	532	531	531	531	531	531	531	530	530	531	531	531	531	531	531	531	531	531	531	531	532	531	531	531	531	531	531	531	531	532	532	532	532	532	532	532	532	532	533	533	534	534	534	535	535	535	535	536	536	536	536	537	537	538	538	539	540	541	542	542	544	544	545	545	546	546	548	548	551	552	553	554	555	555	557	558	560	561	562	562	0	0	0	0	0	0	0	0	0	0	0	0	0	0	0	0	1006	1006	1006	1006	1006	1008	1008	1008	1011	1011	1014	1017	1020	1023	1026	1026	1030	1030	1030	1033	1033	1036	1039	1039	1045	1045	1048	1052	1052	1055	1055	1058	1058	1064	1068	1068	1071	1071	1071	1071	1074	1081	1081	1085	1088	1088	1088	1091	1091	1095	1095	1098	1098	1098	0	913	913	910	908	905	905	903	903	901	901	901	901	901	901	898	898	901	901	901	901	901	901	903	903	903	903	903	903	903	901	898	898	898	0	0	0	0	0	0	0	0	0	0	524	524	522	522	521	520	519	519	519	516	515	514	513	513	513	513	511	511	510	510	510	510	509	509	509	509	509	508	508	508	508	508	508	508	508	508	508	508	508	508	508	509	510	510	510	511	511	511	511	513	513	513	514	515	515	516	517	518	519	519	520	520	521	522	522	523	523	0	0	0	0	0	0	0	0	0	0	0	0	0	0	0	0	0	0	0	0	0	0	0	0	0	1532	1532	1532	1532	1532	1532	1532	1539	1539	1546	1553	1560	1560	1560	1567	1574	1574	1581	1581	1589	1596	1596	1596	1603	1603	1611	1618	1618	1626	1634	1641	1649	1649	1649	1657	1657	1665	1673	1681	1681	1690	1690	1698	1706	1706	1715	1715	1723	1723	1732	1741	1750	1750	1750	1750	1768	1777	1777	1786	1786	1786	1795	1804	1804	1804	1804	1804	1786	1759	1750	1741	1741	1732	1732	1723	1715	1706	1698	1690	1681	1681	1681	1673	1673	1673	1673	1673	1673	1665	1665	1665	1657	1657	1649	1649	1649	1649	1649	1649	1641	1641	1641	1641	1641	1641	1641	1641	1641	1641	1641	1649	1649	1657	1657	1657	1657	1649	1618	1611	1611	1603	1603	1603	1843	1843	1843	1843	1843	1843	1843	1843	1833	1833	1833	1833	1833	1824	1814	1814	1795	1786	1777	1777	1786	1786	1786	1786	1786	1786	1795	1795	1795	1795	1795	1804	1804	1814	1814	1814	1814	1814	1553	1553	1539	1532	1532	1539	1532	1532	1539	1532	1532	1539	1539	1539	1539	1539	1539	1539	1532	1525	1519	1519	1539	1539	1539	1546	1539	1539	1546	1546	1546	1539	1539	1539	1539	1532	1532	1525	1525	1532	1532	1532	1546	1546	1539	1539	1546	1546	1546	0	0	0	1546	1546	1546	1546	1539	1539	1539	1539	1539	1546	1546	1546	1546	1553	1553	1553	1553	1560	1560	1560	1560	1553	1553	1560	1560	1560	1560	1560	1567	1567	1560	1560	1560	1567	1560	1560	1560	1560	1560	1560	1560	1560	1560	1560	1560	1560	1553	1553	1560	1560	1560	1567	1567	1567	1567	1567	0	0	0	0	0	0	0	0	0	0	0	0	0	0	0	0	0	0	0	0	0	0
0	0	0	0	0	0	0	0	0	0	0	0	0	0	0	0	0	0	0	0	0	0	0	0	0	0	0	0	0	0	0	0	0	0	0	0	0	0	0	0	571	571	572	573	575	576	577	578	580	582	583	587	589	590	591	592	594	595	597	598	598	598	532	532	531	531	531	531	532	532	532	532	532	532	532	531	531	532	531	531	531	531	532	532	532	532	532	532	532	532	532	532	532	532	532	532	532	532	532	533	533	533	533	534	534	534	535	535	535	536	536	536	536	537	537	537	538	539	539	540	542	542	542	544	544	545	545	546	546	548	548	551	552	553	555	555	556	557	558	560	561	562	565	565	0	0	0	0	0	0	0	0	0	0	0	0	0	0	0	1006	1006	1006	1006	1008	1008	1008	1011	1011	1014	1017	1017	1020	1020	1030	1030	1030	1030	1033	1033	1036	1039	1042	1045	1045	1048	1052	1055	1055	1055	1058	1058	1061	1064	1068	1068	1071	1071	1071	1074	1078	1081	1081	1088	1088	1088	1091	1091	1095	1095	1098	1098	1098	1098	0	913	913	913	910	910	905	905	903	903	903	901	901	901	901	898	898	901	901	901	901	901	901	903	903	903	903	905	905	903	901	898	898	898	0	0	0	0	0	0	0	0	0	0	524	524	522	522	521	520	519	519	519	516	515	514	514	513	513	513	512	511	510	510	510	510	510	510	510	510	509	508	508	508	508	508	508	508	508	509	509	508	508	509	509	510	510	510	510	511	511	511	511	513	513	513	514	515	516	516	517	518	520	520	520	520	521	521	523	523	523	0	0	0	0	0	0	0	0	0	0	0	0	0	0	0	0	0	0	0	0	0	0	0	0	1532	1532	1532	1532	1532	1532	1532	1539	1539	1546	1546	1560	1560	1560	1567	1567	1574	1581	1581	1589	1589	1596	1596	1596	1603	1611	1611	1618	1626	1634	1634	1641	1649	1649	1649	1657	1657	1665	1681	1681	1690	1690	1698	1706	1715	1715	1715	1723	1723	1732	1732	1741	1750	1750	1750	1750	1768	1777	1777	1786	1786	1786	1795	1804	1804	1804	1804	1804	1786	1759	1741	1732	1732	1732	1723	1715	1706	1698	1690	1681	1681	1681	1681	1673	1673	1673	1673	1673	1673	1673	1665	1657	1657	1657	1649	1649	1649	1649	1649	1649	1641	1641	1641	1641	1641	1641	1641	1641	1649	1649	1649	1649	1649	1649	1657	1657	1657	1649	1611	1611	1589	1589	1603	1833	1833	1843	1833	1833	1833	1833	1833	1833	1833	1833	1824	1824	1824	1814	1804	1804	1786	1777	1777	1777	1777	1777	1777	1777	1777	1777	1777	1786	1786	1786	1786	1786	1786	1795	1795	1804	1804	1804	1553	1553	1539	1532	1532	1539	1532	1532	1532	1532	1532	1532	1532	1532	1532	1539	1539	1539	1532	1525	1519	1519	1539	1539	1539	1546	1546	1546	1546	1546	1546	1539	1539	1539	1539	1532	1532	1525	1525	1532	1532	1532	1532	1539	1539	1539	1539	1539	1539	0	0	0	1546	1546	1546	1546	1539	1539	1539	1539	1539	1546	1546	1546	1553	1553	1560	1560	1560	1560	1560	1560	1560	1546	1546	1560	1560	1560	1560	1560	1560	1560	1560	1560	1560	1560	1560	1560	1560	1560	1560	1560	1560	1560	1560	1553	1553	1553	1553	1553	1553	1560	1567	1567	1567	1567	1567	1567	0	0	0	0	0	0	0	0	0	0	0	0	0	0	0	0	0	0	0	0	0	0
0	0	0	0	0	0	0	0	0	0	0	0	0	0	0	0	0	0	0	0	0	0	0	0	0	0	0	0	0	0	0	0	0	0	0	0	0	0	0	0	570	570	571	572	574	575	576	578	580	581	584	586	588	590	591	592	594	595	597	598	598	598	598	0	531	531	531	532	532	532	532	532	532	532	532	532	532	532	532	532	532	532	532	532	532	532	532	532	532	532	532	532	532	532	532	532	532	532	533	533	533	534	534	534	534	534	535	535	535	536	536	536	537	537	537	538	538	539	539	540	542	542	542	543	544	545	545	546	547	548	548	551	552	553	555	556	557	558	559	561	562	563	565	565	0	0	0	0	0	0	0	0	0	0	0	0	0	0	0	1006	1006	1008	1008	1008	1011	1011	1014	1014	1017	1017	1017	1020	1020	1026	1026	1030	1030	1033	1033	1036	1036	1042	1045	1048	1048	1052	1055	1055	1055	1058	1058	1061	1064	1068	1068	1071	1071	1071	1074	1081	1081	1085	1088	1088	1091	1091	1091	1095	1095	1098	1098	1098	1102	1102	913	915	910	910	910	905	905	903	903	903	903	903	903	901	901	901	901	901	901	901	901	901	903	905	905	905	905	905	905	905	898	898	898	898	0	0	0	0	0	0	0	0	0	524	524	522	522	521	520	520	519	519	516	515	514	514	513	513	513	513	512	511	511	510	510	510	510	510	510	509	508	508	508	509	509	509	509	509	510	510	509	509	509	510	510	510	510	511	511	511	511	512	513	513	513	514	515	516	517	518	519	520	520	521	521	521	521	523	523	523	0	0	0	0	0	0	0	0	0	0	0	0	0	0	0	0	0	0	0	0	0	0	0	0	1532	1532	1532	1532	1532	1532	1532	1539	1539	1546	1553	1553	1560	1560	1567	1567	1574	1581	1581	1589	1589	1596	1596	1603	1603	1611	1611	1618	1626	1634	1641	1641	1649	1649	1657	1657	1665	1665	1681	1681	1681	1690	1698	1706	1706	1715	1715	1715	1723	1732	1732	1741	1750	1750	1750	1750	1768	1768	1777	1777	1786	1786	1795	1804	1804	1814	1814	1804	1786	1750	1715	1715	1715	1706	1706	1706	1690	1681	1681	1681	1673	1673	1673	1673	1673	1673	1673	1673	1673	1673	1665	1657	1657	1657	1649	1649	1649	1649	1649	1641	1641	1641	1641	1649	1641	1641	1641	1641	1649	1649	1649	1649	1649	1649	1657	1649	1649	1641	1611	1589	1589	1589	1824	1824	1824	1833	1824	1824	1824	1833	1833	1833	1824	1824	1814	1814	1804	1795	1795	1795	1777	1777	1777	1768	1777	1768	1768	1768	1768	1768	1768	1777	1777	1777	1777	1777	1777	1786	1786	1786	1795	1795	1553	1546	1539	1525	1525	1532	1532	1532	1525	1525	1525	1532	1532	1532	1532	1539	1539	1539	1532	1525	1519	1519	1539	1539	1539	1546	1546	1546	1546	1546	1546	1546	1546	1546	1546	1539	1539	1532	1532	1532	1539	1532	1532	1532	1539	1539	1539	1539	1546	1546	0	0	0	1546	1546	1546	1546	1546	1546	1553	1553	1553	1553	1560	1560	1560	1560	1560	1560	1560	1560	1560	1560	1546	1546	1560	1560	1560	1560	1560	1560	1560	1560	1560	1560	1560	1560	1560	1560	1560	1560	1560	1553	1553	1553	1553	1553	1560	1553	1553	1560	1560	1567	1567	1567	1567	1567	1567	0	0	0	0	0	0	0	0	0	0	0	0	0	0	0	0	0	0	0	0	0	0
0	0	0	0	0	0	0	0	0	0	0	0	0	0	0	0	0	0	0	0	0	0	0	0	0	0	0	0	0	0	0	0	0	0	0	0	0	0	0	0	570	570	571	572	574	575	576	577	579	580	583	586	588	589	590	591	593	595	597	598	598	599	599	599	0	532	532	532	532	532	532	532	532	532	532	532	532	532	532	532	532	532	532	532	532	532	532	532	533	532	532	532	533	533	532	532	533	533	533	534	534	534	534	534	534	535	535	536	536	536	536	536	537	537	538	538	538	539	540	540	542	542	542	543	544	545	545	546	548	548	550	552	552	553	555	556	556	558	559	561	563	564	565	565	0	0	0	0	0	0	0	0	0	0	0	0	0	0	0	1008	1008	1008	1008	1011	1011	1014	1014	1017	1017	1017	1020	1020	1026	1030	1030	1033	1033	1033	1036	1036	1042	1042	1045	1048	1052	1052	1055	1055	1055	1058	1058	1061	1064	1068	1068	1071	1071	1074	1081	1081	1085	1085	1088	1088	1091	1095	1095	1095	1098	1098	1102	1102	1102	1102	0	913	910	910	910	908	905	903	903	903	903	903	903	901	901	901	901	901	901	901	903	903	905	905	908	908	908	908	908	908	898	898	898	898	0	0	0	0	0	0	529	528	528	527	524	523	522	522	521	520	519	519	516	515	514	514	514	513	513	513	512	511	511	511	511	510	510	510	510	510	509	509	509	509	509	509	510	510	510	510	510	510	510	510	510	510	511	511	512	512	512	513	513	513	514	514	515	516	518	518	520	520	521	522	522	521	521	523	523	523	0	0	0	0	0	0	0	0	0	0	0	0	0	0	0	0	0	0	0	0	0	0	0	0	1532	1532	1532	1532	1532	1539	1539	1539	1546	1553	1553	1560	1567	1567	1567	1574	1581	1581	1589	1589	1596	1596	1603	1603	1611	1611	1618	1626	1626	1634	1641	1649	1657	1657	1665	1665	1673	1681	1681	1690	1690	1698	1706	1715	1715	1715	1723	1723	1732	1741	1741	1750	1750	1759	1750	1750	1768	1777	1777	1786	1795	1804	1804	1804	1814	1814	1814	1824	1824	1833	1715	1706	1706	1706	1698	1690	1681	1681	1673	1673	1673	1673	1673	1673	1673	1673	1673	1673	1673	1673	1673	1665	1665	1665	1657	1657	1649	1649	1649	1649	1641	1641	1641	1649	1649	1649	1641	1641	1649	1649	1649	1649	1649	1649	1657	1649	1649	1641	1581	1581	1589	1589	1814	1814	1814	1814	1814	1814	1824	1824	1824	1824	1824	1814	1804	1795	1795	1786	1786	1786	1768	1768	1768	1768	1768	1768	1768	1768	1768	1768	1768	1768	1768	1768	1768	1768	1777	1777	1777	1777	1768	1768	1768	1546	1539	1525	1525	1525	1525	1525	1525	1525	1525	1525	1532	1532	1532	1539	1539	1539	1539	1532	1525	1525	1539	1539	1539	1539	1539	1546	1546	1546	1546	1546	1546	1546	1546	1539	1539	1539	1539	1539	1539	1532	1532	1532	1539	1539	1539	1546	1546	1546	1546	1546	1546	1553	1553	1553	1546	1546	1546	1553	1553	1553	1553	1560	1560	1560	1560	1560	1560	1553	1553	1553	1553	1553	1553	1553	1553	1553	1553	1553	1553	1553	1546	1546	1553	1553	1553	1553	1553	1553	1560	1560	1553	1553	1553	1553	1553	1560	1560	1560	1567	1567	1567	1567	1567	1567	1567	1567	0	0	0	0	0	0	0	0	0	0	0	0	0	0	0	0	0	0	0	0	0	0
0	0	0	0	0	0	0	0	0	0	0	0	0	0	0	0	0	0	0	0	0	0	0	0	0	0	0	0	0	0	0	0	0	0	0	0	0	0	0	0	570	570	571	572	574	575	575	577	578	580	583	585	588	589	590	591	593	595	596	598	598	599	599	599	0	532	532	532	532	532	532	532	532	532	532	532	532	532	532	532	532	532	532	532	532	532	532	532	533	533	533	533	533	534	533	533	533	533	534	534	534	534	534	535	535	535	535	536	536	536	536	536	537	537	538	538	538	539	540	540	542	542	543	544	545	545	546	547	548	548	551	552	553	554	555	556	556	558	559	562	563	564	565	565	0	0	0	0	0	0	0	0	0	0	0	0	0	0	0	1008	1008	1008	1011	1011	1014	1014	1017	1017	1017	1020	1020	1026	1030	1030	1030	1033	1033	1036	1036	1042	1042	1045	1048	1052	1052	1055	1055	1055	1055	1058	1061	1064	1064	1068	1068	1071	1074	1078	1081	1081	1085	1085	1088	1091	1095	1095	1095	1098	1098	1102	1105	1105	1105	0	0	913	913	910	910	908	908	905	905	903	903	903	903	903	901	901	901	903	903	903	903	903	905	910	908	908	908	908	910	910	0	0	0	0	0	0	0	0	0	0	529	528	528	527	525	523	522	522	521	520	519	518	516	515	515	514	514	513	513	513	513	512	511	511	511	511	510	510	510	510	510	510	510	510	510	510	510	510	510	510	510	510	510	510	511	511	511	512	513	513	513	513	514	514	515	516	516	517	518	519	520	522	522	523	523	523	523	523	523	0	0	0	0	0	0	0	0	0	0	0	0	0	0	0	0	0	0	0	0	0	0	0	0	0	1532	1532	1532	1532	1532	1539	1539	1546	1546	1553	1553	1560	1567	1567	1574	1574	1581	1589	1589	1596	1596	1596	1603	1611	1611	1618	1618	1626	1626	1634	1641	1649	1657	1657	1665	1673	1673	1681	1690	1690	1698	1698	1706	1715	1715	1723	1723	1732	1732	1741	1750	1750	1750	1759	1759	1759	1768	1777	1777	1786	1795	1804	1804	1814	1814	1824	1824	1824	1833	1843	1853	1690	1690	1690	1681	1673	1673	1673	1673	1673	1673	1673	1673	1673	1673	1673	1673	1673	1673	1673	1665	1665	1665	1665	1657	1657	1649	1649	1649	1649	1649	1649	1649	1649	1649	1649	1649	1649	1649	1657	1657	1657	1649	1649	1649	1649	1649	1649	1581	1581	1589	1589	1804	1804	1804	1804	1804	1804	1804	1804	1814	1814	1804	1804	1786	1786	1786	1777	1777	1777	1768	1768	1759	1759	1759	1759	1759	1759	1759	1759	1759	1759	1759	1759	1768	1768	1768	1768	1768	1768	1759	1759	1750	1750	1525	1525	1525	1525	1525	1525	1519	1519	1519	1525	1525	1532	1532	1532	1539	1539	1539	1532	1532	1539	1539	1539	1539	1539	1539	1539	1539	1546	1546	1546	1546	1546	1546	1546	1546	1546	1546	1546	1546	1539	1539	1539	1546	1539	1539	1546	1546	1546	1546	1546	1546	1546	1546	1553	1546	1546	1546	1553	1553	1553	1560	1560	1560	1560	1560	1560	1560	1553	1553	1553	1553	1553	1553	1553	1553	1553	1553	1546	1546	1546	1546	1546	1546	1553	1553	1553	1553	1553	1560	1560	1553	1553	1553	1553	1553	1560	1560	1567	1567	1567	1567	1567	1567	1567	1567	0	0	0	0	0	0	0	0	0	0	0	0	0	0	0	0	0	0	0	0	0	0	0
0	0	0	0	0	0	0	0	0	0	0	0	0	0	0	0	0	0	0	0	0	0	0	0	0	0	0	0	0	0	0	0	0	0	0	0	0	0	0	0	570	569	569	572	573	574	575	576	578	579	583	585	588	589	590	591	593	595	596	597	598	599	599	599	0	532	532	532	532	532	532	532	532	532	532	532	532	532	532	532	532	532	532	532	532	532	532	534	534	534	534	534	534	534	534	534	534	534	534	534	535	535	535	535	535	536	536	536	537	537	537	537	537	538	538	538	539	539	540	542	542	542	543	544	545	546	546	548	548	548	551	552	553	554	555	556	556	558	559	562	563	564	565	565	0	0	0	0	0	0	0	0	0	0	0	0	0	0	0	0	1008	1011	1014	1014	1014	1017	1017	1017	1020	1020	1023	1026	1030	1030	1033	1033	1033	1036	1039	1042	1042	1045	1048	1052	1052	1055	1055	1055	1058	1061	1061	1064	1068	1068	1071	1071	1074	1078	1078	1081	1085	1085	1088	1091	1091	1095	1098	1098	1098	1102	1105	1105	1105	0	917	917	913	913	910	910	910	910	905	905	903	903	903	903	901	901	901	905	905	905	905	905	908	910	908	908	910	910	910	910	0	0	0	0	0	0	0	0	0	529	529	528	528	527	526	523	522	522	521	520	519	518	517	516	515	515	514	513	513	513	513	513	511	511	511	511	511	511	511	511	510	510	510	510	510	510	510	510	510	510	510	510	510	511	511	511	512	513	513	513	513	513	514	514	516	516	516	517	518	519	521	523	523	523	525	525	525	0	0	0	0	0	0	0	0	0	0	0	0	0	0	0	0	0	0	0	0	0	0	0	0	0	0	0	1532	1532	1539	1539	1539	1539	1546	1546	1553	1560	1560	1567	1567	1567	1574	1574	1581	1589	1589	1596	1596	1603	1603	1611	1611	1618	1618	1626	1626	1641	1649	1657	1657	1665	1673	1673	1681	1690	1690	1698	1698	1706	1715	1715	1723	1723	1723	1732	1741	1741	1750	1750	1759	1759	1759	1759	1768	1777	1786	1786	1795	1804	1804	1814	1814	1824	1824	1833	1833	1843	1853	1853	1673	1681	1665	1665	1665	1665	1665	1665	1665	1665	1665	1673	1673	1673	1673	1673	1673	1673	1665	1665	1665	1665	1657	1657	1649	1649	1649	1649	1649	1649	1649	1649	1649	1649	1649	1649	1657	1657	1657	1657	1649	1649	1649	1657	1657	1768	1768	1589	1589	1589	1804	1795	1795	1795	1795	1795	1786	1786	1786	1777	1777	1777	1777	1777	1777	1777	1777	1777	1768	1759	1759	1759	1759	1750	1750	1759	1759	1750	1750	1750	1750	1759	1759	1759	1750	1750	1750	1750	1750	1750	1750	1750	1525	1525	1525	1525	1525	1525	1519	1519	1519	1525	1525	1525	1525	1525	1532	1539	1539	1539	1539	1539	1539	1539	1539	1539	1539	1539	1539	1546	1546	1546	1546	1546	1546	1546	1546	1546	1546	1546	1546	1539	1539	1546	1546	1546	1546	1546	1546	1546	1546	1546	1546	1546	1546	1553	1546	1546	1546	1553	1553	1553	1553	1553	1560	1553	1553	1553	1553	1553	1553	1553	1553	1553	1553	1553	1560	1560	1553	1546	1546	1546	1546	1546	1546	1546	1546	1546	1553	1553	1553	1553	1553	1553	1553	1553	1560	1560	1553	1553	1560	1574	1574	1574	1574	0	0	0	0	0	0	0	0	0	0	0	0	0	0	0	0	0	0	0	0	0	0	0	0	0
0	0	0	0	0	0	0	0	0	0	0	0	0	0	0	0	0	0	0	0	0	0	0	0	0	0	0	0	0	0	0	0	0	0	0	0	0	0	0	0	0	567	567	567	573	574	574	575	576	579	582	585	587	588	590	591	592	594	595	597	598	599	599	599	0	0	532	532	532	532	532	532	532	532	532	532	532	532	532	532	532	532	532	533	533	533	533	534	534	534	534	534	534	534	534	534	534	534	534	535	535	535	535	536	536	536	536	537	537	537	537	538	538	539	539	539	540	540	541	541	542	543	543	544	545	546	547	548	549	549	551	552	553	554	555	556	556	558	560	563	563	564	565	565	0	0	0	0	0	0	0	0	0	0	0	0	0	0	0	0	1008	1011	1014	1014	1017	1017	1017	1020	1020	1020	1023	1026	1030	1030	1033	1033	1036	1036	1039	1042	1045	1048	1048	1052	1055	1055	1055	1058	1058	1061	1061	1064	1068	1068	1071	1074	1078	1081	1081	1085	1085	1088	1091	1091	1091	1095	1095	1098	1098	1102	1105	1105	1105	0	917	915	913	913	913	913	910	910	905	905	905	905	905	905	903	903	903	903	903	905	905	905	908	910	908	908	910	910	910	0	0	0	0	0	0	0	0	0	0	529	529	528	528	527	527	525	523	522	521	520	519	518	517	516	515	515	514	513	513	513	513	513	512	511	511	511	511	511	511	511	510	510	510	510	510	510	511	510	510	511	511	511	511	511	512	512	512	513	513	513	513	513	515	515	516	517	517	517	519	521	522	523	523	524	526	526	526	0	0	0	0	0	0	0	0	0	0	0	0	0	0	0	0	0	0	0	0	0	0	0	0	0	0	0	1525	1525	1539	1539	1539	1539	1546	1553	1553	1560	1560	1567	1567	1574	1574	1581	1589	1589	1589	1596	1596	1603	1611	1611	1618	1618	1626	1626	1634	1641	1649	1657	1665	1673	1673	1681	1681	1690	1690	1698	1706	1715	1715	1715	1723	1723	1723	1741	1741	1750	1750	1750	1759	1759	1759	1759	1777	1777	1786	1786	1795	1804	1814	1814	1824	1824	1833	1833	1843	1843	1853	1853	1665	1665	1657	1649	1649	1657	1649	1649	1657	1657	1665	1665	1665	1665	1673	1673	1665	1665	1665	1657	1657	1657	1657	1657	1649	1649	1649	1649	1649	1649	1649	1649	1649	1649	1657	1657	1657	1657	1665	1665	1649	1649	1649	1715	1723	1750	1750	1777	1786	1795	1795	1795	1795	1786	1786	1786	1786	1777	1759	1759	1759	1759	1759	1768	1768	1768	1768	1777	1759	1759	1750	1750	1750	1750	1750	1750	1750	1750	1750	1750	1750	1750	1750	1750	1750	1750	1750	1750	1750	1750	1750	1750	1525	1525	1525	1525	1525	1525	1525	1525	1525	1525	1525	1525	1525	1525	1525	1539	1539	1539	1539	1539	1546	1539	1539	1539	1539	1546	1546	1546	1546	1546	1546	1546	1546	1553	1553	1546	1546	1546	1546	1539	1539	1546	1546	1546	1546	1546	1546	1546	1546	1546	1546	1546	1546	1553	1553	1546	1546	1546	1553	1553	1553	1560	1560	1553	1553	1553	1553	1553	1553	1553	1553	1553	1553	1553	1560	1560	1553	1546	1546	1546	1546	1546	1546	1546	1546	1546	1546	1546	1546	1553	1553	1553	1553	1553	1560	1560	1553	940	940	940	940	940	940	932	930	930	930	922	922	922	0	0	0	0	0	0	0	0	0	0	0	0	0	0	0	0	0	0
0	0	0	0	0	0	0	0	0	0	0	0	0	0	0	0	0	0	0	0	0	0	0	0	0	0	0	0	0	0	0	0	0	0	0	0	0	0	0	0	0	565	565	569	572	572	572	575	576	578	580	584	587	588	590	591	592	593	595	597	598	599	600	602	602	0	0	0	0	0	0	532	533	533	533	532	532	532	532	532	532	532	532	533	533	533	533	534	534	534	534	534	534	535	534	534	535	535	535	535	535	535	535	536	536	536	537	537	538	538	538	538	539	539	539	540	541	541	542	543	543	543	544	544	545	547	547	548	549	549	551	552	553	555	555	557	558	559	560	563	564	565	565	565	0	0	0	0	0	0	0	0	0	0	0	0	0	0	0	0	1008	1011	1014	1014	1017	1017	1020	1020	1020	1023	1026	1030	1033	1033	1033	1033	1036	1039	1042	1045	1045	1052	1052	1052	1055	1055	1055	1058	1058	1061	1064	1068	1068	1071	1074	1078	1081	1081	1085	1085	1085	1088	1091	1095	1095	1095	1098	1102	1102	1105	1105	1109	1109	0	917	915	913	913	913	910	910	910	910	910	910	910	910	910	913	903	903	903	903	903	908	908	910	913	910	910	910	913	913	913	0	0	0	0	0	0	0	0	0	529	529	528	528	528	527	526	523	523	521	520	519	519	517	516	516	516	514	514	514	514	513	513	513	512	512	511	511	511	511	511	511	511	511	511	511	511	511	511	511	511	511	511	512	512	512	512	513	513	513	513	514	515	516	516	517	518	519	520	521	522	523	523	523	526	527	527	527	0	0	0	0	0	0	0	0	0	0	0	0	0	0	0	0	0	0	0	0	0	0	0	0	0	0	0	1525	1525	1539	1539	1539	1546	1546	1553	1560	1560	1567	1567	1567	1574	1574	1581	1589	1589	1596	1596	1603	1611	1611	1618	1618	1618	1626	1626	1634	1641	1649	1657	1665	1673	1681	1681	1690	1690	1698	1698	1706	1715	1715	1723	1723	1723	1732	1741	1750	1750	1750	1750	1759	1759	1768	1777	1777	1777	1786	1786	1795	1804	1814	1814	1824	1833	1833	1843	1843	1853	1853	1853	1665	1665	1657	1649	1649	1649	1649	1649	1649	1649	1657	1657	1657	1665	1665	1665	1665	1665	1657	1657	1657	1657	1657	1657	1649	1649	1649	1649	1649	1649	1649	1649	1649	1649	1657	1657	1657	1665	1665	1673	1690	1698	1706	1715	1723	1723	1750	1777	1786	1786	1795	1786	1786	1786	1786	1786	1786	1777	1759	1759	1759	1759	1759	1759	1768	1768	1768	1777	1759	1750	1741	1741	1741	1741	1741	1741	1741	1741	1741	1741	1741	1741	1741	1741	1741	1741	1741	1741	1741	1750	1741	1741	1525	1525	1525	1525	1525	1525	1525	1525	1525	1525	1525	1525	1525	1525	1525	1539	1539	1539	1539	1539	1546	1546	1546	1539	1539	1539	1539	1546	1546	1546	1546	1546	1546	1553	1553	1546	1546	1546	1546	1546	1546	1546	1546	1546	1546	1546	1546	1546	1546	1546	1546	1546	1553	1553	1553	1553	1553	1553	1553	1553	1553	1560	1560	1553	1553	1553	1553	1546	1546	1546	1553	1546	1546	1553	1560	1560	1553	1553	1553	1546	1546	1546	1546	1546	1546	1546	1546	1546	1546	1553	1553	1553	1553	0	0	942	940	940	940	940	940	940	940	930	930	925	922	922	922	922	922	922	0	0	0	0	0	0	0	0	0	0	0	0	0	0	0	0
0	0	0	0	0	0	0	0	0	0	0	0	0	0	0	0	0	0	0	0	0	0	0	0	0	0	0	0	0	0	0	0	0	0	0	0	0	0	0	0	0	565	565	569	572	572	573	574	575	576	578	578	587	588	589	590	591	592	594	596	597	599	600	600	602	0	0	0	0	0	0	0	533	534	534	532	532	532	533	533	533	533	533	533	533	533	533	534	534	534	534	535	535	535	535	535	535	535	535	535	535	535	536	536	536	536	537	537	538	538	538	538	539	540	540	540	541	541	542	543	544	545	545	545	546	547	548	548	550	550	550	552	554	554	556	558	558	559	563	564	565	565	565	565	0	0	0	0	0	0	0	0	0	0	0	0	0	0	1014	1014	1014	1014	1014	1014	1017	1017	1020	1020	1020	1023	1026	1030	1033	1033	1033	1033	1036	1042	1042	1045	1048	1055	1052	1052	1055	1055	1058	1058	1058	1064	1064	1068	1071	1071	1074	1081	1081	1081	1085	1085	1085	1091	1091	1095	1095	1098	1098	1102	1105	1105	1109	1109	1109	0	920	915	913	913	913	910	910	910	910	910	910	910	910	910	910	908	905	903	903	905	908	908	910	910	910	910	913	913	915	915	0	0	0	0	0	0	0	0	0	0	529	529	528	528	527	526	523	523	521	521	519	519	518	517	516	516	516	515	514	514	513	513	513	512	512	511	511	511	512	511	512	512	512	511	511	511	511	511	511	511	511	511	512	513	513	513	513	513	513	514	514	516	516	517	518	519	520	521	523	523	523	524	526	526	527	527	527	0	0	0	0	0	0	0	0	0	0	0	0	0	0	0	0	0	0	0	0	0	0	0	0	0	0	0	1525	1525	1539	1539	1539	1546	1553	1553	1560	1560	1567	1567	1567	1574	1581	1581	1589	1589	1596	1596	1603	1611	1611	1618	1618	1626	1626	1626	1634	1641	1649	1657	1665	1673	1681	1681	1690	1690	1698	1706	1706	1715	1715	1723	1723	1723	1732	1741	1750	1750	1750	1759	1759	1768	1768	1777	1777	1786	1786	1786	1795	1804	1814	1824	1833	1833	1843	1843	1843	1843	1853	1853	1657	1657	1649	1641	1641	1641	1641	1641	1641	1641	1649	1649	1649	1649	1649	1649	1657	1657	1649	1649	1649	1649	1649	1649	1649	1649	1649	1649	1649	1649	1649	1649	1649	1649	1657	1657	1665	1665	1681	1690	1698	1706	1715	1715	1723	1723	1750	1777	1786	1786	1786	1786	1786	1786	1786	1786	1777	1768	1759	1750	1750	1750	1750	1750	1759	1759	1768	1768	1750	1750	1741	1741	1741	1732	1741	1741	1732	1732	1741	1732	1732	1732	1732	1741	1741	1741	1741	1741	1741	1741	1741	1741	1525	1525	1525	1525	1532	1532	1532	1532	1532	1532	1532	1532	1525	1525	1532	1539	1539	1539	1539	1539	1546	1546	1546	1539	1539	1539	1539	1546	1539	1539	1546	1546	1546	1546	1546	1546	1546	1546	1546	1546	1546	1546	1546	1546	1546	1546	1546	1546	1546	1546	1546	1546	1553	1553	1553	1546	1546	1553	1553	1553	1553	1560	1560	1553	1553	1546	1546	1546	1546	1546	1553	1546	1546	1553	1560	1567	1560	1553	1553	1553	1546	1546	1546	1546	1546	1546	1546	1546	0	0	0	0	0	945	945	942	942	940	937	937	940	937	935	930	927	922	920	920	920	920	922	922	0	0	0	0	0	0	0	0	0	0	0	0	0	0	0	0
0	0	0	0	0	0	0	0	0	0	0	0	0	0	0	0	0	0	0	0	0	0	0	0	0	0	0	0	0	0	0	0	0	0	0	0	0	0	0	0	0	565	565	569	572	572	573	574	575	576	577	579	582	587	587	590	591	592	594	595	597	599	600	600	600	0	0	0	0	0	0	0	0	534	534	532	534	533	533	533	533	533	534	534	534	534	534	534	535	535	535	535	535	535	535	535	535	535	535	535	536	536	536	536	536	536	537	538	538	538	538	539	540	540	540	541	541	542	542	544	544	545	545	546	546	547	548	548	550	550	552	553	554	555	556	556	559	560	563	563	565	565	0	0	0	0	0	0	0	0	0	0	0	0	0	0	0	0	1014	1014	1014	1017	1017	1017	1017	1017	1020	1020	1023	1023	1026	1030	1033	1033	1033	1036	1036	1042	1045	1048	1052	1055	1055	1055	1055	1058	1058	1058	1061	1064	1064	1068	1071	1074	1078	1081	1081	1081	1085	1085	1088	1088	1095	1095	1098	1098	1102	1105	1105	1109	1109	1109	1109	0	920	917	915	915	913	913	910	910	910	910	910	910	913	913	915	920	905	905	905	905	910	910	913	913	913	913	913	915	913	913	0	0	0	0	0	0	0	0	0	0	529	528	528	528	527	526	523	523	522	521	520	519	518	518	516	516	516	516	515	514	513	513	513	513	512	512	512	512	512	511	512	512	512	512	511	511	511	511	511	511	511	513	513	513	513	513	513	513	514	515	515	516	516	517	518	519	520	521	523	523	523	524	526	526	527	527	527	0	0	0	0	0	0	0	0	0	0	0	0	0	0	0	0	0	0	0	0	0	0	0	0	0	0	0	1532	1532	1539	1539	1546	1546	1553	1553	1560	1560	1567	1567	1574	1574	1581	1589	1589	1596	1596	1596	1603	1611	1618	1618	1618	1626	1626	1634	1634	1649	1649	1657	1665	1673	1681	1681	1690	1690	1698	1706	1715	1715	1723	1723	1723	1732	1741	1750	1750	1750	1750	1759	1768	1768	1777	1777	1777	1786	1786	1795	1795	1804	1814	1824	1833	1833	1843	1853	1843	1843	1843	1843	1657	1649	1641	1634	1634	1626	1618	1603	1603	1618	1634	1634	1641	1641	1641	1641	1641	1641	1641	1641	1641	1649	1649	1649	1649	1649	1649	1649	1649	1649	1649	1649	1649	1649	1657	1657	1665	1673	1681	1690	1698	1706	1706	1715	1715	1732	1768	1777	1786	1786	1786	1786	1786	1777	1777	1777	1777	1768	1759	1741	1741	1741	1750	1750	1750	1759	1759	1759	1750	1741	1732	1732	1732	1732	1732	1732	1732	1732	1732	1723	1723	1732	1732	1732	1732	1732	1732	1732	1732	1741	1732	1732	1732	1525	1525	1525	1532	1532	1532	1532	1532	1532	1532	1525	1525	1532	1532	1539	1539	1539	1539	1539	1546	1546	1546	1539	1539	1539	1539	1539	1539	1539	1546	1546	1546	1546	1546	1546	1546	1546	1546	1546	1546	1546	1546	1546	1546	1546	1546	1546	1546	1546	1546	1546	1546	1553	1553	1546	1546	1553	1553	1553	1553	1560	1560	1553	1546	1546	1546	1546	1546	1546	1546	1546	1546	1560	1560	1567	1560	1560	1553	1553	1546	1546	1546	1546	1546	1546	1546	0	0	0	0	0	0	945	945	948	942	940	937	937	940	937	935	930	927	922	920	920	920	920	922	922	0	0	0	0	0	0	0	0	0	0	0	0	0	0	0	0
0	0	0	0	0	0	0	0	0	0	0	0	0	0	0	0	0	0	0	0	0	0	0	0	0	0	0	0	0	0	0	0	0	0	0	0	0	0	0	0	0	564	564	567	571	571	572	573	574	575	576	578	581	584	588	590	591	593	593	593	597	598	600	600	600	0	0	0	0	0	0	0	0	0	0	0	534	533	533	533	533	534	534	534	534	534	535	535	535	535	535	535	535	535	535	535	535	536	536	536	536	536	536	536	536	536	537	538	538	538	538	539	540	540	540	541	542	542	542	544	545	545	546	547	547	548	548	549	550	551	552	553	555	555	557	558	559	560	560	564	564	565	0	0	0	0	0	0	0	0	0	0	0	0	0	0	0	0	1014	1017	1017	1017	1017	1017	1017	1017	1020	1020	1023	1026	1026	1030	1033	1033	1033	1036	1042	1042	1045	1048	1052	1055	1055	1055	1055	1058	1058	1058	1061	1064	1064	1068	1074	1074	1081	1081	1081	1081	1085	1088	1088	1091	1095	1095	1098	1098	1102	1105	1105	1109	1109	1109	1109	920	920	917	915	915	913	913	910	910	910	910	910	910	913	913	913	920	920	917	913	913	913	913	913	913	913	913	915	915	913	913	913	0	0	0	0	0	0	0	0	0	529	529	528	528	527	527	526	524	524	521	519	519	518	517	517	516	516	516	516	515	514	514	513	513	513	512	512	512	512	512	512	512	512	512	511	511	511	511	511	511	512	513	513	513	513	513	513	513	514	515	516	516	517	517	518	519	520	521	523	523	523	524	526	526	527	527	527	0	0	0	0	0	0	0	0	0	0	0	0	0	0	0	0	0	0	0	0	0	0	0	0	0	0	0	1532	1532	1539	1546	1546	1553	1553	1560	1560	1560	1567	1567	1574	1581	1581	1589	1589	1596	1596	1603	1603	1611	1618	1618	1618	1626	1626	1634	1649	1649	1657	1665	1665	1673	1681	1681	1690	1698	1698	1706	1715	1715	1723	1723	1732	1732	1741	1750	1750	1750	1759	1759	1768	1777	1777	1786	1786	1786	1795	1795	1804	1814	1814	1824	1833	1843	1843	1853	1843	1843	1843	1843	1649	1649	1641	1634	1626	1611	1603	1596	1596	1596	1596	1596	1618	1626	1626	1626	1626	1626	1626	1626	1634	1634	1641	1641	1641	1641	1649	1649	1649	1649	1649	1649	1657	1657	1657	1665	1673	1673	1681	1690	1698	1698	1706	1706	1706	1706	1777	1777	1786	1786	1786	1455	1449	1449	1449	1443	1443	1425	1425	1741	1741	1741	1396	1396	1407	1425	1425	1425	1425	1741	1732	1732	1732	1715	1715	1723	1723	1723	1723	1723	1723	1723	1732	1732	1732	1732	1732	1732	1723	1723	1732	1732	1525	1525	1525	1525	1525	1525	1532	1532	1525	1525	1525	1525	1525	1525	1525	1532	1539	1539	1539	1539	1546	1546	1539	1539	1532	1532	1532	1532	1532	1532	1539	1539	1539	1546	1546	1546	1546	1546	1546	1546	1546	1546	1546	1546	1546	1546	1546	1546	1546	1546	1546	1546	1546	1546	1546	1546	1546	1546	1553	1553	1553	1553	1560	1553	1546	1546	1546	1546	1546	1546	1546	1546	1546	1560	1560	1567	1560	1560	1553	1553	1546	1546	1546	1546	1546	1546	1546	0	0	0	0	0	0	945	945	945	940	940	937	937	937	937	935	930	925	922	920	920	920	920	920	920	0	0	0	0	0	0	0	0	0	0	0	0	0	0	0	0
0	0	0	0	0	0	0	0	0	0	0	0	0	0	0	0	0	0	0	0	0	0	0	0	0	0	0	0	0	0	0	0	0	0	0	0	0	0	0	0	0	564	564	565	568	570	571	573	574	575	576	578	579	581	587	589	590	593	593	594	596	597	599	600	600	602	602	0	0	0	0	0	0	0	0	0	534	533	533	534	534	534	534	534	534	535	535	535	535	535	535	535	535	535	535	535	536	536	536	536	536	536	537	537	537	537	538	538	538	539	539	539	540	540	541	541	542	542	544	544	545	546	546	547	547	548	548	549	550	551	552	553	555	555	557	558	559	560	563	564	566	566	0	0	0	0	0	0	0	0	0	0	0	0	0	0	0	0	1014	1017	1017	1017	1017	1017	1017	1020	1020	1020	1023	1026	1026	1030	1033	1033	1036	1039	1042	1042	1045	1045	1055	1055	1055	1055	1055	1058	1058	1061	1064	1068	1068	1071	1074	1078	1081	1081	1081	1085	1085	1088	1091	1095	1095	1095	1098	1098	1102	1105	1105	1109	1109	1109	0	920	920	920	915	915	915	913	913	910	910	910	910	910	913	913	913	920	922	920	915	915	913	913	915	915	913	913	915	915	913	913	910	910	0	0	0	0	0	0	0	0	0	529	529	528	528	527	527	525	523	523	521	519	519	518	517	516	516	516	516	516	515	514	514	513	513	513	513	513	512	512	512	512	512	512	512	512	512	512	512	512	513	513	513	513	513	513	514	514	514	515	516	516	517	518	519	519	520	521	523	523	523	524	526	527	527	527	527	0	0	0	0	0	0	0	0	0	0	0	0	0	0	0	0	0	0	0	0	0	0	0	0	0	0	1539	1539	1539	1546	1546	1546	1553	1553	1560	1560	1560	1567	1574	1574	1581	1589	1589	1596	1596	1596	1603	1611	1618	1618	1618	1618	1626	1634	1641	1649	1649	1657	1665	1673	1681	1681	1681	1690	1698	1698	1715	1715	1715	1723	1723	1732	1732	1741	1750	1750	1759	1759	1768	1777	1786	1777	1786	1786	1786	1795	1795	1804	1814	1824	1824	1843	1843	1853	1853	1843	1843	1843	1843	1649	1641	1634	1626	1611	1603	1596	1596	1596	1596	1596	1596	1611	1618	1618	1618	1618	1618	1618	1618	1618	1626	1634	1634	1634	1641	1641	1641	1649	1649	1649	1649	1649	1649	1657	1665	1673	1673	1681	1681	1690	1698	1698	1706	1706	1706	1706	1706	1455	1455	1455	1455	1449	1449	1443	1443	1437	1425	1425	1425	1419	1402	1396	1396	1407	1419	1419	1419	1419	1425	1425	1723	1715	1706	1706	1706	1698	1698	1698	1698	1706	1715	1715	1715	1715	1715	1715	1715	1715	1706	1706	1519	1519	1525	1525	1525	1525	1525	1525	1532	1525	1525	1525	1525	1525	1525	1525	1532	1539	1539	1539	1539	1546	1546	1539	1539	1532	1532	1532	1532	1532	1532	1539	1539	1539	1546	1539	1539	1546	1546	1546	1546	1546	1546	1546	1546	1546	1546	1546	1546	1546	1546	1539	1539	1546	1546	1546	1546	1546	1546	1553	1553	1553	1553	1560	1553	1546	1546	1546	1546	1546	1546	1539	1539	1539	1539	1546	1553	1560	1560	1553	1553	1546	1546	1546	1546	1546	1546	1546	0	0	0	0	0	948	948	945	942	940	937	935	935	935	932	930	927	922	920	920	920	920	920	920	920	0	0	0	0	0	0	0	0	0	0	0	0	0	0	0	0
0	0	0	0	0	0	0	0	0	0	0	0	0	0	0	0	0	0	0	0	0	0	0	0	0	0	0	0	0	0	0	0	0	0	0	0	0	0	0	0	0	563	563	565	566	569	570	572	574	575	577	578	579	581	583	588	590	592	593	593	595	597	599	600	600	602	602	603	0	0	0	0	0	0	0	0	0	533	534	534	534	534	534	534	534	535	535	535	535	535	535	535	535	535	535	536	536	536	536	536	536	537	537	537	538	538	539	539	539	539	540	540	540	540	541	541	542	542	544	545	545	546	546	547	548	548	549	550	551	551	553	554	555	556	557	559	559	560	563	564	564	566	0	0	0	0	0	0	0	0	0	0	0	0	0	0	0	1017	1014	1017	1017	1017	1017	1020	1020	1020	1020	1020	1023	1026	1026	1030	1033	1036	1036	1039	1042	1042	1045	1045	1052	1055	1055	1055	1058	1058	1061	1061	1064	1068	1068	1071	1074	1078	1081	1081	1085	1085	1088	1091	1091	1095	1098	1098	1098	1098	1102	1105	1109	1109	1109	1109	920	920	920	920	917	917	915	913	913	910	910	910	910	910	913	913	915	922	925	920	915	915	913	913	915	915	915	915	917	915	915	913	913	910	0	0	0	0	0	0	0	0	0	529	529	528	528	527	526	524	523	523	521	519	519	518	518	517	517	516	516	516	516	514	514	513	513	513	513	513	513	513	513	513	513	513	513	513	513	513	513	512	513	513	513	513	513	514	514	514	515	515	516	516	517	518	518	519	520	522	522	523	524	524	526	527	527	527	527	0	0	0	0	0	0	0	0	0	0	0	0	0	0	0	0	0	0	0	0	0	0	0	0	0	0	1539	1539	1539	1546	1546	1553	1553	1560	1560	1560	1567	1567	1574	1581	1581	1589	1589	1596	1596	1596	1611	1618	1618	1618	1618	1626	1626	1634	1641	1649	1657	1657	1665	1673	1681	1681	1690	1690	1698	1706	1715	1715	1723	1723	1732	1732	1741	1741	1750	1759	1759	1759	1768	1777	1786	1786	1786	1786	1795	1795	1795	1804	1814	1824	1833	1843	1843	1853	1853	1843	1843	1833	1833	1649	1634	1626	1618	1611	1596	1596	1589	1589	1589	1589	1589	1596	1611	1611	1611	1611	1611	1611	1611	1611	1618	1618	1626	1626	1634	1641	1641	1641	1649	1649	1649	1649	1649	1657	1657	1665	1673	1681	1681	1690	1690	1698	1698	1698	1698	1698	1706	1455	1455	1455	1449	1449	1449	1437	1437	1431	1425	1425	1425	1419	1402	1396	1402	1407	1407	1407	1419	1419	1419	1419	1419	1419	1690	1690	1690	1690	1690	1698	1698	1698	1706	1706	1706	1706	1706	1706	1706	1706	1706	1706	1525	1525	1525	1525	1525	1525	1525	1525	1525	1525	1519	1519	1519	1519	1525	1525	1532	1532	1532	1539	1539	1546	1546	1546	1546	1546	1532	1532	1539	1525	1525	1532	1532	1539	1539	1539	1539	1539	1546	1546	1546	1546	1546	1553	1553	1553	1553	1553	1553	1546	1546	1539	1539	1546	1546	1546	1546	1546	1546	1553	1553	1553	1553	1553	1553	1546	1546	1546	1546	1546	1546	1539	1539	1539	1539	1546	1553	1560	1560	1560	1553	1553	1546	1546	1546	1546	1546	0	0	0	0	0	0	950	948	942	942	937	937	935	932	932	930	927	927	922	920	920	920	920	920	920	920	0	0	0	0	0	0	0	0	0	0	0	0	0	0	0	0
0	0	0	0	0	0	0	0	0	0	0	0	0	0	0	0	0	0	0	0	0	0	0	0	0	0	0	0	0	0	0	0	0	0	0	0	0	0	0	0	0	563	563	564	565	567	568	572	574	575	576	578	579	581	583	588	589	591	592	593	595	596	598	599	600	602	603	605	605	0	0	0	0	0	0	0	0	0	534	535	535	535	535	535	535	535	535	535	535	535	535	535	536	536	536	536	536	536	537	537	537	537	538	538	538	539	539	539	539	539	540	540	541	541	541	541	542	542	544	545	546	546	547	548	548	548	549	550	551	551	553	554	555	557	558	559	559	561	563	563	564	0	0	0	0	0	0	0	0	0	0	0	0	0	0	0	0	1017	1017	1017	1017	1017	1017	1020	1020	1020	1020	1023	1026	1030	1030	1033	1033	1036	1036	1042	1042	1042	1045	1045	1052	1055	1055	1055	1058	1058	1061	1061	1064	1068	1068	1071	1074	1078	1081	1081	1085	1085	1088	1091	1095	1095	1095	1095	1098	1098	1102	1105	1109	1109	1109	0	920	920	920	920	917	917	915	913	913	910	910	910	910	910	913	913	915	922	925	917	915	915	915	915	915	915	915	915	917	917	915	915	915	0	0	0	0	0	0	0	0	0	0	529	529	528	528	527	526	524	523	523	522	521	519	519	518	518	517	517	516	516	516	516	514	514	513	513	513	513	513	513	513	513	513	513	513	513	513	513	513	513	513	513	514	514	515	515	515	516	516	516	516	517	518	519	519	519	520	522	522	523	524	525	526	526	527	527	527	0	0	0	0	0	0	0	0	0	0	0	0	0	0	0	0	0	0	0	0	0	0	0	0	0	0	1539	1539	1546	1546	1546	1553	1553	1560	1560	1560	1567	1574	1574	1581	1581	1589	1589	1596	1596	1611	1611	1618	1618	1618	1626	1626	1626	1634	1641	1649	1657	1657	1673	1673	1681	1681	1690	1690	1698	1706	1715	1715	1723	1723	1732	1732	1741	1750	1750	1759	1759	1759	1777	1786	1786	1786	1786	1786	1795	1795	1795	1804	1814	1833	1833	1853	1853	1853	1853	1843	1843	1824	1814	1814	1634	1618	1618	1603	1596	1589	1589	1581	1581	1581	1574	1574	1560	1560	1574	1603	1603	1603	1603	1603	1603	1611	1611	1618	1626	1626	1634	1641	1641	1641	1649	1649	1649	1649	1649	1657	1665	1673	1673	1673	1681	1681	1698	1698	1449	1449	1455	1455	1455	1449	1443	1443	1443	1431	1431	1431	1425	1425	1425	1419	1407	1407	1407	1407	1407	1419	1419	1419	1419	1419	1419	1396	1396	1690	1690	1690	1690	1690	1698	1698	1698	1698	1698	1698	1698	1698	1698	1698	1698	1525	1525	1525	1525	1525	1519	1519	1519	1519	1519	1519	1512	1512	1519	1519	1525	1525	1525	1532	1532	1532	1532	1546	1546	1546	1546	1546	1532	1532	1539	1525	1525	1532	1532	1539	1539	1539	1539	1539	1546	1546	1546	1546	1553	1553	1553	1553	1553	1553	1553	1546	1546	1539	1539	1546	1546	1546	1546	1546	1546	1553	1553	1553	1553	1553	1553	1546	1546	1546	1546	1546	1546	1539	1539	1546	1546	1553	1567	1567	1567	1567	1567	1567	1567	1567	1546	1546	1546	0	0	945	945	948	948	942	942	940	940	937	935	932	930	930	927	927	925	922	920	920	920	920	920	920	920	0	0	0	0	0	0	0	0	0	0	0	0	0	0	0	0
0	0	0	0	0	0	0	0	0	0	0	0	0	0	0	0	0	0	0	0	0	0	0	0	0	0	0	0	0	0	0	0	0	0	0	0	0	0	0	0	0	562	562	563	565	565	567	571	573	575	576	578	579	580	582	587	589	590	591	592	594	596	598	599	600	603	603	604	604	604	0	0	0	0	0	0	0	0	0	535	535	535	535	535	535	535	535	536	536	536	536	536	536	536	536	536	536	536	537	537	537	538	538	538	539	539	539	540	540	540	540	541	541	541	542	542	542	543	545	546	546	547	548	548	548	548	549	550	551	552	553	554	555	557	558	559	560	562	564	565	565	565	0	0	0	0	0	0	0	0	0	0	0	0	0	0	0	1017	1017	1017	1017	1017	1017	1020	1020	1020	1023	1023	1026	1030	1030	1033	1033	1036	1039	1042	1042	1042	1045	1045	1048	1055	1055	1055	1058	1058	1061	1064	1064	1068	1068	1071	1074	1078	1081	1081	1085	1085	1088	1091	1091	1095	1095	1095	1098	1098	1098	1102	1105	1105	1109	922	920	920	920	920	920	917	917	915	913	910	910	910	910	910	913	915	925	925	927	917	915	915	915	915	917	917	917	917	917	917	917	915	915	0	0	0	0	0	0	0	0	0	0	529	529	528	528	527	526	525	524	523	523	521	520	519	519	518	517	517	516	516	516	516	514	514	514	514	513	513	513	513	513	513	513	513	513	513	513	513	513	513	514	514	515	515	515	515	516	516	516	516	517	517	518	519	519	520	521	522	523	523	524	525	527	527	527	527	527	0	0	0	0	0	0	0	0	0	0	0	0	0	0	0	0	0	0	0	0	0	0	0	0	0	0	1546	1546	1546	1546	1553	1553	1553	1560	1560	1560	1567	1574	1574	1581	1581	1589	1589	1596	1603	1611	1618	1618	1618	1626	1626	1626	1634	1641	1649	1657	1657	1665	1673	1673	1681	1681	1690	1698	1698	1706	1715	1715	1723	1723	1732	1732	1741	1750	1759	1759	1759	1768	1777	1786	1786	1786	1786	1795	1795	1804	1804	1814	1824	1833	1833	1853	1853	1853	1853	1853	1843	1786	1786	1777	1777	1618	1618	1596	1589	1581	1581	1574	1574	1532	1532	1539	1539	1539	1539	1532	1532	1574	1574	1589	1596	1596	1603	1603	1611	1611	1618	1634	1634	1641	1641	1641	1649	1649	1649	1657	1665	1673	1673	1673	1681	1681	1681	1449	1449	1449	1449	1449	1443	1443	1437	1437	1431	1431	1431	1425	1425	1425	1425	1419	1407	1407	1407	1407	1407	1419	1419	1419	1419	1419	1419	1396	1390	1390	1690	1690	1690	1690	1698	1698	1698	1698	1698	1698	1698	1698	1698	1698	1698	1525	1525	1525	1525	1525	1519	1519	1512	1512	1512	1512	1512	1512	1512	1519	1519	1519	1519	1525	1525	1525	1525	0	0	0	0	0	1525	1525	1525	1525	1525	1532	1532	1539	1539	1539	1539	1539	1546	1546	1546	1546	1553	1553	1546	1546	1553	1553	1553	1546	1546	1546	1546	1546	1546	1546	1546	1546	1546	1553	1553	1553	1553	1553	1553	1553	1546	1546	1546	1546	1546	1546	1546	1546	1546	1553	1567	1567	1567	1567	1567	1567	1567	1567	0	0	0	0	0	945	945	948	948	945	942	940	937	937	935	932	930	930	927	927	925	920	920	917	917	917	917	917	917	0	0	0	0	0	0	0	0	0	0	0	0	0	0	0	0
0	0	0	0	0	0	0	0	0	0	0	0	0	0	0	0	0	0	0	0	0	0	0	0	0	0	0	0	0	0	0	0	0	0	0	0	0	0	0	0	0	561	561	563	564	565	566	568	573	574	575	576	577	579	581	587	588	589	590	591	594	595	597	598	599	602	603	604	604	605	605	605	0	0	0	0	0	0	0	0	535	535	535	535	535	535	536	536	536	536	536	536	536	536	536	537	537	537	538	538	538	538	538	540	540	540	540	540	540	541	541	541	542	542	542	542	542	543	545	546	547	547	548	548	548	549	550	551	551	552	553	554	556	558	558	559	560	562	564	565	565	565	0	0	0	0	0	0	0	0	0	0	0	0	0	0	0	1020	1017	1020	1020	1020	1020	1020	1020	1023	1023	1026	1026	1026	1030	1030	1033	1036	1039	1042	1042	1042	1045	1045	1048	1048	1052	1055	1055	1058	1061	1064	1064	1068	1068	1071	1074	1078	1081	1081	1085	1085	1088	1091	1091	1095	1095	1095	1098	1098	1098	1102	1105	1105	0	922	922	922	920	920	920	917	917	915	913	913	913	913	913	913	913	917	922	922	927	917	915	915	917	917	917	917	917	917	920	917	917	917	917	0	0	0	0	0	0	0	0	0	0	529	529	529	528	528	527	525	524	523	523	522	520	519	519	519	518	517	517	517	516	516	515	514	514	514	514	513	513	513	513	513	513	513	513	513	513	513	513	514	514	514	515	515	516	516	516	517	517	517	518	518	518	519	519	520	521	522	523	523	524	525	527	528	529	529	0	0	0	0	0	0	0	0	0	0	0	0	0	0	0	0	0	0	0	0	0	0	0	0	0	0	1546	1546	1546	1553	1553	1553	1560	1560	1560	1560	1567	1574	1581	1581	1589	1589	1596	1596	1596	1603	1603	1618	1618	1618	1626	1626	1634	1634	1641	1649	1657	1657	1665	1673	1673	1681	1681	1690	1698	1706	1706	1715	1723	1723	1723	1732	1741	1741	1750	1750	1759	1759	1768	1777	1786	1786	1786	1786	1795	1804	1804	1814	1824	1824	1833	1853	1853	1853	1863	1853	1853	1843	1777	1768	1768	1768	1777	1777	1777	1589	1589	1532	1532	1532	1532	1532	1532	1532	1532	1525	1525	1525	1532	1546	1574	1581	1589	1589	1589	1603	1603	1611	1611	1589	1581	1581	1581	1581	1560	1560	1560	1560	1673	1673	1673	1681	1681	1681	1449	1449	1449	1449	1443	1437	1437	1431	1431	1431	1425	1425	1425	1425	1419	1419	1419	1407	1407	1413	1413	1413	1419	1419	1419	1419	1413	1413	1413	1390	1690	1690	1698	1698	1698	1698	1698	1698	1698	1698	1698	1698	1698	1698	1698	1698	1525	1525	1525	1525	1525	1519	1512	1512	1512	1512	1512	1506	1506	1512	1512	1506	1506	1506	1525	1525	1525	1525	0	0	0	0	0	1525	1525	1525	1525	1525	1525	1532	1539	1539	1539	1539	1539	1546	1546	1546	1546	1546	1546	1546	1546	1546	1553	1546	1546	1546	1546	1546	1546	1546	1546	1546	1546	1553	1553	1553	1553	1553	1553	1553	1553	1546	1546	1546	1546	1546	1546	1546	1553	1553	0	0	0	0	0	0	0	0	0	0	0	0	0	0	950	950	945	945	945	942	942	937	935	932	930	927	927	927	927	925	920	920	917	917	915	915	915	915	0	0	0	0	0	0	0	0	0	0	0	0	0	0	0	0
0	0	0	0	0	0	0	0	0	0	0	0	0	0	0	0	0	0	0	0	0	0	0	0	0	0	0	0	0	0	0	0	0	0	0	0	0	0	0	0	0	560	560	562	564	565	566	568	572	574	575	576	577	579	581	586	588	588	589	591	593	594	595	597	599	602	603	604	604	605	605	606	606	0	0	0	0	0	0	0	0	0	535	535	535	535	536	536	536	536	536	536	536	537	537	537	537	537	538	538	538	539	539	540	541	541	541	541	541	541	542	542	542	542	542	542	543	544	546	547	547	548	548	548	548	549	550	551	551	553	554	555	556	558	559	560	560	562	564	565	565	566	566	0	0	0	0	0	0	0	0	0	0	0	0	0	0	1020	894	894	1020	1020	1020	1020	1020	1023	1026	1026	1026	1030	1030	1033	1033	1036	1039	1039	1042	1042	1042	1045	910	910	910	908	908	1058	1061	1064	1068	1068	1071	1071	1074	1078	1081	1081	1085	1088	1088	1091	1091	1095	1095	1095	1098	1098	1098	1098	1098	1105	0	922	922	922	920	920	920	920	917	915	915	915	915	913	913	913	913	917	922	922	927	917	917	917	917	920	920	920	917	917	917	917	917	917	917	0	0	0	0	0	0	0	0	0	0	529	529	529	528	528	527	526	525	524	523	523	521	520	519	519	518	518	517	517	517	516	516	515	515	515	514	514	513	513	513	513	513	513	513	513	514	514	514	514	515	515	516	516	516	516	516	517	517	519	519	519	519	519	519	520	521	523	523	524	526	526	527	528	529	529	0	0	0	0	0	0	0	0	0	0	0	0	0	0	0	0	0	0	0	0	0	0	0	0	0	0	1546	1546	1546	1553	1553	1553	1560	1560	1560	1567	1567	1574	1581	1589	1589	1589	1596	1596	1603	1618	1618	1618	1626	1626	1626	1634	1634	1641	1649	1657	1657	1665	1673	1681	1681	1681	1690	1690	1706	1706	1715	1723	1723	1723	1732	1732	1741	1750	1750	1759	1759	1768	1777	1786	1786	1795	1795	1795	1804	1814	1814	1814	1824	1833	1843	1853	1853	1853	1863	1853	1853	1843	1768	1759	1759	1759	1759	1759	1759	1759	1519	1519	1525	1525	1525	1525	1525	1525	1519	1512	1512	1519	1519	1525	1539	1532	1532	1581	1581	1581	1581	1560	1560	1560	1560	1560	1574	1560	1560	1560	1560	1560	1560	1673	1673	1673	1673	1449	1449	1449	1449	1443	1437	1431	1431	1431	1431	1425	1425	1425	1425	1419	1419	1407	1407	1407	1407	1413	1413	1413	1413	1413	1419	1419	1413	1413	1407	1407	1407	1690	1698	1698	1698	1698	1698	1690	1690	1690	1690	1690	1690	1698	1698	1525	1525	1525	1525	1525	1519	1512	1512	1506	1506	1506	1506	1499	1499	1512	1512	1512	1492	1492	1492	1525	1525	1525	0	0	0	0	0	1519	1512	1506	1506	1512	1519	1519	1539	1539	1539	1539	0	0	1546	1546	1546	1546	1546	1546	1546	1546	1546	1546	1546	1546	1546	1546	1546	1546	1546	1546	1546	1553	1553	1553	1553	1553	1553	1546	1546	1546	1546	1546	1546	1546	1546	1546	1553	1553	0	0	0	0	0	0	0	0	0	0	0	0	0	950	950	948	945	945	945	942	940	935	930	930	930	925	925	925	925	922	917	917	915	915	913	910	910	910	0	0	0	0	0	0	0	0	0	0	0	0	0	0	0	0
0	0	0	0	0	0	0	0	0	0	0	0	0	0	0	0	0	0	0	0	0	0	0	0	0	0	0	0	0	0	0	0	0	0	0	0	0	0	0	0	0	560	560	562	563	565	565	568	572	574	575	576	578	579	581	584	588	588	589	590	592	594	595	596	598	602	603	604	604	605	605	606	606	606	0	0	0	0	0	0	0	0	0	0	0	536	536	536	536	536	536	536	537	537	537	537	537	537	538	538	538	539	539	541	541	541	541	542	542	542	542	542	542	543	543	543	544	545	546	547	547	548	548	548	549	550	551	551	552	553	554	555	556	558	559	560	561	564	564	565	565	566	566	0	0	0	0	0	0	0	0	0	0	0	0	0	0	0	894	894	894	894	1020	1020	1020	1023	1026	1026	1026	1030	1030	1033	1036	1036	1036	1039	910	910	910	910	910	910	910	910	908	913	913	915	920	922	930	930	1074	1078	1081	1081	1085	1085	1088	1088	1091	1091	1095	1095	1095	1098	1095	1095	1098	920	920	922	920	920	920	920	920	920	917	917	915	915	915	913	913	915	915	920	922	925	922	920	917	917	917	917	920	920	917	917	917	917	917	920	920	0	0	0	0	0	0	0	0	0	0	530	530	529	528	528	527	526	525	525	523	523	522	521	520	519	519	519	518	518	517	516	516	516	516	515	515	514	514	514	513	513	514	513	513	514	514	514	514	515	515	516	516	516	516	516	516	517	517	519	519	519	519	519	520	521	522	523	524	525	527	527	528	529	529	529	0	0	0	0	0	0	0	0	0	0	0	0	0	0	0	0	0	0	0	0	0	0	0	0	0	0	1546	1546	1546	1553	1553	1553	1560	1560	1567	1567	1567	1581	1589	1589	1589	1596	1596	1603	1611	1618	1618	1618	1626	1626	1626	1634	1634	1641	1649	1657	1665	1665	1673	1681	1681	1690	1690	1698	1706	1715	1715	1723	1723	1723	1732	1732	1750	1750	1759	1759	1768	1777	1777	1786	1786	1795	1795	1804	1804	1814	1814	1824	1824	1833	1843	1853	1853	1863	1863	1863	1853	1750	1750	1750	1750	1750	1750	1750	1750	1512	1512	1512	1519	1519	1512	1512	1519	1519	1512	1506	1506	1512	1512	1512	1506	1506	1512	1519	1581	1581	1546	1539	1539	1546	1546	1546	1553	1553	1553	1553	1560	1560	1560	1560	1449	1449	1443	1443	1443	1443	1443	1443	1437	1431	1431	1431	1425	1425	1425	1425	1419	1419	1413	1407	1407	1413	1407	1407	1407	1407	1407	1407	1413	1413	1407	1407	1407	1407	1407	1690	1698	1698	1698	1698	1698	1690	1690	1690	1690	1690	1690	1698	1698	1525	1525	1525	1525	1525	1519	1512	1506	1499	1499	1499	1499	1499	1499	1499	1512	1492	1492	1492	1492	0	0	0	0	0	0	0	0	1519	1512	1499	1499	1512	1519	1519	1519	1539	0	0	0	0	0	1546	1525	1532	1532	1532	1539	1546	1546	1546	1546	1546	1546	1546	1546	1546	1546	1546	1546	1546	1553	1553	1553	1553	1553	1546	1546	1546	1546	1546	1546	1546	1546	1546	1553	1553	0	0	0	0	0	0	0	0	0	0	958	955	955	948	948	945	940	940	940	935	935	930	927	927	927	925	922	922	920	917	915	915	913	913	910	908	908	908	0	0	0	0	0	0	0	0	0	0	0	0	0	0	0	0
0	0	0	0	0	0	0	0	0	0	0	0	0	0	0	0	0	0	0	0	0	0	0	0	0	0	0	0	0	0	0	0	0	0	0	0	0	0	0	0	0	559	559	560	562	564	565	567	571	573	574	576	578	579	580	581	587	588	588	590	591	593	593	595	597	600	603	604	604	605	605	606	606	606	0	0	0	0	0	0	0	0	0	0	0	536	536	536	536	536	536	537	537	537	537	538	538	538	538	538	538	539	540	540	541	542	542	542	542	542	542	543	543	544	544	544	545	546	546	547	547	548	548	548	549	550	551	552	552	554	555	555	558	558	560	561	562	564	564	565	565	566	566	0	0	0	0	0	0	0	0	0	0	0	0	0	889	889	891	891	891	891	1020	1020	1020	1023	1026	1030	1030	1030	1030	1033	1036	1036	1036	0	908	908	908	908	908	908	908	908	908	910	913	915	917	920	927	927	930	1074	1074	1078	1078	1081	935	935	935	935	935	935	942	942	942	942	0	920	920	920	920	920	920	920	920	920	920	917	915	915	915	915	917	917	917	920	922	922	920	917	917	917	917	917	920	920	920	920	920	917	917	920	920	0	0	0	0	0	0	0	0	0	0	531	530	529	528	528	527	526	525	525	524	523	523	522	521	520	519	519	519	518	518	517	516	516	516	516	515	514	514	514	514	514	514	514	514	514	514	514	515	515	516	516	516	516	516	516	519	519	519	519	520	520	520	520	523	523	523	524	525	526	527	528	529	529	531	531	0	0	0	0	0	0	0	0	0	0	0	0	0	0	0	0	0	0	0	0	0	0	0	0	0	0	1546	1546	1546	1553	1553	1553	1560	1560	1567	1567	1574	1581	1589	1589	1589	1596	1596	1603	1611	1618	1618	1626	1626	1626	1626	1634	1641	1649	1649	1657	1665	1673	1681	1681	1681	1690	1690	1698	1706	1715	1715	1723	1723	1723	1732	1741	1750	1750	1759	1768	1768	1777	1786	1786	1786	1795	1795	1804	1814	1814	1824	1824	1833	1833	1843	1853	1853	1853	1863	1853	1853	1750	1750	1750	1750	1750	1741	1741	1512	1512	1512	1512	1512	1506	1506	1506	1506	1506	1506	1506	1506	1506	1506	1506	1506	1506	1506	1506	1506	1512	1525	1525	1525	1532	1532	1532	1546	1539	1539	1546	1553	1553	1553	1553	1449	1449	1443	1443	1443	1443	1443	1437	1437	1431	1431	1431	1425	1425	1425	1425	1419	1419	1413	1413	1407	1407	1407	1407	1407	1407	1407	1407	1407	1407	1407	1407	1402	1402	1402	1402	1698	1698	1690	1690	1690	1690	1690	1690	1690	1690	1690	1698	1698	1532	1532	1532	1532	1525	1519	1512	1499	1499	1499	1499	1499	1499	1499	1499	0	1492	1492	1492	1492	0	0	0	0	0	0	0	0	1519	1499	1499	1499	1499	1499	1519	1519	0	0	0	0	0	0	1499	1525	1525	1525	1525	1539	1539	1539	1539	1546	1539	1539	1546	1546	1546	1546	1546	1546	1546	1553	1553	1553	1553	1553	1546	1546	1546	1539	1539	1546	1546	1553	1553	1553	1553	0	0	0	0	0	0	0	0	955	955	955	948	948	948	945	940	937	937	937	932	930	930	927	927	925	922	922	920	920	917	913	913	910	910	910	908	908	908	0	0	0	0	0	0	0	0	0	0	0	0	0	0	0	0
0	0	0	0	0	0	0	0	0	0	0	0	0	0	0	0	0	0	0	0	0	0	0	0	0	0	0	0	0	0	0	0	0	0	0	0	0	0	0	0	0	559	559	560	562	563	565	567	570	571	572	574	577	578	580	581	582	586	587	589	590	592	593	594	595	596	603	604	604	605	605	606	607	607	0	0	0	0	0	0	0	0	0	0	0	536	536	536	536	536	536	537	537	537	538	538	538	538	538	538	539	540	540	540	542	542	542	542	542	543	543	544	544	544	544	545	545	546	547	548	548	548	549	550	550	551	551	552	552	555	556	557	558	559	560	561	562	564	565	565	565	565	566	0	0	0	0	0	0	0	0	0	0	0	0	0	889	889	889	889	889	889	889	1020	1020	1023	1030	1033	1033	1030	898	896	896	896	896	898	898	903	905	905	908	908	908	908	908	910	913	913	917	917	922	925	927	1074	1074	1074	1078	930	930	932	932	932	932	932	932	932	932	937	935	935	0	922	922	922	922	922	920	920	920	917	917	917	917	917	917	917	917	920	920	920	917	917	917	917	917	920	920	920	920	920	920	920	920	920	920	0	0	0	0	0	0	0	0	0	0	531	531	529	528	528	527	527	526	525	524	523	523	523	522	520	520	519	519	519	518	518	517	516	516	516	516	515	514	514	514	514	514	514	514	514	514	514	515	516	516	516	517	517	517	517	519	519	519	520	520	520	520	520	523	523	524	525	526	527	527	529	530	530	532	532	0	0	0	0	0	0	0	0	0	0	0	0	0	0	0	0	0	0	0	0	0	0	0	0	0	1546	1546	1546	1546	1553	1553	1553	1560	1560	1567	1567	1574	1589	1589	1589	1596	1596	1603	1603	1611	1618	1618	1626	1626	1626	1634	1641	1641	1649	1649	1657	1665	1673	1681	1681	1690	1690	1690	1706	1715	1715	1715	1723	1723	1723	1732	1741	1750	1759	1759	1768	1777	1777	1786	1795	1795	1795	1795	1804	1814	1814	1824	1824	1833	1833	1853	1853	1853	1853	1853	1853	1843	1759	1750	1750	1741	1741	1732	1732	1506	1506	1506	1506	1506	1499	1499	1499	1492	1492	1492	1492	1492	1492	1492	1492	1499	1499	1499	1499	1499	1499	1506	1506	1512	1519	1519	1525	1532	1532	1532	1532	1539	1539	1539	1539	1449	1443	1443	1443	1443	1443	1443	1437	1437	1431	1425	1425	1425	1425	1419	1419	1413	1413	1413	1407	1407	1407	1407	1407	1407	1407	1407	1407	1407	1407	1402	1402	1402	1402	1402	1402	1402	1698	1690	1690	1690	1681	1681	1690	1690	1690	1690	1553	1546	1532	1532	1532	1532	1519	1512	1506	1499	1492	1492	1492	1492	1499	1499	0	0	0	0	0	0	0	0	0	0	0	0	0	1492	1492	1499	1499	1499	1499	1499	0	0	0	0	0	0	0	1499	1499	1506	1512	1519	1519	1532	1539	1539	1539	1539	1532	1532	1539	1539	1539	1539	1539	1539	1539	1553	1553	1553	1546	1546	1539	1539	1539	1539	1539	1546	1546	1546	1553	0	974	974	0	0	0	0	961	961	955	955	953	953	948	945	945	942	940	937	935	935	932	930	927	927	927	925	922	922	920	917	915	913	910	910	910	908	908	908	908	0	0	0	0	0	0	0	0	0	0	0	0	0	0	0	0
0	0	0	0	0	0	0	0	0	0	0	0	0	0	0	0	0	0	0	0	0	0	0	0	0	0	0	0	0	0	0	0	0	0	0	0	0	0	0	0	0	558	558	559	561	562	564	565	567	571	571	573	577	578	579	580	581	583	587	588	590	592	593	594	595	596	602	603	604	604	605	606	606	606	0	0	0	0	0	0	0	0	0	0	0	536	537	537	537	537	537	537	538	538	538	538	538	538	539	539	539	540	540	542	542	542	542	542	543	543	543	544	544	545	545	545	545	547	548	548	548	548	549	550	550	551	552	552	552	557	557	557	558	559	561	562	563	565	565	565	566	566	0	0	0	0	0	0	0	0	0	0	0	0	0	0	891	884	884	884	887	889	889	891	1020	1020	1020	1033	898	898	898	896	896	894	894	896	896	901	901	903	905	905	905	908	908	910	910	910	913	913	917	920	915	915	913	913	915	920	927	927	927	930	930	930	930	930	932	935	935	932	932	922	922	922	922	922	922	920	920	920	917	917	917	917	917	917	917	920	920	920	917	917	917	917	920	920	920	920	920	920	920	920	920	922	922	0	0	0	0	0	0	0	0	0	0	532	532	530	529	528	527	527	526	526	525	523	523	523	522	521	520	520	519	519	519	518	517	517	516	516	516	516	515	514	514	514	514	514	514	514	514	515	516	516	516	517	517	517	518	518	519	519	520	520	521	521	523	523	523	524	524	526	527	527	528	529	530	531	531	532	0	0	0	0	0	0	0	0	0	0	0	0	0	0	0	0	0	0	0	0	0	0	0	0	0	1546	1546	1546	1546	1553	1553	1553	1560	1567	1567	1574	1574	1589	1589	1596	1596	1596	1603	1611	1611	1618	1618	1626	1626	1626	1634	1641	1649	1649	1649	1665	1673	1681	1681	1690	1690	1690	1690	1706	1715	1715	1723	1723	1723	1732	1732	1741	1750	1759	1759	1768	1777	1786	1786	1795	1795	1804	1804	1814	1814	1814	1824	1824	1833	1833	1853	1853	1853	1853	1853	1843	1824	1759	1750	1750	1741	1741	1732	1732	1506	1506	1499	1499	1499	1492	1492	1486	1486	1486	1486	1486	1486	1486	1486	1486	1492	1492	1492	1492	1492	1492	1499	1499	1506	1512	1512	1519	1525	1525	1525	1532	1532	1525	1525	1525	1449	1443	1443	1437	1437	1437	1437	1431	1431	1431	1425	1425	1425	1419	1419	1413	1413	1413	1413	1407	1407	1407	1407	1407	1407	1407	1407	1407	1407	1407	1402	1402	1402	1402	1402	1402	1402	1407	1690	1690	1690	1681	1681	1681	1681	1681	1690	1553	1546	1539	1539	1539	1525	1519	1512	1499	1492	1486	1486	1486	1486	0	0	0	0	0	0	0	0	0	0	0	0	0	0	0	1492	1492	1492	1492	1492	1499	1499	0	0	0	0	0	0	0	1499	1499	1499	1506	1506	1506	1532	1539	1539	1539	1539	1532	1532	1539	1525	1525	1525	1525	1532	1532	1546	1546	1546	1553	1546	1546	1546	1546	1546	1539	1546	1546	1546	0	0	974	974	0	0	0	961	961	958	955	953	953	950	948	945	945	942	940	937	935	932	930	927	927	927	925	922	922	920	920	917	913	910	910	910	910	908	908	908	908	0	0	0	0	0	0	0	0	0	0	0	0	0	0	0	0
0	0	0	0	0	0	0	0	0	0	0	0	0	0	0	0	0	0	0	0	0	0	0	0	0	0	0	0	0	0	0	0	0	0	0	0	0	0	0	0	0	558	558	559	561	562	563	565	566	570	571	572	576	578	578	579	580	581	583	588	590	592	593	594	595	596	597	602	603	603	604	605	606	606	0	0	0	0	0	0	669	669	669	666	666	0	537	537	537	538	538	538	538	539	539	538	538	539	539	539	540	541	542	542	542	542	543	543	544	544	544	545	545	545	545	546	546	547	548	548	549	549	550	551	551	552	552	553	555	557	557	557	558	559	562	563	564	565	565	565	565	566	0	0	0	0	0	0	0	0	0	0	0	0	0	0	891	880	880	882	884	884	889	891	891	889	889	889	891	891	891	891	891	891	894	894	894	896	896	901	903	905	905	905	905	910	910	910	910	910	910	910	908	908	910	910	915	917	922	922	922	925	927	925	925	927	930	932	932	932	930	930	925	922	922	922	922	922	922	920	920	920	920	920	920	920	917	920	920	920	917	917	917	917	920	920	920	920	920	920	920	920	920	922	922	0	0	0	0	0	0	0	0	0	0	532	532	530	529	528	527	527	526	526	525	524	523	523	522	521	520	520	519	519	519	518	518	517	517	516	516	516	516	516	516	515	515	515	515	515	515	516	516	516	516	517	517	518	518	519	519	520	520	520	523	523	523	523	523	524	526	526	527	527	528	530	531	531	531	0	0	0	0	0	0	0	0	0	0	0	0	0	0	0	0	0	0	0	0	0	0	0	0	0	1546	1546	1546	1546	1553	1553	1560	1560	1560	1567	1567	1574	1581	1589	1589	1596	1596	1603	1603	1611	1618	1618	1626	1626	1626	1626	1634	1641	1649	1649	1657	1665	1673	1681	1681	1690	1690	1690	1690	1706	1715	1715	1723	1723	1732	1732	1741	1750	1759	1759	1768	1777	1777	1786	1786	1795	1795	1814	1814	1814	1814	1824	1824	1824	1833	1833	1853	1853	1853	1853	1843	1833	1814	1750	1750	1750	1741	1741	1732	1723	1723	1506	1492	1492	1486	1480	1480	1480	1480	1480	1473	1473	1473	1480	1480	1480	1486	1486	1486	1486	1486	1486	1492	1492	1499	1506	1512	1519	1519	1519	1525	1525	1525	1519	1519	1519	1449	1443	1443	1437	1437	1437	1431	1431	1431	1425	1425	1425	1419	1413	1413	1413	1413	1413	1407	1407	1407	1407	1407	1407	1407	1407	1402	1402	1402	1402	1402	1396	1396	1396	1402	1402	1402	1407	1690	1690	1681	1681	1681	1681	1681	1681	1574	1560	1553	1539	1539	1539	1525	1519	1512	1499	1492	1486	1486	1486	1486	0	0	0	0	0	0	0	0	0	0	0	0	0	0	0	1492	1492	1492	1492	1492	1499	1499	0	0	0	0	0	0	0	1492	1492	1499	1499	1499	1506	1506	1539	1539	1539	1539	1532	1532	1539	1525	1525	1525	1525	1532	1539	1546	1546	1546	1553	1553	1553	1546	1546	1546	0	0	991	991	0	0	974	974	0	0	963	961	961	958	953	950	950	948	945	942	942	940	937	935	932	930	930	927	927	925	925	922	920	920	917	915	913	910	910	910	908	908	908	908	908	0	0	0	0	0	0	0	0	0	0	0	0	0	0	0	0
0	0	0	0	0	0	0	0	0	0	0	0	0	0	0	0	0	0	0	0	0	0	0	0	0	0	0	0	0	0	0	0	0	0	0	0	0	0	0	0	0	557	557	558	560	562	563	564	565	566	570	572	575	577	578	579	580	581	582	586	589	592	593	594	595	595	597	601	602	603	604	605	605	605	0	0	671	671	670	669	669	669	667	666	666	666	666	0	0	538	538	539	539	539	539	539	539	540	540	540	541	541	542	542	543	543	543	543	544	544	544	545	545	545	545	546	548	548	548	549	550	550	550	551	551	552	553	553	555	555	557	558	559	560	562	563	564	565	565	565	565	0	0	0	0	0	0	0	0	0	0	0	0	0	0	0	0	880	880	878	878	878	880	882	882	889	889	889	889	889	889	891	891	891	894	894	894	894	894	896	901	901	901	903	905	908	905	901	901	901	901	903	903	903	903	903	905	905	905	905	913	922	925	922	922	925	927	930	930	930	930	927	925	922	922	922	922	922	922	922	920	920	920	920	920	920	920	920	920	920	920	920	920	920	920	920	922	922	922	920	920	920	920	920	922	0	0	0	0	0	0	0	0	0	533	532	532	531	530	529	528	527	526	526	525	525	524	523	523	521	521	520	520	519	519	519	518	517	517	517	516	516	516	516	516	516	516	516	516	516	516	516	516	516	516	517	518	519	519	519	520	520	522	523	523	523	523	523	524	525	526	527	527	528	529	530	531	531	531	0	0	0	0	0	0	0	0	0	0	0	0	0	0	0	0	0	0	0	0	0	0	0	0	1546	1546	1546	1546	1546	1553	1553	1560	1560	1560	1567	1567	1574	1589	1589	1589	1596	1596	1603	1611	1618	1618	1626	1626	1626	1626	1626	1634	1641	1649	1649	1657	1665	1673	1681	1681	1690	1690	1690	1698	1706	1715	1723	1723	1723	1732	1741	1741	1750	1759	1768	1768	1777	1786	1786	1795	1795	1795	1814	1814	1814	1814	1824	1824	1833	1833	1843	1853	1853	1853	1853	1843	1824	1814	1750	1750	1750	1741	1732	1723	1715	1706	1706	1492	1492	1480	1480	1480	1473	1473	1473	1473	1473	1473	1473	1473	1473	1480	1480	1486	1486	1486	1486	1486	1492	1492	1499	1506	1506	1512	1519	1519	1512	1512	1512	1486	1467	1455	1449	1443	1437	1437	1431	1431	1425	1425	1425	1425	1419	1413	1407	1407	1407	1407	1407	1407	1407	1407	1407	1402	1402	1407	1407	1402	1402	1402	1402	1396	1396	1396	1396	1402	1402	1402	1402	1681	1681	1673	1673	1673	1673	1681	1574	1567	1560	1560	1553	1546	1546	1532	1519	1512	1499	1492	1480	1480	1480	1486	0	0	0	0	0	0	0	0	0	0	0	0	0	0	0	0	0	1492	1492	1492	1492	1492	0	0	0	0	0	0	0	1492	1499	1499	1499	1506	1506	1506	0	0	0	0	0	0	0	1525	1525	1525	1525	1525	1546	1546	1546	1546	1553	1553	1553	0	0	0	997	997	991	988	988	988	974	974	972	969	963	961	961	958	953	950	948	945	942	940	940	937	937	935	932	930	930	927	927	925	922	920	920	917	917	915	913	910	908	908	908	908	908	908	908	0	0	0	0	0	0	0	0	0	0	0	0	0	0	0	0
0	0	0	0	0	0	0	0	0	0	0	0	0	0	0	0	0	0	0	0	0	0	0	0	0	0	0	0	0	0	0	0	0	0	0	0	0	0	0	0	0	556	556	557	557	561	562	564	564	565	570	573	575	577	578	578	579	581	582	585	589	591	593	594	595	595	597	600	602	603	604	605	605	605	605	0	671	671	670	669	669	669	667	666	666	666	666	666	0	0	0	539	540	540	540	540	541	542	542	542	542	542	543	543	543	543	543	544	544	544	545	545	545	546	546	547	548	548	548	550	551	551	552	553	553	554	554	555	555	555	558	558	559	562	562	563	564	565	566	566	0	0	0	0	0	0	0	0	0	0	0	0	0	0	0	0	0	880	880	873	873	875	878	880	882	884	884	884	884	884	887	889	889	889	894	894	894	894	894	896	896	896	896	898	898	896	894	894	896	896	896	901	901	898	898	898	903	905	905	905	913	922	913	913	915	922	922	922	927	927	927	927	922	922	922	922	922	922	922	922	922	920	920	920	922	922	922	922	922	922	920	920	920	920	922	922	922	922	922	922	922	925	925	925	0	0	0	0	0	0	0	0	0	0	532	532	532	532	530	530	529	527	527	527	527	525	524	523	523	522	521	521	520	519	519	519	519	518	517	517	517	517	516	516	516	516	516	516	516	516	516	516	516	516	517	518	518	519	520	520	521	521	522	523	523	523	524	524	525	525	526	527	529	530	530	530	532	532	531	0	0	0	0	0	0	0	0	0	0	0	0	0	0	0	0	0	0	0	0	0	0	0	1539	1539	1546	1546	1546	1553	1553	1553	1560	1560	1560	1567	1574	1581	1589	1589	1596	1596	1603	1603	1611	1618	1618	1626	1626	1626	1626	1626	1634	1641	1649	1649	1665	1673	1673	1681	1681	1690	1690	1690	1698	1715	1715	1723	1723	1723	1732	1741	1750	1750	1759	1768	1777	1786	1786	1786	1795	1804	1804	1814	1814	1814	1824	1824	1824	1833	1843	1843	1853	1853	1853	1853	1833	1824	1804	1786	1759	1750	1732	1723	1723	1715	1706	1681	1673	1673	1473	1473	1473	1473	1473	1473	1467	1467	1467	1467	1467	1467	1467	1473	1473	1473	1480	1480	1486	1486	1492	1492	1499	1499	1506	1506	1506	1506	1499	1486	1486	1467	1455	1449	1443	1437	1437	1431	1431	1425	1425	1425	1419	1413	1407	1407	1407	1407	1407	1407	1407	1407	1407	1407	1402	1402	1407	1402	1402	1402	1402	1402	1396	1396	1396	1396	1396	1402	1402	1402	1402	1665	1665	1665	1665	1673	1574	1574	1567	1560	1560	1553	1553	1553	1546	1532	1512	1492	1486	1473	1473	1473	1473	1473	0	0	0	0	0	0	0	0	0	0	0	0	0	0	0	0	0	1492	1492	1492	1492	0	0	0	0	0	0	0	0	1492	1492	1499	1499	1506	1506	0	0	0	0	0	0	0	0	0	1525	1525	1525	1546	1546	1546	1546	0	0	0	997	997	997	997	997	991	988	988	988	972	972	972	966	961	961	961	955	953	950	945	942	940	940	937	937	935	932	932	930	930	927	925	922	920	920	917	917	915	915	913	908	908	908	908	908	908	908	908	0	0	0	0	0	0	0	0	0	0	0	0	0	0	0	0
0	0	0	0	0	0	0	0	0	0	0	0	0	0	0	0	0	0	0	0	0	0	0	0	0	0	0	0	0	0	0	0	0	0	0	0	0	0	0	0	0	556	556	557	559	560	561	563	564	564	570	572	574	576	577	577	579	580	582	584	587	590	592	593	594	595	597	600	601	602	604	604	605	605	606	606	671	671	670	669	669	669	667	666	666	666	665	665	0	0	0	0	540	540	540	540	542	542	543	543	543	543	543	543	543	544	544	544	544	545	545	545	546	546	547	548	548	548	549	550	551	552	552	553	553	554	555	555	558	559	559	561	562	563	564	564	564	565	565	566	0	0	0	0	0	0	0	0	0	0	0	0	0	0	0	0	0	0	0	873	871	871	875	875	882	882	882	882	882	882	882	882	884	884	884	884	891	889	889	891	891	891	891	891	891	894	894	894	894	896	896	896	901	896	896	896	898	901	903	903	905	905	905	908	910	913	913	913	913	913	913	913	913	915	920	922	922	922	922	922	922	922	922	922	922	922	922	922	922	922	922	922	922	922	922	925	925	925	925	925	927	927	930	930	0	0	0	0	0	0	0	0	0	0	532	532	532	532	531	531	529	528	527	527	526	525	524	524	523	523	522	522	521	520	520	519	519	519	518	517	517	517	517	517	517	516	516	516	516	516	516	517	517	517	518	518	519	520	520	521	522	522	522	523	523	523	525	525	525	526	527	527	529	530	531	532	532	532	0	0	0	0	0	0	0	0	0	0	0	0	0	0	0	0	0	0	0	0	0	0	0	0	1539	1539	1546	1546	1546	1553	1553	1560	1560	1560	1567	1567	1574	1581	1589	1596	1596	1596	1603	1611	1611	1618	1618	1626	1626	1626	1634	1634	1641	1649	1649	1649	1665	1673	1681	1681	1690	1690	1690	1698	1698	1715	1715	1723	1723	1732	1741	1750	1750	1759	1768	1768	1777	1786	1786	1795	1795	1804	1804	1814	1814	1814	1824	1824	1824	1833	1843	1853	1853	1853	1853	1843	1833	1824	1804	1786	1759	1750	1732	1723	1723	1715	1698	1681	1673	1673	1473	1473	1473	1467	1467	1461	1461	1455	1455	1455	1455	1455	1455	1455	1461	1461	1467	1473	1473	1480	1480	1486	1486	1492	1492	1492	1499	1486	1486	1480	1480	1473	1455	1455	1443	1437	1437	1431	1431	1425	1425	1425	1419	1413	1407	1407	1407	1407	1407	1407	1407	1407	1407	1407	1402	1402	1407	1402	1402	1402	1402	1396	1396	1390	1390	1390	1396	1396	1396	1396	1396	1396	1396	1396	1589	1589	1574	1574	1567	1560	1560	1553	1553	1553	1546	1539	1525	1480	1480	1473	1473	1467	1467	1467	0	0	0	0	0	0	0	0	0	0	0	0	0	0	0	0	0	0	0	0	0	0	0	0	0	0	0	0	0	1492	1492	1499	1499	1499	1506	0	0	0	0	0	0	0	0	0	0	0	0	0	0	0	0	0	0	997	997	997	997	997	994	991	988	988	974	969	969	966	963	961	961	958	955	950	948	942	940	940	937	937	937	935	932	930	930	927	927	925	922	920	920	917	917	915	915	913	908	908	908	908	908	908	908	908	0	0	0	0	0	0	0	0	0	0	0	0	0	0	0	0
0	0	0	0	0	0	0	0	0	0	0	0	0	0	0	0	0	0	0	0	0	0	0	0	0	0	0	0	0	0	0	0	0	0	0	0	0	0	0	0	0	556	556	557	559	560	561	563	564	565	566	571	573	574	574	576	578	580	581	584	586	589	591	593	594	595	597	600	601	602	603	604	604	605	606	606	0	671	669	669	669	669	667	667	666	666	665	665	665	665	0	0	540	540	540	540	543	543	543	543	543	543	544	544	544	544	544	544	545	545	545	546	546	547	548	548	548	548	549	550	552	552	553	553	553	554	555	555	558	559	559	563	563	563	565	565	565	565	565	0	0	0	0	0	0	0	0	0	0	0	0	0	0	0	0	0	0	0	0	865	865	869	875	875	880	878	878	880	880	880	875	875	875	875	875	878	880	880	884	884	887	887	887	887	887	889	889	889	889	891	891	894	894	894	894	894	894	896	898	901	903	905	905	905	908	910	910	910	910	910	910	908	910	910	913	917	920	920	922	922	922	922	922	922	925	925	925	925	925	925	925	925	925	925	925	925	927	927	927	927	927	930	930	930	0	0	0	0	0	0	0	0	0	0	533	532	532	532	532	532	530	529	528	527	527	526	524	524	524	523	522	522	521	521	520	519	519	519	518	518	518	518	518	518	517	517	517	517	517	517	517	517	519	519	519	519	520	520	521	522	522	522	523	523	523	525	526	526	526	527	527	529	530	530	532	532	532	532	0	0	0	0	0	0	0	0	0	0	0	0	0	0	0	0	0	0	0	0	0	0	0	0	1539	1539	1546	1546	1553	1553	1553	1560	1560	1560	1567	1567	1574	1581	1589	1596	1596	1596	1603	1611	1618	1618	1618	1626	1626	1634	1641	1641	1641	1649	1657	1657	1673	1673	1681	1681	1690	1690	1698	1698	1706	1715	1715	1723	1723	1732	1741	1750	1750	1759	1768	1777	1777	1786	1786	1795	1795	1804	1814	1814	1814	1814	1824	1824	1833	1843	1853	1853	1863	1853	1853	1843	1833	1814	1795	1777	1759	1750	1741	1732	1723	1715	1690	1673	1665	1665	1473	1473	1467	1467	1461	1461	1455	1455	1449	1449	1449	1443	1443	1437	1437	1443	1449	1455	1461	1467	1473	1473	1480	1480	1486	1486	1486	1480	1480	1473	1473	1467	1461	1455	1443	1437	1437	1431	1431	1431	1425	1419	1419	1413	1402	1402	1402	1407	1402	1402	1402	1402	1402	1402	1402	1402	1402	1402	1396	1390	1390	1390	1385	1385	1385	1390	1390	1396	1396	1396	1396	1396	1396	1396	1581	1574	1574	1574	1574	1567	1560	1560	1553	1553	1546	1546	1525	1480	1480	1473	1473	1467	1467	1467	0	0	0	0	0	0	0	0	0	0	0	0	0	0	0	0	0	0	0	0	0	0	0	0	0	0	0	0	0	1492	1492	1499	1499	1499	0	0	0	0	0	0	0	0	0	0	0	0	0	0	0	0	0	0	997	997	997	997	997	997	994	991	988	988	972	966	966	963	961	958	958	958	953	948	945	942	940	937	937	937	935	935	932	930	930	927	927	925	922	920	917	917	917	915	915	910	908	908	908	908	908	908	908	908	0	0	0	0	0	0	0	0	0	0	0	0	0	0	0	0
0	0	0	0	0	0	0	0	0	0	0	0	0	0	0	0	0	0	0	0	0	0	0	0	0	0	0	0	0	0	0	0	0	0	0	0	0	0	0	0	0	555	555	557	559	559	561	562	563	564	565	570	573	574	575	575	576	578	579	579	586	589	590	591	593	594	597	598	601	602	603	603	604	605	606	606	0	671	669	669	669	669	667	667	666	666	666	666	666	666	666	0	0	0	540	544	544	544	544	544	544	544	544	544	544	545	545	545	545	545	546	547	548	548	548	548	549	549	549	551	553	553	554	555	555	555	555	557	558	559	559	564	564	564	565	565	565	565	0	0	0	0	0	0	0	0	0	0	0	0	0	0	0	0	0	0	0	0	0	865	862	862	862	867	869	869	878	880	880	880	875	871	871	871	873	873	875	875	875	880	880	880	880	880	884	884	884	884	887	887	889	891	891	889	889	891	891	894	894	896	898	901	903	903	903	903	903	903	903	903	905	905	905	905	905	910	917	917	920	920	920	920	922	922	925	925	925	927	927	927	927	927	927	927	927	930	930	930	930	930	930	932	932	932	932	0	0	0	0	0	0	0	0	0	533	533	533	532	532	532	530	529	528	528	527	527	524	524	524	523	522	522	521	521	520	520	519	519	519	519	519	518	518	518	518	517	517	518	518	518	518	519	519	519	519	520	521	521	522	523	523	523	524	525	525	526	527	527	527	529	529	530	532	532	533	533	532	532	0	0	0	0	0	0	0	0	0	0	0	0	0	0	0	0	0	0	0	0	0	0	0	0	1539	1539	1546	1546	1553	1553	1560	1560	1560	1567	1567	1574	1581	1589	1589	1596	1596	1603	1603	1611	1618	1618	1618	1626	1634	1634	1641	1641	1649	1649	1657	1657	1673	1681	1681	1690	1690	1690	1698	1698	1706	1715	1723	1723	1732	1741	1750	1750	1759	1759	1768	1777	1786	1786	1795	1795	1804	1814	1824	1814	1814	1824	1824	1833	1843	1843	1853	1853	1863	1853	1853	1843	1824	1795	1786	1777	1759	1750	1732	1732	1723	1706	1681	1673	1649	1649	1467	1467	1461	1461	1455	1455	1449	1449	1449	1437	1431	1431	1431	1431	1431	1431	1431	1431	1431	1431	1431	1431	1431	1467	1473	1467	1467	1467	1467	1467	1467	1467	1455	1455	1449	1437	1437	1431	1431	1425	1425	1413	1413	1407	1402	1402	1402	1407	1402	1402	1402	1402	1402	1396	1396	1396	1396	1396	1390	1390	1390	1385	1385	1379	1379	1385	1390	1390	1390	1390	1390	1390	1396	1581	1574	1567	1567	1574	1567	1560	1560	1560	1553	1553	1553	1546	1525	1480	1480	1473	1473	1467	1467	1467	0	0	0	0	0	0	0	0	0	0	0	0	0	0	0	0	0	0	0	0	0	0	0	0	0	0	0	0	0	0	0	0	0	0	0	0	0	0	0	0	0	0	0	0	0	0	0	0	0	0	0	0	997	997	997	997	997	997	991	991	988	988	972	966	963	961	958	958	958	958	953	948	945	942	940	937	937	935	935	932	930	930	927	927	925	925	920	917	917	915	915	913	913	910	908	908	908	908	908	908	908	908	0	0	0	0	0	0	0	0	0	0	0	0	0	0	0	0
0	0	0	0	0	0	0	0	0	0	0	0	0	0	0	0	0	0	0	0	0	0	0	0	0	0	0	0	0	0	0	0	0	0	0	0	0	0	0	0	0	555	555	556	558	559	560	561	562	564	565	570	573	574	574	575	576	576	578	580	586	588	589	589	589	594	596	598	600	602	603	603	604	604	605	605	0	671	670	670	670	670	669	667	667	667	666	665	665	665	665	0	0	0	0	544	544	543	543	544	544	544	544	544	544	545	545	545	545	546	547	547	548	548	548	548	550	550	551	552	553	554	555	555	555	555	556	558	562	562	562	564	564	564	564	565	0	0	0	0	0	0	0	0	0	0	0	0	0	0	0	0	0	0	0	0	0	850	850	850	850	850	850	852	852	854	854	856	856	862	862	867	867	867	869	869	873	873	875	878	878	878	878	878	880	880	880	882	884	884	884	887	887	887	887	887	889	891	891	894	894	894	898	898	898	898	898	898	898	898	901	901	903	903	903	905	908	913	913	917	917	917	920	920	922	925	925	927	927	927	927	927	927	927	927	930	930	932	930	930	930	932	932	932	932	0	0	0	0	0	0	0	0	0	0	534	533	532	532	532	530	529	528	528	527	527	526	525	524	524	523	523	522	521	520	520	519	519	519	519	519	519	518	518	518	518	518	518	518	518	519	519	519	519	520	520	522	522	522	523	523	524	525	525	526	527	527	527	529	529	530	530	532	532	533	533	0	0	0	0	0	0	0	0	0	0	0	0	0	0	0	0	0	0	0	0	0	0	0	0	0	0	1546	1546	1553	1553	1560	1560	1560	1560	1560	1567	1567	1574	1581	1581	1589	1596	1596	1603	1611	1611	1618	1618	1618	1626	1634	1641	1641	1649	1649	1649	1657	1665	1673	1673	1681	1681	1690	1698	1698	1706	1706	1715	1715	1723	1732	1741	1741	1750	1759	1759	1768	1777	1777	1786	1795	1795	1804	1814	1814	1814	1814	1824	1824	1833	1843	1843	1853	1853	1863	1863	1853	1843	1824	1795	1777	1768	1759	1750	1732	1732	1723	1690	1665	1657	1641	1641	1467	1467	1461	1455	1449	1449	1449	1443	1437	1431	1425	1425	1425	1425	1425	1425	1425	1419	1419	1425	1425	1425	1425	1431	1431	1437	1449	1449	1455	1467	1467	1461	1455	1455	1449	1437	1431	1431	1431	1419	1419	1413	1407	1407	1402	1402	1402	1407	1402	1402	1402	1402	1402	1396	1396	1396	1390	1390	1385	1385	1385	1385	1379	1379	1379	1379	1385	1385	1390	1390	1390	1390	1390	1574	1574	1567	1567	1567	1567	1560	1560	1553	1553	1553	1553	1546	1512	1486	1480	1473	1467	1467	1467	1467	0	0	0	0	0	0	0	0	0	0	0	0	0	0	0	0	0	0	0	0	0	0	0	0	0	0	0	0	0	0	0	0	0	0	0	0	0	0	0	0	0	0	0	1033	1033	1033	1033	0	0	0	1008	1006	1006	997	997	997	997	997	991	988	985	983	972	966	963	961	958	958	958	955	953	950	948	942	937	937	935	935	932	930	930	930	927	927	925	925	920	917	917	915	915	913	913	910	908	908	908	908	908	908	908	908	0	0	0	0	0	0	0	0	0	0	0	0	0	0	0	0
0	0	0	0	0	0	0	0	0	0	0	0	0	0	0	0	0	0	0	0	0	0	0	0	0	0	0	0	0	0	0	0	0	0	0	0	0	0	0	0	0	554	554	555	556	557	559	560	561	563	565	569	572	573	574	574	575	576	578	580	586	587	588	588	590	591	592	594	596	596	602	603	604	604	605	607	607	607	611	671	671	670	669	669	667	667	667	665	665	666	666	666	0	0	0	544	543	543	543	544	544	544	544	545	545	545	545	545	545	546	547	548	548	548	548	549	550	551	552	553	554	555	555	555	555	556	556	559	562	562	562	565	565	564	564	0	0	0	0	0	0	0	0	0	0	0	0	0	0	0	0	0	0	0	0	0	0	845	845	848	848	848	845	845	850	850	850	852	854	854	856	856	862	862	862	862	865	865	867	871	873	873	873	873	878	878	878	878	880	880	880	882	882	882	884	884	884	884	887	887	889	891	898	894	894	894	894	894	894	894	896	896	898	901	903	905	905	905	905	908	913	917	920	920	922	925	925	927	927	927	927	927	927	927	927	930	930	932	930	930	932	932	932	937	937	0	0	0	0	0	0	0	0	0	536	535	533	533	532	532	532	531	529	529	528	527	526	526	525	524	523	523	522	522	521	520	520	519	519	519	519	519	519	519	519	518	518	519	519	519	519	519	519	520	522	522	523	523	523	523	524	524	525	526	527	527	527	527	529	530	531	531	532	533	534	535	535	0	0	0	0	0	0	0	0	0	0	0	0	0	0	0	0	0	0	0	0	0	0	0	0	0	1553	1553	1553	1553	1560	1560	1560	1560	1567	1567	1574	1581	1589	1589	1596	1596	1603	1611	1611	1618	1618	1618	1626	1634	1641	1641	1649	1649	1649	1657	1657	1665	1681	1681	1690	1690	1698	1706	1706	1715	1715	1723	1723	1732	1741	1750	1750	1759	1759	1768	1768	1777	1786	1795	1804	1804	1814	1824	1824	1824	1824	1824	1833	1833	1843	1853	1863	1863	1863	1863	1863	1853	1843	1786	1768	1759	1750	1741	1732	1732	1706	1673	1657	1649	1641	1634	1626	1626	1626	1455	1449	1449	1443	1437	1431	1425	1425	1419	1419	1419	1419	1419	1419	1413	1413	1419	1419	1419	1419	1419	1425	1431	1437	1437	1443	1449	1449	1449	1449	1443	1443	1437	1431	1431	1431	1419	1413	1407	1407	1407	1402	1402	1402	1402	1402	1402	1402	1396	1396	1396	1390	1390	1385	1385	1385	1385	1379	1379	1379	1379	1379	1379	1379	1379	1390	1390	1390	1316	1574	1574	1574	1567	1567	1567	1560	1560	1560	1553	1553	1546	1539	1525	1512	1486	1480	1473	1467	1467	1467	1467	1467	0	0	0	0	0	0	0	0	0	0	0	0	0	0	0	0	0	0	0	0	0	0	0	0	0	0	0	0	0	0	0	0	0	0	0	0	0	0	0	0	1045	1042	1033	1033	1030	1030	1030	0	0	1008	1006	1006	1000	1000	997	997	994	988	985	983	980	972	963	961	958	958	958	958	955	950	948	942	940	937	935	932	932	930	930	930	930	930	927	927	925	920	920	917	915	913	913	910	910	908	908	908	908	908	908	908	908	0	0	0	0	0	0	0	0	0	0	0	0	0	0	0	0
0	0	0	0	0	0	0	0	0	0	0	0	0	0	0	0	0	0	0	0	0	0	0	0	0	0	0	0	0	0	0	0	0	0	0	0	0	0	0	0	0	554	554	555	556	556	558	559	561	562	564	565	570	572	573	574	575	576	578	580	586	587	587	588	589	590	592	593	596	600	601	602	603	604	606	607	607	609	611	611	671	671	670	670	669	667	667	667	666	666	666	666	666	0	0	0	543	544	544	544	544	544	545	545	545	546	546	546	546	547	548	548	548	549	550	550	551	552	553	554	555	555	555	556	556	557	559	561	562	563	565	565	565	0	0	0	0	0	0	0	0	0	0	0	0	0	0	0	0	0	0	0	0	0	0	0	839	839	841	841	845	843	843	843	848	848	848	850	852	854	854	854	856	856	856	856	858	858	858	860	860	860	860	871	873	873	873	875	878	878	878	878	878	880	880	880	880	880	882	882	884	887	887	887	887	887	887	889	891	891	894	894	896	898	901	901	903	903	903	903	905	905	905	905	905	925	925	922	922	927	925	925	925	925	927	930	930	930	930	930	930	932	935	935	937	0	0	0	0	0	0	0	0	0	536	535	535	534	533	532	532	531	530	529	528	527	526	526	525	524	523	523	523	522	521	520	520	520	519	519	519	519	519	519	519	519	519	519	519	519	520	520	520	521	523	523	523	523	523	523	525	525	525	526	527	527	528	528	530	531	532	532	532	533	534	535	535	0	0	0	0	0	0	0	0	0	0	0	0	0	0	0	0	0	0	0	0	0	0	0	0	0	1553	1553	1553	1560	1560	1560	1560	1560	1567	1567	1574	1581	1589	1596	1596	1596	1603	1611	1618	1618	1618	1626	1634	1641	1641	1649	1649	1649	1657	1657	1665	1673	1681	1681	1690	1690	1698	1706	1715	1715	1723	1723	1723	1732	1741	1750	1750	1759	1759	1777	1777	1786	1795	1795	1804	1814	1814	1824	1824	1824	1824	1824	1833	1843	1853	1853	1863	1863	1863	1863	1853	1853	1843	1768	1759	1759	1750	1741	1732	1732	1690	1665	1657	1649	1641	1634	1626	1626	1618	1618	1449	1437	1431	1431	1425	1425	1419	1413	1413	1413	1413	1413	1407	1407	1407	1413	1413	1413	1413	1413	1425	1431	1431	1431	1437	1437	1437	1437	1437	1431	1431	1431	1431	1425	1425	1419	1413	1407	1407	1407	1402	1402	1402	1402	1402	1402	1402	1396	1396	1390	1385	1385	1385	1379	1379	1379	1379	1379	1374	1374	1368	1368	1374	1374	1311	1311	1316	1316	1567	1567	1567	1567	1560	1560	1560	1560	1560	1553	1546	1539	1532	1512	1506	1492	1480	1473	1467	1467	1467	1467	1467	0	0	0	0	0	0	0	0	0	0	0	0	0	0	0	0	0	0	0	0	0	0	0	0	0	0	0	0	0	0	0	0	0	0	0	0	1058	1055	1052	1048	1045	1039	1033	1030	1026	1026	1026	0	1008	1008	1006	1006	1003	1000	997	997	994	988	985	980	974	969	963	961	958	958	958	955	953	950	948	942	940	937	935	932	930	930	930	930	930	927	927	927	925	920	920	917	915	913	913	910	910	908	908	908	908	908	908	908	908	0	0	0	0	0	0	0	0	0	0	0	0	0	0	0	0
0	0	0	0	0	0	0	0	0	0	0	0	0	0	0	0	0	0	0	0	0	0	0	0	0	0	0	0	0	0	0	0	0	0	0	0	0	0	0	0	0	554	554	555	555	556	557	559	560	561	564	565	568	570	573	574	575	576	578	580	585	586	587	587	589	590	591	593	595	597	600	602	602	604	605	606	607	608	609	611	611	671	670	670	669	669	669	667	667	666	666	669	669	669	0	0	0	544	544	545	544	544	545	545	546	546	546	546	547	548	548	548	549	549	550	551	551	553	554	555	555	555	556	556	557	558	559	561	562	563	564	565	565	565	0	0	0	0	0	0	0	0	0	0	0	0	0	0	0	0	0	0	0	0	0	833	833	835	837	839	841	841	841	841	845	848	848	848	850	850	852	852	854	854	854	854	856	856	858	858	858	858	860	865	865	865	865	867	869	869	869	869	869	869	878	878	878	878	880	880	880	882	882	882	884	887	887	887	887	889	891	891	894	896	896	898	898	901	901	901	903	903	903	903	903	903	930	922	922	927	925	920	920	922	922	927	927	930	927	927	927	927	935	935	0	0	0	0	0	0	0	0	0	0	536	536	536	535	533	532	532	531	530	529	529	528	527	526	526	525	523	523	523	523	522	521	520	520	520	520	520	519	519	519	519	519	519	519	519	519	520	520	521	522	523	523	523	523	523	523	525	526	526	527	527	528	529	529	530	531	532	532	533	534	535	535	535	0	0	0	0	0	0	0	0	0	0	0	0	0	0	0	0	0	0	0	0	0	0	0	0	0	1553	1553	1553	1560	1560	1560	1560	1567	1567	1574	1581	1581	1589	1596	1596	1603	1611	1618	1618	1618	1626	1626	1634	1641	1649	1649	1649	1657	1657	1657	1665	1673	1681	1690	1690	1698	1706	1706	1715	1715	1723	1723	1732	1741	1741	1750	1759	1759	1759	1777	1777	1786	1795	1804	1804	1814	1814	1824	1824	1824	1824	1824	1833	1843	1853	1853	1863	1863	1863	1863	1853	1843	1786	1768	1759	1759	1750	1741	1732	1723	1681	1657	1649	1649	1641	1634	1626	1618	1618	1611	1611	1431	1425	1425	1425	1419	1419	1413	1407	1407	1407	1407	1407	1407	1407	1407	1413	1407	1407	1413	1419	1419	1419	1425	1425	1431	1431	1437	1431	1431	1431	1431	1425	1425	1419	1413	1413	1407	1407	1407	1402	1402	1402	1402	1402	1402	1396	1396	1390	1385	1379	1379	1379	1374	1374	1374	1374	1374	1374	1368	1363	1363	1311	1311	1311	1311	1311	1301	1301	1567	1567	1560	1560	1560	1560	1553	1553	1553	1553	1539	1227	1227	1223	1219	1219	1219	1467	1197	1189	1189	1189	1189	1189	1189	0	0	0	0	0	0	0	0	0	0	0	0	0	0	0	0	0	0	0	0	0	0	0	0	0	0	0	0	0	1074	1071	1071	1064	1058	1055	1052	1048	1042	1039	1030	1030	1026	1020	1011	1011	1008	1008	1006	1006	1000	997	997	997	994	985	983	977	972	966	961	961	958	955	955	955	950	948	948	942	940	937	935	935	930	930	930	927	927	927	927	925	925	920	920	917	915	913	913	910	910	908	908	908	908	908	908	908	908	0	0	0	0	0	0	0	0	0	0	0	0	0	0	0	0
0	0	0	0	0	0	0	0	0	0	0	0	0	0	0	0	0	0	0	0	0	0	0	0	0	0	0	0	0	0	0	0	0	0	0	0	0	0	0	0	0	553	553	555	555	556	557	558	560	561	563	565	566	569	571	573	574	575	577	580	584	586	586	587	588	589	591	592	594	597	600	601	601	604	605	606	607	608	609	611	611	671	671	671	671	670	670	669	669	667	667	667	667	667	0	0	0	0	0	545	544	544	545	545	547	547	547	547	548	548	548	548	549	550	551	552	553	554	555	555	556	556	557	558	559	559	561	561	562	563	564	565	565	565	0	0	0	0	0	0	0	0	0	817	817	819	819	819	819	823	823	823	0	825	825	831	831	835	837	837	837	841	841	841	841	841	843	843	850	850	852	852	852	852	852	852	856	856	856	856	856	858	858	862	862	862	862	865	865	865	867	867	867	867	869	871	873	873	875	875	878	878	878	880	882	882	884	884	884	887	889	889	891	891	894	894	896	898	898	898	901	901	898	898	901	901	903	901	896	920	920	920	920	922	917	922	922	925	925	925	925	927	927	935	0	0	0	0	0	0	0	0	0	536	536	536	536	536	534	533	532	530	530	529	528	527	527	527	526	525	524	524	523	523	523	521	520	520	520	520	520	519	519	519	520	519	519	520	520	520	521	521	522	523	523	523	523	523	524	525	526	526	527	527	528	529	529	529	531	531	532	532	533	534	535	535	0	0	0	0	0	0	0	0	0	0	0	0	0	0	0	0	0	0	0	0	0	0	0	0	0	1553	1553	1560	1560	1560	1560	1560	1560	1567	1567	1574	1581	1589	1589	1596	1596	1603	1611	1618	1618	1618	1626	1626	1634	1641	1649	1649	1649	1657	1657	1665	1665	1681	1681	1690	1690	1698	1706	1715	1715	1715	1723	1723	1732	1741	1741	1750	1759	1759	1768	1777	1777	1786	1795	1804	1814	1814	1824	1824	1824	1824	1824	1833	1833	1843	1853	1853	1863	1863	1863	1863	1853	1795	1777	1777	1768	1759	1750	1741	1732	1681	1673	1657	1649	1649	1641	1634	1626	1618	1611	1603	1603	1431	1425	1425	1419	1419	1413	1407	1407	1407	1407	1402	1402	1407	1407	1407	1407	1407	1407	1407	1413	1413	1413	1413	1419	1425	1425	1431	1425	1425	1425	1425	1425	1419	1419	1413	1413	1413	1407	1407	1402	1402	1402	1402	1402	1396	1396	1396	1390	1385	1379	1379	1379	1374	1368	1368	1368	1374	1368	1358	1336	1336	1311	1306	1306	1306	1306	1296	1287	1287	1287	1560	1560	1560	1560	1553	1553	1553	1553	1232	1227	1227	1219	1214	1210	1202	1202	1197	1189	1189	1189	1189	1185	1185	1185	1185	0	0	0	0	0	0	0	0	0	0	0	0	0	0	0	0	0	0	0	0	0	0	0	0	0	0	1074	1071	1071	1068	1064	1061	1058	1052	1045	1039	1036	1030	1030	1026	1017	1011	1008	1006	1006	1006	1003	1000	997	997	994	991	980	977	972	969	966	961	958	958	955	955	953	950	948	945	942	940	937	937	935	930	927	927	927	927	927	927	925	925	922	920	917	915	913	910	910	910	908	908	908	908	908	908	908	908	0	0	0	0	0	0	0	0	0	0	0	0	0	0	0	0
0	0	0	0	0	0	0	0	0	0	0	0	0	0	0	0	0	0	0	0	0	0	0	0	0	0	0	0	0	0	0	0	0	0	0	0	0	0	0	0	0	553	553	554	555	555	556	557	559	561	563	565	566	568	570	572	574	575	577	579	583	584	584	586	587	589	590	592	594	595	597	600	600	604	605	606	607	608	609	611	611	671	671	671	671	671	671	669	669	669	669	667	667	669	669	0	0	0	0	0	0	0	0	0	547	547	548	548	548	548	549	549	550	551	552	553	554	555	555	555	556	557	558	558	559	560	562	562	563	564	565	565	565	565	0	0	0	0	0	0	0	0	0	817	817	819	819	819	819	819	819	821	821	821	821	825	829	833	835	837	837	839	839	839	839	839	839	843	843	835	835	850	850	848	848	850	852	852	852	852	854	856	856	858	860	860	860	860	860	862	865	865	867	867	867	869	869	871	871	875	875	875	875	875	880	880	880	880	880	882	884	884	884	884	887	887	887	887	896	896	896	896	896	896	901	901	901	901	896	901	901	896	910	913	913	913	920	920	917	917	917	917	917	0	0	0	0	0	0	0	0	0	0	536	536	536	536	536	535	533	532	530	530	529	528	527	527	527	526	526	525	525	523	523	523	521	520	520	520	520	520	520	520	520	520	520	520	520	520	520	522	522	522	523	523	523	524	524	525	525	526	527	527	527	529	529	530	530	531	532	532	533	533	534	536	536	0	0	0	0	0	0	0	0	0	0	0	0	0	0	0	0	0	0	0	0	0	0	0	0	1560	1553	1553	1560	1560	1560	1560	1560	1567	1567	1567	1574	1581	1589	1589	1596	1603	1603	1611	1618	1618	1618	1626	1626	1641	1649	1649	1649	1657	1657	1665	1665	1673	1681	1681	1690	1698	1698	1706	1715	1715	1723	1723	1732	1732	1741	1741	1750	1759	1759	1777	1786	1786	1795	1804	1814	1814	1814	1824	1824	1833	1824	1824	1833	1843	1853	1853	1853	1863	1863	1863	1863	1853	1786	1777	1777	1759	1759	1750	1741	1732	1681	1673	1657	1649	1649	1641	1634	1626	1618	1603	1589	1589	1589	1419	1419	1419	1413	1407	1407	1407	1407	1402	1402	1402	1402	1402	1402	1407	1407	1407	1407	1407	1407	1407	1413	1413	1413	1419	1425	1425	1425	1425	1425	1425	1419	1413	1413	1413	1407	1407	1407	1402	1402	1402	1402	1402	1396	1396	1390	1390	1385	1379	1379	1368	1363	1363	1363	1363	1363	1358	1342	1321	1311	1306	1306	1306	1306	1306	1296	1287	1287	1287	1263	1263	1263	1263	1263	1240	1240	1236	1232	1227	1223	1210	1206	1206	1202	1197	1193	1189	1189	1189	1189	1185	1185	1185	1185	0	0	0	0	0	0	0	0	0	0	0	0	0	0	0	1116	1113	1113	1113	0	0	0	0	0	1081	1074	1071	1071	1071	1068	1064	1061	1058	1052	1042	1039	1036	1030	1030	1023	1014	1008	1008	1006	1006	1006	1003	1000	997	997	991	980	974	974	969	966	966	961	958	958	955	955	953	950	948	945	942	937	937	935	932	930	927	927	927	927	927	925	925	925	922	920	917	915	913	910	910	910	908	908	908	908	908	908	908	908	0	0	0	0	0	0	0	0	0	0	0	0	0	0	0	0
0	0	0	0	0	0	0	0	0	0	0	0	0	0	0	0	0	0	0	0	0	0	0	0	0	0	0	0	0	0	0	0	0	0	0	0	0	0	0	0	0	553	552	553	554	555	555	557	559	560	562	564	565	568	569	572	573	575	577	579	581	584	584	586	586	588	590	591	594	595	597	599	600	604	605	606	606	607	608	609	611	613	613	671	671	671	671	671	670	670	670	670	670	671	671	0	0	0	0	0	0	0	0	0	0	0	548	548	549	549	550	550	551	551	553	554	555	555	555	555	556	557	558	559	560	561	563	563	564	565	565	565	565	565	0	0	0	0	0	0	0	0	0	815	815	817	817	817	819	819	819	821	819	819	819	823	823	831	833	837	833	833	833	833	835	835	835	835	835	835	835	835	850	848	845	845	835	848	848	848	848	850	854	850	850	850	852	852	854	854	860	862	862	865	865	867	867	867	869	871	871	871	871	873	873	873	875	875	875	880	880	882	882	882	882	882	882	882	884	884	887	889	889	891	891	891	891	891	894	898	898	896	910	910	910	910	915	915	913	913	917	917	917	0	0	0	0	0	0	0	0	0	0	536	536	536	536	536	535	533	532	532	531	530	529	528	527	527	526	526	525	525	524	524	523	523	521	521	521	521	521	520	520	520	521	520	520	521	521	521	522	522	522	523	523	524	525	525	526	527	527	528	528	529	529	530	530	531	532	532	532	533	534	534	536	536	0	0	0	0	0	0	0	0	0	0	0	0	0	0	0	0	0	0	0	0	0	0	0	0	1560	1553	1553	1560	1560	1560	1560	1560	1567	1567	1574	1574	1581	1589	1589	1596	1603	1611	1611	1618	1618	1626	1626	1634	1649	1649	1649	1657	1657	1657	1665	1673	1673	1681	1690	1690	1698	1706	1715	1715	1715	1723	1723	1732	1741	1741	1750	1759	1759	1768	1777	1786	1786	1795	1804	1814	1814	1814	1824	1824	1833	1824	1824	1833	1843	1853	1863	1863	1863	1873	1873	1863	1853	1786	1777	1777	1759	1750	1741	1732	1723	1690	1673	1657	1649	1649	1641	1634	1618	1611	1596	1589	1589	1589	1419	1419	1413	1413	1407	1407	1402	1402	1402	1402	1402	1402	1402	1402	1402	1402	1402	1402	1407	1407	1407	1407	1407	1407	1413	1413	1419	1419	1419	1419	1419	1419	1413	1413	1413	1407	1407	1407	1402	1402	1402	1402	1396	1396	1396	1390	1385	1374	1368	1368	1363	1363	1358	1358	1358	1347	1336	1326	1316	1311	1306	1306	1306	1306	1306	1296	1287	1282	1259	1259	1259	1259	1254	1245	1240	1236	1232	1232	1223	1214	1214	1206	1202	1197	1197	1193	1189	1189	1189	1189	1185	1185	1185	1185	0	0	0	0	0	0	0	0	0	0	0	1123	1123	1123	1113	1113	1113	1113	1113	0	0	0	0	1081	1078	1071	1071	1071	1068	1068	1064	1061	1058	1045	1036	1033	1033	1026	1026	1020	1014	1008	1008	1006	1006	1006	1003	1000	997	994	988	980	974	972	966	963	961	961	958	958	955	953	950	948	948	945	940	937	937	935	932	930	927	927	927	927	927	925	925	925	922	920	917	915	913	910	910	910	908	908	908	908	908	908	908	908	0	0	0	0	0	0	0	0	0	0	0	0	0	0	0	0
0	0	0	0	0	0	0	0	0	0	0	0	0	0	0	0	0	0	0	0	0	0	0	0	0	0	0	0	0	0	0	0	0	0	0	0	0	0	0	0	0	0	552	553	554	555	555	557	559	560	562	564	565	565	568	570	572	574	577	579	580	583	584	585	586	587	589	591	593	595	597	599	600	602	604	605	606	607	608	609	611	613	614	614	671	671	671	671	671	670	670	670	670	671	671	671	0	0	0	0	0	0	0	0	0	0	0	0	549	549	551	551	552	552	554	554	555	555	555	556	557	558	559	560	562	563	563	564	565	565	565	565	565	565	0	802	802	802	802	802	804	804	812	812	814	814	815	817	817	817	817	819	819	819	819	819	819	817	817	819	819	827	833	829	829	831	831	833	833	833	833	833	833	833	833	833	833	833	837	845	845	843	843	845	845	845	848	850	850	850	854	860	862	862	862	865	865	865	865	865	865	865	865	869	867	867	873	873	873	875	875	875	878	878	878	878	878	878	880	882	882	884	887	887	889	889	891	891	894	894	894	894	896	896	896	901	908	905	905	908	908	910	910	0	0	0	0	0	0	0	0	0	0	536	536	536	536	536	535	534	533	532	532	531	529	529	527	527	527	527	526	526	525	525	524	523	522	522	522	522	522	521	521	521	522	522	522	522	522	523	523	523	523	523	523	524	525	525	527	527	527	528	529	529	530	530	530	531	532	532	532	534	534	535	536	536	0	0	0	0	0	0	0	0	0	0	0	0	0	0	0	0	0	0	0	0	0	0	0	0	1560	1560	1560	1560	1560	1560	1560	1567	1567	1567	1574	1581	1581	1589	1596	1603	1611	1611	1618	1618	1626	1626	1634	1641	1649	1649	1649	1657	1657	1665	1673	1673	1681	1690	1690	1690	1698	1706	1715	1715	1715	1723	1732	1732	1741	1750	1750	1759	1759	1768	1786	1786	1795	1795	1804	1814	1814	1824	1824	1833	1833	1833	1833	1843	1853	1853	1863	1863	1873	1873	1873	1873	1853	1786	1777	1777	1759	1750	1741	1732	1723	1681	1673	1657	1649	1641	1641	1634	1618	1603	1589	1581	1574	1574	1574	1413	1407	1407	1402	1402	1402	1402	1402	1402	1402	1402	1402	1402	1402	1402	1402	1402	1407	1407	1407	1407	1407	1407	1407	1407	1413	1413	1419	1419	1419	1419	1413	1413	1413	1407	1407	1407	1402	1402	1402	1402	1396	1396	1396	1385	1374	1368	1363	1363	1358	1358	1352	1352	1347	1336	1321	1321	1311	1306	1306	1306	1301	1301	1296	1287	1272	1263	1259	1259	1259	1259	1249	1240	1236	1232	1227	1223	1219	1219	1210	1202	1197	1193	1189	1189	1189	1185	1185	1185	1177	1177	1173	1173	1157	1153	1153	1150	1150	1150	0	0	1127	1127	1123	1123	1120	1120	1109	1109	1109	1109	1102	1105	1105	1105	1078	1078	1074	1071	1068	1064	1064	1061	1058	1055	1055	1036	1033	1033	1030	1026	1023	1020	1011	1008	1006	1006	1003	1003	1000	997	994	991	985	980	974	969	963	963	961	961	958	958	955	953	950	948	945	945	940	937	937	935	932	930	927	927	927	927	925	925	925	922	922	920	917	915	910	910	910	908	908	908	908	908	908	908	908	908	0	0	0	0	0	0	0	0	0	0	0	0	0	0	0	0
