0	0	0	0	0	0	0	0	0	0	0	0	0	0	0	0	0	0	0	0	0	0	0	0	0	0	0	0	0	1123	1123	1123	1127	1127	1127	1127	1131	1131	0	0	0	0	0	0	0	0	0	0	0	0	0	0	0	0	0	2845	2845	2869	2845	2845	2845	2845	2845	2822	2822	2822	2822	2822	2799	2799	2777	2777	2754	2754	2733	2733	2733	2733	2690	2690	2690	2669	2669	2669	2669	2669	2669	2649	2649	2629	2629	2629	2609	2589	2589	2589	2589	2589	2570	2570	2570	2570	2551	2532	2514	2514	2496	2496	2496	2496	2478	2478	2460	2443	2443	2426	2426	2409	2409	2409	2409	2409	2409	2409	2392	2376	2376	2359	2359	2359	2359	2343	2343	2343	2343	2327	2327	2312	2312	2312	2297	2281	2281	2266	2266	2252	2252	2237	2237	2223	2223	2223	2223	2223	2223	2223	2223	2208	2208	2208	2181	2181	2181	2167	2167	2153	2153	2153	2153	2140	2140	2140	2127	2127	2127	2114	2114	2114	2114	2114	2114	2114	2088	2088	2076	2076	2076	2076	2076	2076	2063	2063	2051	2051	2051	2051	2039	2039	2027	2027	2027	2027	2027	2015	2015	2015	2015	2015	2015	1992	1992	1980	1980	1980	1980	1969	1969	1958	1958	1958	1958	1947	1936	1936	1925	1925	1925	1925	1925	1925	1915	1915	1915	1915	1904	1894	1894	1883	1883	1883	1873	1873	1873	1863	1863	1863	1853	1853	1843	1843	1843	1843	1843	1833	1833	1833	1833	1824	1824	1814	1804	1804	1804	1795	1795	1795	1786	1786	1786	1777	1777	1768	1768	1768	1768	1768	1759	1759	1759	1750	1750	1741	1741	1732	1732	1732	1732	1732	1723	1723	1715	1715	1715	1706	1706	1698	1698	1698	1698	1690	1690	1681	1681	1673	1673	1665	1665	1665	1665	1665	1665	1461	1461	1455	1455	1455	1455	1455	1326	1321	1321	1321	1321	1321	1321	1321	1316	1316	1316	1311	1306	1306	1301	1296	1291	1291	1291	1287	1287	1282	1282	1282	1282	1277	1277	1272	1272	1268	1268	1263	1263	1263	1259	1259	1254	1254	1249	1249	1245	1245	1245	1245	1240	1240	1236	1232	1232	1232	1232	1227	1227	1223	1223	1219	1214	1214	1214	1210	1210	1206	1206	1202	1197	1197	1197	1197	1197	1193	1193	1193	1193	1189	1181	1181	1181	1181	1177	1177	1173	1173	1169	1169	1165	1165	1165	1165	1161	1161	1157	1157	1157	1150	1150	1150	1150	1146	1142	1142	1142	1138	1134	1134	1131	1127	1127	1123	1120	1120	1120	1116	1116	1116	1116	1113	1109	1109	1109	1105	1102	1102	1102	1102	1102	1098	1095	1095	1091	1091	1088	1088	1088	1088	1085	1085	1081	1081	1078	1074	1074	1074	1071	1071	1071	1071	1068	1068	1064	1064	1061	1061	1061	1061	1058	1058	1058	1055	1052	1052	1052	1048	1048	1045	1045	1045	1045	1039	1039	1036	1036	1033	1033	1033	1033	1030	1026	1026	1023	1023	1023	1020	1020	1020	1020	1014	1011	1011	1008	1008	1006	1006	1003	1000	1000	1000	1000	1000	1000	1000	997	997	994	994	994	991	985	983	983	983	980	980	980	977	977	974	972	969	969	969	966	963	963	963	963	963	963	961	958	955	953	953	953	953	953	953	950	950	942	942	942	940	940	940	940	940	937	935	935	935	932	932	932	930	930	927	927	927	927	922	922	920	917	915	915	915	915	913	913	913	913	910	910	910	908	908	903	903	903	901	898	898	901	898	898	898	898	896	896	894	891	889	889	887	887	887	889	891	891	891	894	908	910	915	915	0	0	0	0	0	0	0	0	0	0	0	0	0	0	0	0	0
0	0	0	0	0	0	0	0	0	0	0	0	0	0	0	0	0	0	0	0	0	0	0	0	0	0	0	0	0	1123	1123	1123	1127	1127	1127	1127	1127	1127	0	0	0	0	0	0	0	0	0	0	0	0	0	0	0	0	0	2869	2869	2869	2845	2845	2845	2845	2822	2822	2822	2822	2822	2799	2799	2799	2777	2777	2754	2754	2733	2733	2733	2711	2711	2690	2690	2669	2669	2669	2669	2669	2669	2649	2649	2629	2629	2609	2609	2589	2589	2589	2589	2570	2570	2570	2570	2570	2551	2532	2514	2514	2496	2496	2496	2496	2496	2478	2478	2443	2443	2426	2426	2426	2426	2409	2409	2409	2409	2409	2392	2376	2376	2359	2359	2359	2359	2343	2343	2343	2343	2327	2327	2312	2312	2312	2297	2297	2297	2297	2281	2252	2252	2237	2237	2223	2223	2223	2223	2223	2223	2223	2223	2223	2208	2181	2181	2181	2167	2167	2167	2153	2153	2153	2153	2153	2140	2140	2127	2127	2127	2127	2127	2127	2127	2114	2114	2101	2088	2088	2076	2076	2076	2076	2076	2076	2063	2063	2051	2051	2051	2051	2039	2039	2027	2027	2027	2027	2027	2015	2015	2015	2015	2015	2015	1992	1992	1992	1980	1980	1980	1969	1969	1958	1958	1958	1958	1958	1958	1936	1936	1936	1925	1925	1925	1925	1915	1915	1915	1915	1904	1904	1894	1894	1883	1883	1873	1873	1873	1863	1863	1863	1853	1853	1853	1843	1843	1843	1843	1833	1833	1833	1833	1824	1824	1814	1804	1804	1795	1795	1795	1795	1786	1786	1786	1777	1777	1768	1768	1768	1768	1768	1759	1759	1750	1741	1741	1741	1732	1732	1732	1732	1732	1732	1723	1723	1715	1715	1715	1715	1706	1706	1706	1706	1698	1698	1690	1681	1673	1673	1673	1665	1665	1665	1665	1665	1657	1657	1461	1455	1455	1455	1455	1455	1326	1321	1321	1321	1321	1321	1321	1321	1321	1316	1311	1311	1306	1306	1301	1296	1291	1291	1291	1287	1287	1282	1282	1282	1277	1277	1272	1272	1272	1268	1268	1268	1263	1263	1259	1259	1254	1254	1249	1249	1245	1245	1245	1245	1240	1240	1236	1232	1232	1232	1232	1227	1227	1223	1223	1219	1214	1214	1214	1210	1210	1206	1206	1202	1197	1197	1197	1197	1193	1193	1193	1193	1193	1189	1185	1185	1181	1181	1181	1177	1177	1173	1169	1169	1165	1165	1165	1165	1161	1161	1157	1157	1157	1150	1150	1150	1150	1146	1142	1142	1142	1138	1138	1134	1131	1127	1127	1123	1120	1120	1120	1116	1116	1116	1116	1113	1109	1109	1109	1105	1105	1102	1102	1102	1102	1102	1098	1095	1091	1091	1091	1088	1088	1088	1085	1081	1081	1081	1078	1074	1074	1074	1074	1071	1071	1071	1068	1068	1064	1061	1061	1061	1061	1061	1058	1058	1058	1055	1052	1052	1048	1048	1048	1045	1045	1045	1042	1039	1039	1036	1036	1033	1033	1033	1033	1030	1026	1026	1023	1023	1023	1020	1020	1020	1020	1014	1011	1011	1011	1008	1006	1006	1003	1000	1000	1000	1000	1000	1000	1000	1000	997	994	994	994	991	985	983	983	983	980	980	977	974	974	974	974	972	969	969	966	963	963	963	963	963	963	961	958	955	953	953	953	953	950	950	950	950	942	942	942	940	940	940	940	937	937	935	935	935	932	932	932	930	930	930	930	930	927	925	922	920	917	915	915	915	915	913	913	913	913	910	910	910	908	908	903	903	903	901	898	898	898	898	898	898	898	896	896	894	891	889	889	887	887	887	889	891	894	894	908	910	913	913	913	0	0	0	0	0	0	0	0	0	0	0	0	0	0	0	0	0
0	0	0	0	0	0	0	0	0	0	0	0	0	0	0	0	0	0	0	0	0	0	0	0	0	0	0	0	0	1123	1123	1123	1127	1127	1127	1127	1127	1127	0	0	0	0	0	0	0	0	0	0	0	0	0	0	0	0	0	2869	2869	2869	2845	2845	2845	2845	2822	2822	2822	2822	2799	2799	2799	2777	2777	2777	2754	2754	2733	2733	2733	2711	2711	2690	2690	2669	2669	2669	2669	2669	2649	2649	2649	2629	2629	2609	2609	2609	2589	2589	2570	2570	2570	2570	2570	2551	2551	2532	2514	2514	2514	2496	2496	2496	2496	2478	2478	2443	2443	2426	2426	2426	2426	2409	2409	2409	2409	2409	2392	2376	2359	2359	2359	2359	2359	2343	2343	2343	2343	2327	2327	2312	2312	2312	2312	2297	2297	2297	2266	2252	2252	2252	2237	2237	2237	2237	2237	2223	2223	2223	2223	2208	2208	2181	2181	2181	2167	2167	2167	2167	2153	2153	2153	2153	2140	2140	2127	2127	2127	2127	2127	2127	2114	2114	2114	2101	2088	2088	2076	2076	2076	2076	2076	2076	2063	2063	2051	2051	2051	2063	2051	2039	2027	2027	2027	2027	2027	2015	2015	2015	2015	2015	2015	1992	1992	1992	1980	1980	1980	1969	1958	1958	1958	1958	1958	1958	1947	1947	1936	1936	1925	1925	1925	1925	1915	1915	1915	1915	1904	1894	1894	1894	1894	1883	1883	1873	1873	1873	1863	1863	1863	1853	1853	1843	1843	1843	1843	1833	1833	1833	1833	1824	1824	1814	1804	1804	1795	1795	1795	1795	1786	1786	1786	1777	1777	1777	1768	1768	1768	1768	1759	1759	1750	1741	1741	1741	1732	1732	1732	1732	1732	1732	1723	1723	1723	1715	1715	1715	1706	1706	1706	1706	1698	1698	1690	1690	1681	1673	1673	1665	1665	1665	1665	1665	1657	1657	1461	1455	1455	1455	1455	1449	1326	1321	1321	1321	1321	1321	1321	1321	1316	1316	1311	1311	1306	1306	1301	1296	1291	1291	1291	1287	1287	1282	1282	1282	1277	1277	1272	1272	1272	1268	1268	1268	1263	1263	1263	1259	1259	1254	1249	1249	1245	1245	1245	1245	1240	1240	1236	1236	1232	1232	1232	1227	1227	1223	1223	1219	1219	1214	1214	1210	1210	1206	1206	1202	1197	1197	1197	1197	1193	1193	1193	1193	1193	1189	1185	1185	1181	1181	1181	1177	1177	1177	1173	1173	1169	1165	1165	1165	1161	1161	1157	1157	1157	1150	1150	1150	1150	1146	1146	1142	1142	1142	1138	1131	1127	1127	1123	1123	1123	1123	1120	1120	1116	1116	1116	1113	1113	1109	1109	1105	1105	1105	1102	1102	1102	1098	1098	1098	1095	1095	1091	1088	1088	1088	1085	1081	1081	1081	1078	1078	1074	1074	1074	1074	1074	1071	1071	1068	1064	1061	1061	1061	1061	1061	1058	1058	1058	1055	1052	1052	1048	1048	1048	1045	1045	1045	1042	1039	1039	1036	1036	1033	1033	1033	1033	1026	1026	1026	1023	1023	1023	1020	1020	1020	1017	1014	1011	1011	1011	1008	1006	1006	1003	1000	1000	1000	1000	1000	1000	1000	1000	997	997	997	994	991	988	983	983	983	983	980	977	974	974	974	974	972	969	969	966	966	963	963	963	961	961	961	958	955	955	955	953	950	950	950	950	950	950	948	942	942	940	940	940	937	937	935	935	935	932	932	930	930	930	930	930	930	927	925	922	920	917	915	915	915	915	913	913	913	913	913	910	910	910	908	908	903	903	901	898	898	898	898	898	898	896	896	894	894	891	889	889	889	889	889	889	889	891	894	905	908	910	913	913	0	0	0	0	0	0	0	0	0	0	0	0	0	0	0	0	0
0	0	0	0	0	0	0	0	0	0	0	0	0	0	0	0	0	0	0	0	0	0	0	0	0	0	0	0	0	1120	1120	1123	1123	1123	1127	1127	1127	1127	0	0	0	0	0	0	0	0	0	0	0	0	0	0	0	0	0	2869	2845	2845	2845	2845	2845	2845	2822	2822	2822	2822	2799	2799	2777	2777	2777	2777	2754	2754	2754	2733	2733	2711	2690	2690	2690	2690	2690	2669	2669	2669	2649	2649	2629	2629	2629	2609	2609	2589	2589	2589	2589	2589	2570	2570	2570	2551	2551	2532	2514	2514	2514	2496	2496	2496	2496	2478	2478	2443	2426	2426	2426	2426	2426	2409	2409	2409	2409	2409	2392	2376	2359	2359	2359	2359	2359	2343	2343	2343	2343	2327	2327	2312	2312	2312	2312	2297	2281	2281	2266	2252	2252	2252	2237	2237	2237	2237	2237	2223	2223	2223	2223	2208	2208	2194	2181	2181	2181	2181	2181	2167	2167	2167	2167	2167	2140	2140	2127	2127	2127	2127	2127	2127	2114	2114	2114	2101	2088	2088	2088	2076	2076	2076	2076	2076	2063	2063	2051	2051	2051	2051	2051	2039	2027	2027	2027	2027	2027	2015	2015	2015	2015	2015	2015	2003	2003	1992	1992	1980	1980	1969	1958	1958	1958	1958	1958	1958	1947	1947	1947	1936	1925	1925	1925	1925	1915	1915	1915	1915	1904	1894	1894	1894	1883	1883	1873	1873	1873	1873	1873	1863	1863	1853	1853	1843	1843	1843	1843	1833	1833	1833	1824	1824	1824	1814	1804	1804	1804	1795	1795	1795	1786	1786	1786	1777	1777	1777	1768	1768	1768	1768	1759	1750	1750	1741	1741	1741	1741	1732	1732	1732	1732	1732	1723	1723	1723	1723	1715	1715	1715	1706	1706	1706	1698	1698	1690	1690	1681	1673	1673	1673	1665	1665	1665	1665	1665	1665	1461	1455	1449	1449	1455	1449	1326	1321	1321	1321	1321	1321	1321	1321	1316	1316	1311	1306	1306	1306	1301	1296	1296	1291	1291	1287	1287	1282	1282	1282	1277	1277	1272	1272	1272	1268	1268	1263	1263	1263	1263	1263	1259	1254	1249	1249	1245	1245	1245	1245	1240	1240	1236	1236	1232	1232	1232	1227	1227	1227	1223	1223	1219	1219	1214	1210	1210	1206	1206	1202	1202	1202	1197	1197	1197	1197	1193	1193	1193	1189	1185	1181	1181	1181	1177	1177	1177	1177	1173	1173	1169	1169	1165	1165	1161	1161	1157	1157	1153	1153	1150	1150	1150	1146	1146	1142	1142	1142	1138	1131	1127	1127	1123	1123	1123	1123	1120	1120	1120	1116	1116	1113	1113	1109	1109	1105	1105	1105	1102	1102	1102	1098	1098	1098	1095	1095	1091	1088	1088	1088	1085	1085	1085	1081	1078	1074	1074	1074	1074	1074	1074	1071	1071	1068	1068	1064	1064	1061	1061	1061	1058	1058	1058	1055	1055	1052	1048	1048	1048	1045	1045	1045	1042	1039	1039	1036	1036	1033	1033	1033	1033	1026	1026	1026	1023	1023	1023	1020	1020	1017	1017	1014	1014	1011	1011	1008	1006	1006	1003	1000	1000	1000	1000	1000	1000	1000	997	997	994	994	994	991	988	985	983	983	983	980	977	974	974	974	974	972	972	969	969	966	963	963	963	961	961	961	958	955	955	955	953	950	950	950	950	950	950	948	945	942	942	940	940	937	937	935	935	935	932	932	930	930	930	930	930	930	927	925	922	922	920	915	915	915	915	915	915	913	913	913	910	910	910	908	908	903	901	901	901	898	898	898	898	898	896	894	894	894	891	889	889	889	887	887	889	889	891	894	896	908	910	913	913	0	0	0	0	0	0	0	0	0	0	0	0	0	0	0	0	0
0	0	0	0	0	0	0	0	0	0	0	0	0	0	0	0	0	0	0	0	0	0	0	0	0	0	0	0	0	1120	1120	1123	1123	1123	1127	1123	1123	1123	0	0	0	0	0	0	0	0	0	0	0	0	0	0	0	0	0	2845	2845	2845	2845	2845	2845	2845	2822	2822	2822	2822	2799	2799	2777	2777	2777	2777	2754	2754	2754	2733	2733	2711	2690	2690	2690	2690	2690	2669	2669	2669	2649	2649	2629	2629	2629	2609	2609	2589	2589	2589	2589	2589	2570	2570	2570	2551	2551	2532	2514	2514	2514	2514	2496	2496	2496	2478	2478	2443	2426	2426	2426	2426	2426	2409	2409	2409	2409	2409	2392	2376	2376	2359	2359	2359	2359	2359	2343	2343	2343	2327	2327	2312	2312	2312	2297	2297	2281	2281	2266	2266	2252	2237	2237	2237	2237	2237	2237	2237	2223	2223	2223	2208	2208	2194	2181	2181	2181	2181	2181	2181	2167	2167	2153	2153	2140	2140	2140	2140	2127	2127	2127	2114	2114	2114	2114	2101	2088	2088	2088	2076	2076	2076	2076	2063	2063	2063	2051	2051	2051	2051	2051	2039	2027	2027	2027	2027	2015	2015	2015	2015	2015	2015	2015	2003	2003	1992	1992	1980	1980	1969	1969	1958	1958	1958	1958	1958	1958	1947	1947	1936	1936	1925	1925	1925	1915	1915	1915	1915	1904	1894	1894	1894	1894	1883	1883	1873	1873	1873	1873	1863	1863	1853	1853	1843	1843	1843	1843	1833	1833	1833	1824	1824	1824	1814	1804	1804	1804	1804	1795	1795	1795	1786	1786	1786	1777	1777	1768	1768	1768	1759	1759	1759	1759	1741	1741	1741	1741	1732	1732	1732	1732	1732	1723	1723	1723	1723	1715	1715	1715	1715	1706	1698	1698	1690	1690	1690	1681	1673	1673	1673	1665	1665	1665	1665	1665	1455	1455	1455	1449	1449	1455	1449	1326	1321	1321	1321	1321	1321	1321	1321	1316	1311	1311	1306	1306	1306	1301	1296	1296	1291	1291	1287	1287	1282	1282	1282	1277	1277	1272	1272	1272	1268	1268	1263	1263	1263	1263	1263	1259	1254	1249	1249	1245	1245	1245	1245	1236	1236	1236	1236	1232	1232	1232	1227	1227	1227	1223	1223	1219	1214	1214	1210	1210	1210	1206	1202	1202	1202	1197	1197	1197	1197	1193	1193	1193	1189	1185	1181	1181	1181	1177	1177	1177	1177	1173	1173	1169	1169	1165	1165	1161	1161	1157	1157	1153	1153	1150	1150	1150	1146	1146	1142	1138	1138	1138	1131	1127	1127	1127	1123	1123	1123	1120	1120	1116	1116	1116	1113	1113	1109	1109	1105	1105	1105	1102	1102	1102	1102	1098	1098	1095	1095	1091	1088	1088	1088	1085	1085	1085	1078	1078	1074	1074	1074	1074	1074	1071	1071	1071	1068	1068	1061	1061	1061	1061	1061	1058	1058	1058	1055	1055	1052	1048	1048	1048	1045	1045	1045	1042	1036	1036	1036	1036	1033	1033	1033	1033	1030	1026	1026	1023	1023	1023	1020	1020	1017	1017	1014	1014	1011	1011	1008	1006	1006	1006	1000	1000	1003	1003	1003	1000	1000	997	997	994	994	991	991	985	985	985	985	980	980	977	974	974	974	974	972	972	969	969	966	963	963	963	963	961	961	958	955	955	953	953	950	950	950	950	950	950	948	948	942	942	942	940	940	937	935	935	935	932	930	930	930	930	927	927	927	927	925	922	922	920	917	917	917	915	915	915	913	913	913	910	910	910	908	908	903	901	901	901	901	898	898	898	898	896	894	894	894	891	887	887	887	887	887	887	889	891	891	896	908	910	913	913	0	0	0	0	0	0	0	0	0	0	0	0	0	0	0	0	0
0	0	0	0	0	0	0	0	0	0	0	0	0	0	0	0	0	0	0	0	0	0	0	0	0	0	0	0	0	1123	1123	1123	1123	1123	1127	1123	1123	1123	0	0	0	0	0	0	0	0	0	0	0	0	0	0	0	0	0	2845	2845	2845	2845	2845	2845	2845	2822	2822	2822	2822	2799	2799	2777	2754	2754	2754	2754	2754	2754	2733	2733	2733	2711	2690	2690	2690	2690	2669	2669	2669	2669	2649	2649	2629	2629	2629	2609	2609	2609	2589	2589	2589	2570	2570	2570	2551	2532	2532	2514	2514	2514	2514	2496	2496	2496	2478	2478	2443	2426	2426	2426	2426	2426	2409	2409	2409	2409	2409	2392	2376	2376	2359	2359	2359	2359	2359	2343	2343	2343	2327	2327	2312	2312	2297	2297	2281	2281	2281	2266	2252	2252	2237	2237	2237	2237	2237	2237	2237	2223	2208	2208	2208	2194	2194	2194	2181	2181	2181	2181	2181	2167	2167	2153	2153	2140	2140	2127	2127	2127	2127	2114	2114	2114	2114	2101	2101	2088	2088	2088	2076	2076	2076	2076	2063	2063	2063	2051	2051	2051	2051	2039	2039	2027	2027	2027	2027	2015	2015	2015	2015	2015	2015	2015	2003	2003	1992	1992	1980	1980	1969	1969	1969	1969	1969	1958	1958	1958	1958	1947	1936	1936	1925	1925	1925	1915	1915	1915	1915	1904	1894	1894	1883	1883	1883	1883	1873	1873	1873	1873	1863	1863	1853	1853	1853	1843	1843	1843	1833	1833	1833	1824	1824	1824	1814	1814	1804	1804	1804	1795	1795	1795	1786	1786	1786	1777	1777	1768	1768	1768	1768	1759	1759	1750	1750	1750	1741	1741	1741	1732	1732	1732	1732	1723	1723	1715	1715	1715	1715	1715	1706	1706	1698	1698	1698	1698	1690	1690	1681	1681	1673	1673	1673	1673	1673	1673	1455	1455	1449	1449	1449	1449	1443	1443	1321	1321	1321	1321	1321	1321	1316	1316	1311	1311	1306	1306	1301	1301	1296	1296	1296	1291	1287	1287	1282	1282	1282	1277	1277	1277	1277	1272	1268	1268	1268	1263	1263	1263	1259	1259	1254	1249	1249	1245	1245	1245	1245	1236	1236	1236	1236	1232	1232	1232	1227	1227	1227	1223	1223	1219	1214	1214	1210	1210	1210	1206	1206	1202	1202	1197	1197	1197	1197	1193	1193	1189	1185	1185	1181	1181	1181	1177	1177	1177	1177	1173	1173	1169	1169	1165	1165	1161	1157	1157	1153	1153	1150	1150	1150	1146	1146	1146	1142	1138	1138	1138	1131	1131	1127	1127	1123	1123	1123	1120	1120	1116	1116	1116	1113	1113	1113	1109	1109	1105	1105	1102	1102	1102	1098	1098	1098	1095	1095	1091	1088	1088	1088	1085	1085	1085	1078	1078	1074	1074	1074	1074	1074	1071	1071	1071	1068	1068	1061	1061	1061	1061	1061	1058	1058	1055	1055	1055	1048	1048	1048	1048	1048	1045	1045	1042	1039	1039	1036	1036	1033	1033	1033	1030	1030	1026	1026	1023	1023	1023	1020	1020	1017	1017	1014	1014	1011	1011	1008	1008	1008	1006	1003	1003	1003	1003	1003	1000	1000	997	994	994	991	991	991	985	985	983	983	983	980	977	974	974	974	974	972	972	972	969	966	966	963	963	963	961	958	958	955	955	953	953	953	953	950	950	948	948	950	948	945	942	942	940	940	937	935	935	935	932	930	930	930	930	927	927	927	925	922	922	922	920	917	915	915	915	915	915	913	913	913	910	910	908	908	903	903	901	901	901	901	898	898	898	898	898	894	894	891	891	887	887	887	887	887	887	887	891	891	896	913	915	915	915	0	0	0	0	0	0	0	0	0	0	0	0	0	0	0	0	0
0	0	0	0	0	0	0	0	0	0	0	0	0	0	0	0	0	0	0	0	0	0	0	0	0	0	0	0	0	1123	1123	1123	1123	1123	1127	1127	1127	1123	0	0	0	0	0	0	0	0	0	0	0	0	0	0	0	0	0	2845	2845	2845	2845	2845	2845	2845	2822	2822	2822	2822	2799	2799	2777	2754	2754	2754	2754	2754	2754	2733	2733	2733	2690	2690	2690	2690	2690	2669	2669	2669	2669	2649	2649	2629	2629	2609	2609	2589	2589	2589	2589	2570	2570	2570	2551	2551	2532	2532	2514	2514	2514	2514	2496	2496	2496	2478	2478	2443	2443	2426	2426	2426	2409	2409	2409	2409	2409	2409	2392	2376	2359	2359	2359	2359	2359	2359	2343	2343	2343	2327	2327	2312	2312	2297	2297	2281	2281	2281	2266	2252	2252	2237	2237	2237	2237	2237	2237	2237	2223	2208	2208	2208	2194	2194	2194	2194	2181	2181	2181	2181	2167	2167	2153	2153	2140	2140	2127	2127	2127	2127	2114	2114	2114	2114	2101	2101	2088	2088	2076	2076	2076	2076	2076	2076	2063	2063	2063	2063	2063	2051	2039	2039	2027	2027	2027	2027	2015	2015	2015	2015	2015	2015	2003	2003	2003	1992	1980	1980	1980	1969	1969	1969	1969	1969	1958	1958	1958	1947	1947	1936	1936	1925	1925	1925	1925	1915	1915	1915	1915	1894	1883	1883	1883	1883	1873	1873	1873	1873	1873	1863	1863	1853	1853	1853	1843	1843	1843	1833	1833	1833	1824	1824	1824	1814	1814	1804	1804	1804	1795	1795	1795	1786	1786	1786	1777	1777	1777	1768	1768	1768	1759	1759	1759	1750	1750	1741	1741	1741	1732	1732	1732	1732	1723	1723	1715	1715	1715	1715	1715	1706	1706	1698	1698	1698	1698	1690	1690	1681	1681	1673	1673	1673	1673	1673	1665	1665	1455	1449	1449	1449	1449	1443	1443	1321	1321	1321	1321	1321	1321	1316	1316	1306	1306	1306	1301	1301	1301	1301	1296	1296	1291	1291	1287	1282	1282	1282	1282	1282	1277	1277	1272	1268	1268	1263	1263	1263	1263	1263	1259	1254	1249	1249	1245	1245	1245	1245	1240	1236	1236	1236	1232	1232	1232	1227	1227	1227	1227	1223	1219	1219	1214	1210	1210	1210	1206	1206	1202	1202	1197	1197	1197	1197	1193	1193	1189	1185	1181	1181	1181	1181	1177	1177	1177	1177	1173	1173	1169	1169	1165	1165	1161	1157	1157	1153	1153	1150	1150	1150	1146	1146	1146	1142	1142	1138	1138	1131	1131	1127	1127	1123	1123	1123	1120	1120	1116	1116	1116	1116	1113	1113	1109	1109	1105	1105	1102	1102	1102	1098	1098	1098	1098	1098	1095	1091	1091	1088	1088	1085	1085	1078	1078	1074	1074	1074	1074	1071	1071	1071	1068	1068	1064	1064	1064	1061	1061	1058	1058	1055	1055	1055	1052	1048	1048	1048	1048	1045	1045	1045	1042	1039	1036	1036	1036	1033	1033	1033	1030	1026	1026	1026	1023	1023	1023	1023	1020	1017	1017	1014	1011	1011	1011	1008	1008	1008	1008	1003	1003	1003	1003	1003	1000	997	997	994	994	991	991	991	985	985	983	983	983	980	977	974	974	974	974	972	972	972	969	966	966	963	963	963	961	958	958	958	955	953	953	953	950	950	950	948	948	948	945	945	942	942	942	940	937	935	935	935	932	932	930	930	930	927	925	925	925	922	922	922	920	917	915	915	915	915	915	913	913	910	910	910	908	908	903	903	903	903	901	901	898	898	898	898	898	894	894	891	891	887	887	887	887	887	887	887	889	908	910	913	915	915	915	915	0	0	0	0	0	0	0	0	0	0	0	0	0	0	0	0
0	0	0	0	0	0	0	0	0	0	0	0	0	0	0	0	0	0	0	0	0	0	0	0	0	0	0	0	0	1123	1123	1123	1123	1127	1127	1127	1127	1127	0	0	0	0	0	0	0	0	0	0	0	0	0	0	0	0	2845	2845	2845	2845	2845	2845	2845	2822	2822	2822	2822	2822	2799	2799	2777	2754	2754	2754	2754	2754	2754	2733	2733	2711	2690	2690	2690	2690	2690	2690	2669	2669	2669	2649	2649	2629	2629	2609	2609	2589	2589	2589	2589	2570	2570	2570	2551	2551	2532	2514	2514	2514	2514	2496	2496	2496	2496	2478	2478	2443	2443	2426	2426	2426	2409	2409	2409	2409	2409	2409	2392	2376	2359	2359	2359	2359	2343	2343	2343	2327	2327	2312	2312	2312	2312	2297	2297	2281	2281	2281	2266	2252	2252	2237	2237	2237	2237	2237	2237	2237	2223	2208	2208	2208	2194	2194	2194	2194	2181	2181	2181	2181	2167	2153	2153	2153	2153	2140	2140	2140	2127	2127	2127	2114	2114	2114	2101	2101	2088	2088	2076	2076	2076	2076	2076	2076	2063	2063	2063	2063	2063	2051	2039	2039	2027	2027	2027	2027	2015	2015	2015	2015	2015	2015	2003	2003	2003	1992	1980	1980	1980	1969	1969	1969	1969	1958	1958	1958	1958	1947	1947	1936	1936	1925	1925	1925	1925	1915	1915	1915	1915	1894	1883	1883	1883	1883	1873	1873	1873	1873	1873	1863	1863	1853	1853	1853	1843	1843	1843	1833	1833	1833	1824	1824	1824	1814	1814	1804	1804	1804	1795	1795	1795	1786	1786	1786	1786	1777	1777	1777	1768	1768	1759	1759	1759	1750	1750	1741	1741	1741	1732	1732	1732	1732	1723	1723	1723	1723	1715	1715	1715	1706	1706	1698	1698	1698	1690	1690	1690	1681	1681	1681	1673	1673	1673	1673	1665	1665	1455	1449	1449	1449	1449	1449	1443	1321	1321	1321	1321	1321	1321	1316	1316	1306	1306	1306	1301	1301	1301	1301	1301	1296	1291	1291	1287	1282	1282	1282	1282	1282	1277	1277	1272	1268	1268	1263	1263	1263	1263	1259	1259	1254	1249	1249	1245	1245	1245	1240	1240	1236	1236	1236	1232	1232	1232	1227	1227	1227	1227	1223	1219	1219	1214	1210	1210	1210	1206	1206	1202	1202	1202	1197	1197	1197	1193	1193	1189	1185	1181	1181	1181	1181	1181	1177	1177	1177	1177	1173	1169	1169	1165	1165	1161	1157	1157	1153	1150	1150	1150	1150	1146	1146	1146	1142	1138	1138	1138	1131	1131	1131	1127	1127	1123	1123	1123	1120	1120	1116	1116	1116	1113	1113	1113	1109	1109	1105	1102	1102	1102	1098	1098	1095	1095	1098	1095	1091	1088	1088	1088	1085	1085	1078	1078	1074	1074	1074	1074	1071	1071	1071	1068	1068	1064	1064	1064	1061	1061	1058	1058	1055	1055	1055	1052	1048	1048	1048	1048	1045	1045	1045	1042	1039	1039	1036	1036	1033	1033	1033	1030	1026	1026	1026	1023	1023	1023	1023	1020	1020	1017	1014	1014	1011	1011	1011	1008	1008	1008	1006	1006	1003	1003	1003	1000	997	997	997	994	991	991	991	985	983	983	980	980	980	977	974	974	974	974	974	972	972	969	969	966	966	963	963	961	961	961	958	955	953	953	953	950	950	948	948	948	948	945	945	942	942	942	940	937	935	935	935	932	932	930	930	930	927	925	925	925	925	922	922	920	917	915	915	915	915	915	913	913	910	910	910	908	908	905	903	903	903	901	901	901	898	898	898	896	894	894	894	894	889	887	887	887	887	887	887	889	908	910	913	915	915	915	915	0	0	0	0	0	0	0	0	0	0	0	0	0	0	0	0
0	0	0	0	0	0	0	0	0	0	0	0	0	0	0	0	0	0	0	0	0	0	0	0	0	0	0	0	0	1123	1123	1127	1127	1127	1127	1127	1127	1127	0	0	0	1519	1519	1519	1525	1525	1525	1525	0	0	0	0	0	0	2845	2845	2845	2845	2845	2845	2822	2822	2822	2822	2799	2799	2799	2777	2777	2777	2777	2777	2777	2777	2754	2733	2733	2711	2690	2690	2690	2690	2690	2690	2669	2669	2649	2649	2649	2629	2629	2609	2609	2589	2589	2589	2589	2570	2570	2570	2570	2551	2532	2514	2514	2514	2514	2496	2496	2496	2496	2478	2478	2443	2443	2426	2426	2409	2409	2409	2409	2409	2409	2392	2392	2376	2359	2359	2359	2359	2343	2343	2343	2327	2327	2312	2312	2312	2297	2297	2297	2281	2281	2281	2281	2266	2252	2237	2237	2237	2237	2237	2237	2237	2223	2208	2208	2208	2194	2194	2194	2194	2194	2194	2181	2167	2167	2153	2153	2153	2153	2140	2140	2140	2127	2127	2114	2114	2114	2114	2101	2101	2088	2088	2088	2076	2076	2076	2076	2076	2063	2063	2063	2063	2063	2051	2039	2039	2027	2027	2027	2027	2015	2015	2015	2015	2015	2015	2003	2003	2003	1992	1992	1980	1980	1969	1969	1969	1969	1958	1958	1958	1958	1958	1947	1936	1936	1925	1925	1925	1915	1915	1915	1915	1915	1904	1894	1883	1883	1883	1873	1873	1873	1873	1873	1873	1863	1863	1853	1853	1843	1843	1843	1833	1833	1833	1824	1824	1824	1814	1814	1804	1804	1804	1804	1795	1795	1786	1786	1786	1786	1777	1777	1777	1768	1768	1768	1759	1759	1750	1750	1741	1741	1741	1732	1732	1732	1732	1723	1723	1723	1723	1715	1715	1715	1706	1706	1698	1698	1698	1690	1690	1690	1681	1681	1681	1673	1673	1673	1673	1673	1673	1455	1449	1449	1449	1449	1449	1449	1321	1321	1321	1321	1321	1321	1316	1316	1306	1306	1306	1306	1301	1301	1301	1301	1296	1291	1291	1287	1282	1282	1282	1282	1282	1277	1277	1272	1268	1268	1268	1263	1263	1263	1259	1259	1259	1249	1249	1245	1245	1245	1240	1240	1236	1236	1236	1232	1232	1232	1227	1227	1227	1227	1223	1219	1219	1214	1210	1210	1210	1206	1206	1202	1202	1202	1197	1197	1197	1193	1193	1189	1185	1185	1181	1181	1181	1181	1177	1177	1177	1177	1173	1169	1169	1165	1165	1161	1157	1157	1153	1150	1150	1150	1150	1146	1146	1146	1142	1138	1138	1138	1131	1131	1131	1131	1127	1127	1123	1123	1123	1120	1116	1116	1116	1113	1113	1113	1109	1109	1105	1102	1102	1102	1098	1098	1095	1095	1095	1095	1091	1088	1088	1085	1085	1085	1081	1078	1074	1074	1074	1074	1071	1071	1071	1071	1068	1064	1064	1064	1061	1058	1058	1058	1055	1055	1055	1052	1052	1048	1048	1048	1048	1045	1045	1045	1039	1039	1039	1036	1036	1033	1033	1033	1030	1030	1026	1023	1023	1023	1023	1020	1020	1017	1014	1014	1011	1011	1011	1011	1011	1008	1008	1006	1003	1003	1000	1000	997	997	997	994	994	991	988	985	983	983	980	980	980	977	974	974	974	974	974	972	972	969	969	966	966	963	963	961	961	961	958	955	953	953	950	950	950	948	948	948	945	945	945	942	942	942	940	937	935	935	935	932	932	930	930	930	927	927	927	927	925	922	922	920	920	917	917	917	917	915	913	913	910	910	910	908	908	905	903	903	903	901	901	901	898	898	898	896	896	894	894	894	891	889	889	889	887	887	887	891	908	913	913	915	915	915	915	0	0	0	0	0	0	0	0	0	0	0	0	0	0	0	0
0	0	0	0	0	0	0	0	0	0	0	0	0	0	0	0	0	0	0	0	0	0	0	0	0	0	0	0	0	1127	1127	1127	1127	1127	1127	1127	1131	1131	0	0	0	1519	1519	1519	1525	1525	1525	1525	0	0	0	0	0	0	2845	2845	2845	2845	2845	2845	2822	2822	2822	2822	2799	2799	2799	2777	2777	2777	2777	2777	2754	2754	2733	2733	2733	2711	2690	2690	2690	2690	2690	2690	2669	2649	2649	2649	2649	2629	2629	2609	2609	2589	2589	2589	2589	2570	2570	2570	2570	2551	2532	2532	2514	2514	2514	2514	2496	2496	2496	2478	2478	2443	2443	2426	2426	2409	2409	2409	2409	2392	2392	2392	2392	2376	2359	2359	2359	2359	2343	2343	2343	2327	2327	2312	2312	2312	2297	2297	2297	2281	2281	2281	2266	2266	2266	2237	2237	2237	2237	2237	2237	2223	2223	2208	2208	2194	2194	2208	2208	2194	2181	2181	2181	2167	2167	2153	2153	2140	2140	2140	2140	2140	2127	2127	2114	2114	2114	2114	2101	2101	2088	2088	2076	2076	2076	2076	2076	2063	2063	2063	2063	2063	2063	2051	2051	2039	2027	2027	2027	2027	2027	2015	2015	2015	2015	2015	2003	2003	2003	1992	1992	1980	1980	1969	1969	1969	1969	1958	1958	1958	1958	1947	1947	1936	1936	1925	1925	1925	1915	1915	1915	1915	1915	1904	1894	1883	1883	1883	1873	1873	1873	1873	1873	1873	1873	1863	1863	1853	1853	1843	1843	1833	1833	1833	1824	1824	1824	1814	1814	1814	1804	1804	1804	1804	1795	1795	1786	1786	1786	1777	1777	1768	1768	1768	1768	1759	1759	1759	1759	1750	1741	1741	1741	1732	1732	1732	1723	1723	1723	1723	1715	1715	1715	1706	1706	1698	1698	1698	1698	1690	1690	1681	1681	1681	1673	1673	1673	1673	1673	1673	1455	1449	1449	1449	1449	1449	1449	1321	1321	1321	1321	1321	1321	1316	1316	1306	1306	1306	1306	1301	1301	1301	1301	1296	1291	1291	1287	1282	1282	1282	1282	1282	1277	1277	1272	1268	1268	1268	1263	1263	1263	1263	1254	1254	1249	1249	1245	1245	1245	1240	1240	1240	1236	1236	1232	1232	1232	1232	1227	1227	1223	1223	1214	1214	1214	1210	1210	1210	1206	1206	1206	1202	1202	1197	1197	1197	1193	1193	1189	1185	1185	1181	1181	1181	1181	1177	1177	1177	1177	1173	1169	1169	1169	1165	1161	1157	1157	1153	1150	1150	1150	1150	1146	1146	1146	1142	1138	1138	1134	1131	1131	1131	1131	1127	1127	1123	1123	1120	1120	1116	1116	1116	1113	1113	1109	1109	1109	1105	1102	1102	1102	1098	1098	1095	1095	1095	1095	1091	1091	1085	1085	1085	1081	1078	1078	1074	1074	1074	1074	1071	1071	1071	1071	1068	1064	1064	1064	1061	1058	1058	1058	1055	1055	1055	1052	1052	1052	1048	1048	1048	1045	1045	1045	1039	1039	1039	1036	1036	1036	1033	1033	1030	1030	1026	1023	1023	1023	1023	1020	1020	1017	1017	1014	1011	1011	1011	1011	1011	1011	1008	1008	1006	1003	1000	1000	997	997	997	994	991	991	988	985	983	983	983	983	980	977	977	974	974	974	974	974	972	969	966	966	966	963	963	961	961	961	958	955	953	953	950	950	950	950	948	948	945	945	942	942	942	942	942	940	935	935	932	932	932	930	930	930	927	927	927	927	925	922	922	922	920	917	917	917	917	915	913	913	910	910	908	908	908	905	905	905	903	901	901	901	898	898	898	896	896	894	894	894	891	889	889	887	884	884	887	894	908	913	913	913	915	915	915	0	0	0	0	0	0	0	0	0	0	0	0	0	0	0	0
0	0	0	0	0	0	0	0	0	0	0	0	0	0	0	0	0	0	0	0	0	0	0	0	0	0	0	0	0	1127	1127	1127	1127	1131	1131	1131	1131	1131	0	0	0	1525	1525	1525	1525	1525	1525	1525	0	0	0	0	0	0	2845	2845	2845	2845	2845	2845	2845	2822	2822	2822	2799	2799	2799	2799	2799	2777	2777	2777	2754	2754	2733	2733	2733	2711	2690	2690	2690	2711	2690	2669	2669	2649	2649	2649	2649	2629	2629	2609	2609	2589	2589	2589	2589	2570	2570	2570	2570	2551	2532	2532	2514	2514	2514	2514	2496	2496	2496	2478	2478	2443	2443	2426	2426	2409	2409	2409	2392	2392	2392	2392	2376	2376	2359	2359	2359	2343	2343	2343	2343	2327	2327	2327	2327	2312	2297	2297	2297	2281	2281	2281	2266	2266	2252	2237	2237	2237	2237	2237	2223	2223	2223	2208	2208	2194	2194	2194	2194	2194	2181	2181	2167	2167	2167	2153	2140	2140	2140	2140	2140	2127	2127	2127	2114	2114	2114	2114	2101	2101	2088	2088	2076	2076	2076	2076	2076	2063	2063	2063	2063	2063	2063	2051	2039	2039	2027	2027	2027	2027	2027	2015	2015	2015	2015	2015	2003	2003	2003	1992	1992	1992	1980	1969	1969	1969	1969	1958	1958	1958	1958	1947	1947	1936	1925	1925	1925	1925	1915	1915	1915	1915	1915	1904	1894	1894	1883	1883	1873	1873	1873	1873	1873	1873	1873	1863	1863	1853	1853	1843	1843	1833	1833	1833	1824	1824	1824	1814	1814	1814	1804	1804	1804	1804	1795	1795	1786	1786	1786	1777	1777	1768	1768	1768	1768	1759	1759	1759	1759	1750	1741	1741	1741	1732	1732	1732	1723	1723	1723	1723	1723	1715	1706	1706	1706	1698	1698	1698	1698	1698	1690	1690	1690	1681	1673	1673	1673	1673	1673	1673	1455	1449	1449	1449	1449	1455	1331	1326	1326	1326	1321	1321	1321	1321	1316	1311	1311	1306	1306	1301	1301	1301	1301	1301	1296	1291	1287	1282	1282	1282	1282	1282	1282	1277	1272	1268	1268	1268	1263	1263	1263	1259	1254	1254	1249	1249	1249	1245	1245	1245	1240	1240	1236	1232	1232	1232	1232	1227	1227	1227	1223	1223	1214	1214	1214	1210	1210	1210	1206	1206	1206	1202	1202	1197	1197	1197	1193	1193	1189	1185	1185	1181	1181	1181	1181	1177	1177	1177	1177	1169	1169	1165	1165	1165	1161	1157	1153	1150	1150	1150	1150	1150	1146	1146	1146	1142	1138	1138	1134	1131	1131	1131	1127	1127	1127	1123	1123	1120	1120	1116	1116	1116	1113	1113	1109	1109	1105	1102	1102	1102	1098	1098	1098	1095	1095	1095	1095	1091	1088	1085	1085	1085	1081	1078	1074	1074	1074	1074	1074	1071	1071	1071	1071	1068	1064	1064	1064	1061	1058	1058	1058	1058	1055	1055	1052	1052	1048	1048	1045	1045	1045	1045	1045	1039	1039	1039	1036	1036	1036	1033	1033	1030	1030	1026	1023	1023	1020	1020	1020	1020	1017	1017	1014	1011	1011	1011	1011	1011	1011	1008	1003	1003	1003	1000	997	997	997	997	994	991	991	988	985	983	983	983	980	980	977	977	977	977	974	974	974	972	969	966	966	966	963	963	961	961	961	958	955	953	953	953	953	950	950	948	948	945	945	942	942	942	940	940	940	937	935	935	932	932	932	930	930	927	927	927	927	927	922	922	922	920	917	917	917	915	913	913	913	910	910	908	908	908	905	905	905	903	903	901	898	898	896	896	896	896	894	894	894	891	891	889	887	884	884	887	891	910	910	913	913	915	915	0	0	0	0	0	0	0	0	0	0	0	0	0	0	0	0	0
0	0	0	0	0	0	0	0	0	0	0	0	0	0	0	0	0	0	0	0	0	0	0	0	0	0	0	0	0	1127	1127	1127	1127	1131	1131	1131	1131	1131	0	0	0	1525	1525	1525	1525	1525	1525	1525	0	0	0	0	0	0	2869	2869	2869	2845	2845	2845	2845	2822	2822	2822	2799	2799	2799	2799	2799	2799	2777	2777	2777	2754	2733	2733	2711	2711	2690	2690	2690	2690	2690	2669	2669	2649	2649	2649	2649	2649	2629	2609	2609	2609	2589	2589	2589	2570	2570	2570	2570	2551	2532	2532	2514	2514	2514	2496	2496	2496	2478	2478	2478	2443	2443	2426	2426	2409	2409	2409	2392	2392	2392	2392	2376	2376	2359	2359	2359	2343	2343	2343	2343	2327	2327	2327	2327	2312	2297	2297	2297	2281	2281	2281	2266	2266	2252	2237	2237	2237	2237	2237	2223	2223	2223	2208	2208	2208	2208	2194	2194	2194	2181	2181	2167	2167	2167	2153	2140	2140	2140	2140	2140	2140	2127	2127	2127	2114	2114	2114	2114	2101	2088	2088	2076	2076	2076	2076	2076	2076	2076	2063	2063	2063	2063	2051	2039	2039	2027	2027	2027	2027	2027	2027	2027	2015	2015	2015	2003	2003	1992	1992	1992	1992	1980	1969	1969	1969	1958	1958	1958	1958	1947	1947	1936	1936	1925	1925	1925	1925	1915	1915	1915	1915	1915	1904	1894	1894	1883	1883	1883	1873	1873	1873	1873	1873	1863	1863	1853	1853	1853	1843	1843	1843	1833	1833	1833	1824	1824	1814	1814	1814	1804	1804	1804	1804	1795	1795	1786	1786	1786	1777	1777	1768	1768	1768	1768	1759	1759	1759	1750	1750	1750	1741	1741	1741	1732	1732	1732	1723	1723	1723	1723	1715	1706	1706	1698	1698	1698	1698	1698	1698	1690	1681	1681	1681	1673	1673	1673	1673	1665	1665	1449	1449	1449	1449	1455	1455	1331	1326	1326	1326	1321	1321	1321	1321	1316	1311	1311	1306	1306	1301	1301	1301	1301	1296	1296	1291	1287	1282	1282	1282	1282	1282	1282	1277	1277	1268	1268	1268	1263	1263	1259	1259	1254	1254	1249	1249	1249	1245	1245	1245	1240	1240	1236	1232	1232	1232	1232	1227	1227	1227	1223	1223	1219	1219	1214	1210	1210	1210	1206	1206	1202	1202	1202	1197	1197	1197	1193	1193	1189	1185	1185	1181	1181	1177	1177	1177	1177	1177	1177	1169	1169	1165	1161	1161	1157	1157	1150	1150	1150	1150	1150	1150	1146	1146	1146	1142	1138	1138	1134	1131	1131	1131	1127	1127	1127	1123	1123	1120	1120	1116	1116	1116	1113	1113	1109	1109	1105	1102	1102	1102	1098	1098	1098	1098	1095	1095	1095	1091	1088	1088	1088	1085	1085	1078	1074	1074	1074	1074	1074	1071	1071	1071	1071	1068	1068	1064	1064	1061	1058	1058	1058	1058	1058	1055	1052	1052	1048	1048	1045	1045	1045	1045	1045	1039	1039	1039	1036	1036	1036	1036	1033	1030	1030	1026	1023	1023	1020	1020	1020	1020	1017	1017	1014	1014	1014	1011	1011	1011	1011	1008	1003	1003	1003	1000	997	997	997	997	997	991	991	988	983	983	983	983	980	980	980	977	977	977	974	974	974	972	969	966	966	966	963	963	961	961	961	958	955	953	953	953	953	950	950	950	948	945	945	942	942	942	940	940	937	937	937	935	935	935	932	932	930	930	927	927	927	925	925	922	922	920	917	917	917	915	913	913	913	910	910	910	908	908	905	905	905	903	903	901	898	898	896	896	896	896	894	894	894	891	891	889	889	887	887	889	889	910	917	915	915	917	917	0	0	0	0	0	0	0	0	0	0	0	0	0	0	0	0	0
0	0	0	0	0	0	0	0	0	0	0	0	0	0	0	0	0	0	0	0	0	0	0	0	0	0	0	0	0	1127	1127	1127	1127	1131	1131	1131	1131	1131	0	0	0	1525	1525	1525	1525	1525	1519	1519	1519	0	0	0	0	0	2869	2869	2893	2893	2869	2869	2845	2822	2822	2822	2799	2799	2799	2799	2799	2799	2777	2754	2754	2754	2733	2733	2711	2711	2690	2690	2690	2690	2690	2669	2669	2649	2649	2649	2649	2629	2629	2609	2609	2589	2589	2589	2570	2570	2570	2570	2570	2551	2532	2532	2514	2514	2514	2496	2496	2496	2478	2478	2478	2443	2443	2426	2426	2409	2409	2409	2392	2392	2392	2392	2376	2376	2359	2359	2359	2343	2343	2343	2343	2327	2327	2327	2327	2312	2297	2297	2297	2297	2281	2281	2266	2266	2252	2237	2237	2237	2237	2237	2223	2223	2223	2223	2208	2208	2208	2208	2194	2194	2181	2181	2167	2167	2167	2153	2153	2140	2140	2140	2140	2140	2140	2127	2127	2127	2114	2114	2114	2101	2101	2088	2088	2076	2076	2076	2076	2076	2063	2063	2063	2063	2063	2051	2051	2039	2039	2027	2027	2027	2027	2027	2015	2015	2015	2015	2003	2003	1992	1992	1992	1992	1980	1969	1969	1969	1958	1958	1958	1947	1947	1947	1936	1936	1925	1925	1925	1925	1915	1915	1915	1915	1915	1904	1904	1894	1883	1883	1883	1883	1873	1873	1873	1873	1863	1863	1853	1853	1853	1843	1843	1833	1833	1833	1833	1824	1824	1814	1814	1804	1804	1804	1804	1804	1795	1795	1786	1786	1786	1777	1777	1768	1768	1768	1759	1759	1759	1759	1750	1750	1750	1741	1741	1741	1732	1732	1732	1723	1723	1723	1723	1715	1706	1706	1698	1698	1698	1698	1698	1698	1690	1681	1681	1681	1673	1673	1673	1673	1665	1665	1449	1449	1449	1449	1455	1455	1331	1326	1326	1326	1321	1321	1321	1321	1316	1311	1311	1306	1306	1306	1301	1301	1301	1296	1296	1291	1287	1287	1282	1282	1282	1282	1282	1277	1277	1268	1268	1268	1263	1263	1259	1259	1259	1259	1254	1249	1249	1249	1245	1245	1245	1240	1236	1232	1232	1232	1232	1227	1227	1227	1223	1219	1219	1214	1214	1210	1210	1210	1206	1206	1202	1202	1197	1197	1197	1197	1197	1193	1189	1185	1185	1181	1181	1177	1177	1177	1177	1177	1177	1173	1173	1169	1161	1161	1157	1157	1150	1150	1150	1150	1150	1150	1146	1146	1146	1142	1142	1138	1138	1131	1131	1131	1127	1127	1127	1123	1123	1123	1120	1116	1116	1116	1113	1113	1109	1105	1105	1102	1102	1102	1098	1098	1098	1098	1095	1095	1095	1091	1088	1088	1088	1085	1085	1081	1078	1074	1074	1074	1074	1074	1071	1071	1071	1068	1068	1068	1064	1061	1058	1058	1058	1058	1058	1055	1055	1048	1048	1048	1045	1045	1045	1045	1045	1039	1039	1039	1036	1036	1036	1036	1033	1030	1030	1026	1023	1023	1020	1020	1020	1020	1017	1017	1014	1014	1014	1011	1011	1011	1011	1008	1008	1003	1000	1000	997	997	997	997	997	994	991	991	983	983	983	980	980	980	980	974	974	974	974	974	974	972	969	966	966	966	963	963	961	961	961	958	955	953	953	953	953	950	950	950	948	945	945	942	942	942	940	940	937	937	937	935	935	935	932	932	930	930	927	927	927	925	925	922	922	920	917	917	917	917	915	913	913	913	910	910	908	908	908	905	905	905	903	901	901	898	896	896	896	894	894	894	894	894	891	891	891	889	889	891	894	910	917	915	915	917	917	0	0	0	0	0	0	0	0	0	0	0	0	0	0	0	0	0
0	0	0	0	0	0	0	0	0	0	0	0	0	0	0	0	0	0	0	0	0	0	0	0	0	0	0	0	0	1127	1127	1127	1127	1127	1131	1131	1131	1131	0	0	1506	1506	1525	1525	1525	1525	1519	1519	1519	0	0	0	0	0	2893	2893	2893	2869	2869	2869	2845	2845	2822	2822	2799	2799	2799	2799	2799	2777	2777	2754	2754	2754	2733	2733	2711	2711	2711	2690	2690	2690	2690	2669	2669	2649	2649	2649	2649	2629	2629	2609	2609	2589	2589	2589	2570	2570	2570	2570	2551	2551	2532	2532	2514	2514	2514	2496	2496	2496	2496	2478	2478	2443	2443	2426	2426	2409	2409	2409	2392	2392	2392	2392	2376	2359	2359	2359	2359	2343	2343	2343	2343	2327	2327	2327	2327	2312	2297	2297	2297	2297	2281	2281	2266	2266	2252	2252	2252	2237	2237	2237	2223	2223	2223	2223	2223	2208	2208	2194	2181	2181	2181	2181	2181	2167	2167	2153	2153	2140	2140	2140	2140	2140	2127	2127	2127	2127	2127	2114	2114	2114	2101	2088	2088	2076	2076	2076	2076	2076	2063	2063	2063	2063	2063	2051	2051	2039	2039	2039	2027	2027	2027	2027	2015	2015	2015	2015	2003	2003	2003	1992	1992	1992	1980	1969	1969	1958	1958	1958	1958	1947	1947	1947	1936	1936	1925	1925	1925	1925	1915	1915	1904	1904	1904	1904	1904	1894	1894	1883	1883	1883	1873	1873	1873	1873	1863	1863	1853	1853	1843	1843	1843	1833	1833	1833	1833	1824	1824	1814	1804	1804	1804	1804	1804	1804	1795	1795	1795	1786	1786	1777	1777	1777	1768	1768	1759	1759	1759	1759	1750	1750	1750	1741	1741	1741	1732	1732	1732	1723	1723	1723	1723	1715	1706	1706	1698	1698	1698	1698	1698	1698	1690	1681	1681	1681	1673	1673	1673	1673	1665	1665	1449	1449	1449	1449	1455	1455	1331	1326	1326	1326	1321	1321	1321	1321	1316	1311	1311	1306	1306	1306	1301	1301	1301	1301	1296	1291	1291	1287	1282	1282	1282	1282	1282	1277	1277	1268	1268	1268	1263	1263	1263	1259	1259	1259	1254	1249	1249	1249	1245	1245	1245	1240	1236	1232	1232	1232	1232	1227	1227	1227	1223	1219	1219	1214	1214	1210	1210	1210	1206	1206	1202	1202	1197	1197	1197	1197	1197	1193	1189	1185	1185	1181	1181	1181	1181	1177	1177	1177	1177	1173	1173	1169	1161	1161	1157	1157	1153	1150	1150	1150	1150	1150	1150	1146	1146	1146	1142	1142	1138	1131	1131	1131	1127	1127	1127	1123	1123	1123	1120	1116	1116	1113	1113	1113	1109	1105	1105	1102	1102	1102	1098	1098	1098	1098	1095	1095	1095	1091	1088	1088	1085	1081	1081	1081	1078	1074	1074	1074	1074	1074	1071	1071	1071	1068	1068	1068	1064	1061	1058	1058	1058	1058	1058	1055	1055	1048	1048	1048	1048	1048	1045	1045	1045	1039	1039	1036	1036	1036	1036	1036	1036	1033	1030	1030	1026	1023	1023	1020	1020	1023	1017	1017	1014	1014	1014	1014	1011	1011	1008	1008	1008	1003	1000	1000	997	997	997	997	997	994	991	991	983	983	983	980	980	980	980	974	974	972	972	974	974	972	969	969	969	966	966	963	961	961	961	953	953	953	953	953	950	950	950	950	948	945	942	942	942	942	940	940	940	937	937	935	935	932	932	932	930	930	927	927	927	927	925	922	922	922	917	917	917	917	915	915	913	913	910	910	910	908	908	908	905	905	905	903	898	896	896	896	896	894	894	894	894	894	894	891	891	891	891	891	894	913	915	915	915	915	915	0	0	0	0	0	0	0	0	0	0	0	0	0	0	0	0	0
0	0	0	0	0	0	0	0	0	0	0	0	0	0	0	0	0	0	0	0	0	0	0	0	0	0	0	0	0	1127	1127	1127	1127	1127	1127	1127	1127	1127	1127	0	1506	1506	1519	1525	1525	1525	1525	1525	1525	0	0	0	0	0	2893	2893	2893	2869	2869	2869	2845	2845	2822	2822	2799	2799	2799	2799	2799	2777	2754	2754	2754	2754	2754	2733	2733	2711	2711	2690	2690	2690	2690	2669	2669	2649	2649	2649	2649	2649	2629	2609	2609	2589	2589	2589	2589	2570	2570	2570	2551	2551	2532	2532	2514	2514	2514	2496	2496	2496	2496	2478	2478	2460	2443	2443	2426	2409	2409	2409	2392	2392	2392	2392	2376	2359	2359	2359	2359	2343	2343	2343	2343	2327	2327	2327	2327	2312	2312	2297	2297	2297	2281	2281	2281	2266	2266	2252	2252	2237	2237	2237	2237	2223	2223	2223	2223	2208	2208	2194	2181	2181	2181	2181	2181	2167	2167	2153	2153	2153	2140	2140	2140	2140	2127	2127	2127	2127	2127	2114	2114	2114	2114	2101	2088	2088	2076	2076	2076	2076	2063	2063	2063	2063	2063	2051	2051	2051	2039	2039	2027	2027	2027	2027	2015	2015	2015	2015	2003	2003	2003	1992	1992	1992	1980	1958	1958	1958	1958	1958	1958	1958	1947	1947	1947	1936	1936	1925	1925	1925	1915	1915	1904	1904	1904	1904	1904	1894	1883	1883	1883	1883	1873	1873	1873	1863	1863	1863	1853	1853	1843	1843	1843	1843	1833	1833	1833	1824	1824	1814	1804	1804	1804	1804	1804	1804	1795	1795	1795	1786	1786	1777	1777	1768	1768	1768	1759	1759	1759	1759	1750	1750	1750	1750	1750	1741	1732	1732	1732	1723	1723	1723	1723	1715	1706	1706	1698	1698	1698	1698	1698	1698	1690	1681	1681	1681	1681	1673	1673	1673	1665	1665	1455	1455	1455	1455	1455	1455	1331	1326	1326	1326	1321	1321	1321	1321	1316	1311	1311	1306	1306	1306	1301	1301	1301	1301	1296	1296	1291	1287	1282	1282	1282	1282	1282	1277	1272	1268	1268	1268	1263	1263	1263	1263	1259	1254	1254	1249	1249	1249	1245	1245	1245	1240	1236	1232	1232	1232	1232	1227	1227	1227	1223	1219	1219	1219	1214	1214	1210	1210	1206	1206	1206	1202	1197	1197	1197	1197	1197	1193	1189	1185	1185	1181	1181	1181	1181	1177	1177	1177	1173	1173	1173	1169	1161	1161	1157	1157	1153	1153	1153	1150	1150	1150	1150	1146	1146	1146	1146	1142	1138	1131	1131	1127	1127	1127	1127	1127	1123	1123	1120	1116	1116	1113	1113	1109	1109	1105	1105	1102	1102	1102	1102	1098	1098	1098	1095	1095	1091	1091	1088	1088	1085	1081	1081	1081	1078	1074	1074	1074	1074	1074	1071	1071	1071	1071	1068	1064	1064	1061	1058	1058	1058	1058	1058	1055	1055	1052	1052	1048	1048	1048	1045	1045	1045	1039	1036	1036	1036	1036	1036	1036	1036	1033	1033	1030	1026	1026	1023	1023	1023	1023	1020	1020	1014	1011	1011	1011	1011	1011	1008	1008	1008	1000	1000	1000	1000	1000	1000	1000	997	994	991	991	985	983	983	983	983	983	980	974	974	972	972	974	974	972	969	969	969	966	966	963	961	961	961	953	953	953	953	953	950	950	950	950	948	945	942	942	942	942	940	940	940	940	937	935	935	932	932	932	930	930	927	927	927	925	922	922	922	922	920	917	917	917	917	915	913	913	910	910	910	908	908	908	905	905	905	903	898	898	898	894	894	894	894	894	894	894	894	894	891	891	891	894	894	913	915	915	915	915	915	0	0	0	0	0	0	0	0	0	0	0	0	0	0	0	0	0
0	0	0	0	0	0	0	0	0	0	0	0	0	0	0	0	0	0	0	0	0	0	0	0	0	0	0	0	0	1127	1127	1127	1127	1127	1127	1127	1127	1127	1127	0	1506	1506	1519	1519	1525	1525	1525	1525	1525	0	0	0	0	0	2893	2893	2893	2869	2869	2869	2845	2845	2822	2822	2799	2799	2799	2799	2799	2777	2777	2754	2754	2754	2754	2733	2733	2733	2711	2690	2690	2690	2690	2690	2669	2649	2649	2649	2649	2629	2629	2609	2609	2589	2589	2589	2589	2589	2570	2570	2570	2551	2532	2532	2514	2514	2514	2514	2496	2496	2496	2496	2478	2460	2443	2443	2426	2409	2409	2409	2392	2392	2392	2392	2376	2376	2359	2359	2359	2359	2359	2343	2343	2343	2327	2327	2327	2312	2312	2297	2297	2297	2281	2281	2281	2266	2266	2252	2252	2252	2237	2237	2237	2237	2223	2223	2223	2208	2208	2194	2181	2181	2181	2181	2181	2181	2167	2167	2153	2153	2140	2140	2140	2140	2127	2127	2127	2127	2127	2114	2114	2114	2114	2101	2088	2088	2076	2076	2076	2076	2063	2063	2063	2063	2063	2051	2051	2051	2039	2027	2027	2027	2027	2015	2015	2015	2015	2015	2015	2015	2003	2003	1992	1980	1980	1958	1958	1958	1958	1958	1958	1958	1947	1947	1947	1936	1936	1925	1925	1925	1915	1915	1904	1904	1904	1904	1904	1894	1883	1883	1883	1883	1873	1873	1873	1863	1863	1863	1853	1853	1843	1843	1843	1843	1833	1833	1833	1824	1824	1814	1804	1804	1804	1804	1804	1804	1795	1795	1795	1786	1786	1777	1777	1768	1768	1768	1759	1759	1759	1759	1759	1759	1750	1750	1750	1741	1732	1732	1732	1723	1723	1723	1715	1715	1706	1706	1698	1698	1698	1698	1698	1698	1690	1681	1681	1681	1681	1673	1673	1673	1673	1673	1455	1455	1455	1455	1455	1455	1326	1326	1326	1321	1321	1321	1321	1321	1316	1311	1311	1311	1306	1306	1306	1306	1301	1301	1296	1296	1291	1287	1282	1282	1282	1282	1277	1277	1272	1268	1268	1268	1263	1263	1263	1263	1259	1254	1254	1249	1249	1249	1249	1245	1245	1240	1236	1236	1236	1232	1232	1227	1227	1227	1223	1219	1219	1219	1214	1214	1210	1210	1210	1206	1206	1202	1197	1197	1197	1197	1197	1193	1189	1185	1185	1181	1181	1181	1177	1177	1177	1177	1173	1173	1173	1169	1169	1161	1161	1157	1153	1153	1153	1153	1150	1150	1150	1146	1146	1146	1146	1142	1138	1131	1131	1127	1127	1127	1127	1127	1123	1123	1120	1116	1116	1113	1113	1109	1109	1105	1105	1102	1102	1102	1102	1098	1098	1098	1095	1095	1091	1088	1088	1088	1085	1085	1081	1081	1078	1074	1074	1074	1074	1071	1071	1071	1068	1068	1068	1064	1064	1061	1061	1061	1061	1058	1058	1055	1052	1052	1052	1048	1048	1045	1045	1042	1042	1039	1036	1036	1036	1033	1033	1033	1033	1033	1033	1030	1026	1026	1023	1023	1023	1023	1020	1020	1014	1011	1011	1011	1011	1008	1008	1006	1003	1000	1000	1000	1000	1000	1000	1000	997	994	991	991	985	983	983	983	980	980	980	980	977	977	974	974	972	972	972	969	969	969	966	963	961	961	961	958	955	953	953	953	953	950	950	950	950	948	945	945	942	942	940	940	940	940	937	935	935	932	932	932	930	930	927	927	927	925	922	922	922	920	920	917	917	917	917	915	913	913	913	910	910	908	908	905	903	903	903	901	898	898	898	894	894	894	894	891	891	894	894	894	891	891	891	894	896	910	915	913	913	913	915	0	0	0	0	0	0	0	0	0	0	0	0	0	0	0	0	0
0	0	0	0	0	0	0	0	0	0	0	0	0	0	0	0	0	0	0	0	0	0	0	0	0	0	0	0	0	1127	1127	1127	1127	1127	1127	1127	1123	1123	1123	0	1506	1506	1512	1519	1525	1525	1525	1525	1532	1532	0	0	0	0	0	2893	2893	2869	2869	2845	2845	2845	2845	2822	2822	2822	2799	2799	2799	2777	2777	2754	2754	2754	2754	2733	2733	2733	2711	2690	2690	2690	2690	2669	2669	2649	2649	2649	2649	2629	2629	2609	2609	2589	2589	2589	2589	2589	2570	2570	2570	2551	2532	2514	2514	2514	2514	2496	2496	2496	2496	2496	2496	2460	2443	2443	2426	2409	2409	2409	2392	2392	2392	2376	2376	2376	2359	2359	2359	2359	2359	2343	2343	2343	2343	2327	2327	2312	2312	2297	2297	2297	2281	2281	2266	2266	2266	2252	2252	2252	2237	2237	2237	2237	2223	2223	2223	2208	2208	2194	2194	2181	2181	2181	2181	2181	2167	2167	2153	2153	2153	2140	2140	2140	2127	2127	2127	2127	2127	2114	2114	2114	2101	2088	2088	2088	2088	2076	2076	2076	2076	2063	2063	2063	2063	2051	2051	2051	2039	2027	2027	2027	2027	2015	2015	2015	2015	2015	2015	2015	2003	2003	1992	1980	1980	1958	1958	1958	1958	1958	1958	1958	1947	1947	1947	1947	1936	1936	1925	1925	1915	1915	1904	1904	1904	1904	1894	1894	1883	1883	1883	1873	1873	1873	1863	1863	1863	1853	1853	1853	1843	1843	1843	1843	1833	1833	1833	1824	1824	1814	1804	1804	1804	1804	1804	1795	1795	1795	1786	1786	1786	1777	1777	1768	1768	1768	1768	1759	1759	1759	1759	1759	1750	1750	1750	1741	1741	1732	1732	1723	1723	1723	1715	1715	1706	1706	1698	1698	1698	1698	1698	1690	1690	1690	1681	1681	1681	1673	1665	1665	1665	1665	1455	1455	1455	1455	1455	1455	1326	1321	1321	1321	1321	1321	1321	1321	1316	1311	1311	1311	1306	1306	1306	1306	1301	1301	1296	1296	1291	1287	1282	1282	1282	1282	1277	1277	1272	1268	1268	1263	1263	1263	1263	1263	1259	1259	1254	1249	1249	1249	1249	1245	1245	1240	1236	1232	1232	1232	1232	1227	1227	1227	1223	1219	1219	1219	1214	1214	1210	1210	1210	1206	1206	1202	1197	1197	1197	1197	1197	1193	1189	1185	1181	1181	1181	1181	1177	1177	1177	1177	1173	1173	1173	1169	1161	1161	1161	1161	1157	1157	1153	1153	1150	1150	1150	1146	1146	1146	1142	1142	1138	1131	1131	1131	1127	1127	1127	1127	1123	1123	1120	1116	1116	1113	1113	1109	1105	1105	1105	1102	1102	1102	1098	1098	1098	1098	1095	1095	1091	1088	1088	1088	1085	1085	1085	1081	1078	1074	1074	1074	1074	1071	1071	1071	1068	1068	1068	1064	1064	1061	1061	1061	1061	1058	1058	1055	1052	1052	1052	1048	1048	1045	1045	1042	1042	1039	1036	1036	1033	1033	1033	1033	1033	1030	1030	1030	1026	1023	1023	1023	1023	1023	1020	1020	1014	1011	1011	1011	1011	1008	1006	1006	1003	1003	1000	1000	1000	1000	1000	1000	997	997	988	985	983	980	980	980	977	977	980	977	977	974	974	974	972	972	972	972	972	969	969	961	961	961	958	958	955	953	953	953	950	950	950	950	950	950	945	945	942	942	940	940	940	940	937	935	935	932	932	932	930	930	927	927	927	925	922	922	922	920	920	917	917	917	917	915	915	913	913	910	908	908	905	903	903	903	903	901	898	898	898	894	894	894	894	891	891	894	894	894	891	891	891	894	896	910	913	913	913	913	0	0	0	0	0	0	0	0	0	0	0	0	0	0	0	0	0	0
0	0	0	0	0	0	0	0	0	0	0	0	0	0	0	0	0	0	0	0	0	0	0	0	0	0	0	0	0	1127	1127	1127	1127	1127	1127	1127	1123	1123	1123	0	1506	1506	1512	1519	1525	1525	1525	1525	1532	1532	0	0	0	0	0	2869	2869	2869	2869	2845	2845	2845	2822	2822	2822	2822	2799	2799	2799	2777	2777	2754	2754	2754	2754	2733	2733	2733	2711	2690	2690	2690	2690	2669	2669	2649	2649	2649	2649	2629	2629	2609	2609	2589	2589	2589	2589	2589	2570	2570	2551	2551	2551	2514	2514	2514	2496	2496	2496	2478	2478	2478	2478	2460	2443	2443	2426	2409	2409	2409	2392	2392	2392	2376	2376	2376	2359	2359	2359	2359	2359	2343	2343	2343	2343	2327	2327	2312	2297	2297	2297	2281	2281	2266	2266	2266	2252	2252	2252	2237	2237	2237	2223	2223	2223	2223	2223	2208	2208	2194	2194	2194	2181	2181	2181	2181	2167	2167	2153	2153	2153	2153	2140	2140	2127	2127	2127	2127	2127	2114	2114	2101	2101	2088	2088	2088	2088	2088	2076	2076	2076	2063	2063	2063	2063	2063	2051	2051	2039	2027	2027	2027	2027	2027	2015	2015	2015	2015	2015	2015	2003	2003	1992	1992	1980	1969	1969	1969	1958	1958	1958	1958	1947	1947	1947	1947	1936	1936	1925	1925	1915	1915	1915	1904	1904	1904	1894	1894	1883	1883	1883	1873	1873	1863	1863	1863	1863	1853	1853	1853	1843	1843	1843	1843	1833	1833	1833	1824	1824	1814	1804	1804	1804	1804	1804	1795	1795	1795	1786	1786	1786	1777	1777	1777	1768	1768	1768	1759	1759	1759	1759	1759	1750	1750	1741	1732	1732	1732	1723	1723	1723	1715	1715	1715	1706	1706	1698	1698	1698	1698	1690	1690	1690	1681	1681	1681	1673	1673	1665	1665	1665	1665	1665	1461	1455	1455	1455	1449	1326	1321	1321	1321	1321	1321	1321	1321	1316	1311	1311	1311	1306	1306	1306	1301	1301	1301	1296	1296	1291	1287	1287	1282	1282	1282	1277	1277	1277	1268	1268	1263	1263	1263	1263	1263	1263	1259	1259	1254	1254	1249	1249	1245	1245	1240	1236	1232	1232	1232	1232	1227	1227	1227	1223	1219	1219	1219	1214	1210	1210	1210	1210	1206	1206	1202	1197	1197	1197	1197	1193	1193	1189	1185	1181	1181	1181	1181	1177	1177	1177	1177	1173	1173	1173	1169	1161	1161	1161	1161	1157	1157	1153	1153	1150	1150	1146	1146	1146	1146	1142	1142	1138	1131	1131	1131	1131	1127	1127	1127	1123	1123	1120	1116	1116	1113	1113	1113	1105	1105	1105	1102	1102	1102	1098	1098	1098	1095	1095	1095	1091	1088	1088	1088	1088	1085	1085	1081	1078	1074	1074	1071	1071	1071	1071	1071	1068	1068	1068	1064	1064	1061	1061	1061	1061	1058	1058	1052	1052	1052	1052	1048	1048	1045	1045	1042	1042	1039	1036	1036	1033	1033	1033	1033	1033	1030	1030	1030	1026	1023	1023	1023	1023	1023	1020	1020	1014	1011	1011	1011	1011	1008	1008	1008	1006	1003	1003	1000	1000	1000	1000	997	997	994	988	985	983	980	980	980	977	977	980	977	974	974	974	974	972	972	972	972	972	969	969	961	961	958	958	958	955	953	953	953	950	950	950	950	950	950	948	945	945	942	942	940	940	937	937	935	932	932	932	932	930	930	930	927	927	927	922	922	922	920	920	917	917	917	917	915	915	913	913	910	908	908	905	903	903	903	903	898	898	898	898	894	894	894	894	894	894	894	894	894	894	891	891	896	896	905	908	908	910	910	910	0	0	0	0	0	0	0	0	0	0	0	0	0	0	0	0	0
0	0	0	0	0	0	0	0	0	0	0	0	0	0	0	0	0	0	0	0	0	0	0	0	0	0	0	0	0	1127	1127	1127	1127	1127	1127	1127	1127	1127	1127	1506	1506	1506	1512	1519	1525	1525	1525	1525	1532	1539	1539	0	0	0	0	2869	2869	2869	2845	2845	2845	2845	2822	2822	2822	2822	2822	2799	2799	2777	2777	2754	2754	2754	2754	2733	2733	2733	2711	2690	2690	2690	2690	2669	2669	2649	2649	2649	2649	2629	2629	2609	2609	2589	2589	2589	2589	2589	2570	2570	2551	2551	2532	2514	2514	2514	2514	2496	2496	2478	2478	2478	2478	2478	2443	2443	2426	2426	2409	2409	2392	2392	2392	2392	2376	2376	2359	2359	2359	2359	2359	2343	2343	2343	2343	2327	2312	2312	2297	2297	2297	2281	2281	2266	2266	2266	2252	2252	2252	2237	2237	2237	2223	2223	2223	2223	2223	2223	2208	2194	2194	2194	2181	2181	2181	2181	2181	2167	2167	2167	2167	2153	2140	2140	2127	2127	2127	2127	2127	2114	2114	2101	2101	2088	2088	2088	2088	2088	2076	2076	2076	2063	2063	2063	2063	2063	2051	2051	2039	2027	2027	2027	2027	2015	2015	2015	2015	2015	2015	2015	2003	2003	2003	1992	1980	1969	1969	1969	1958	1958	1958	1958	1958	1958	1958	1947	1936	1936	1925	1925	1925	1915	1915	1915	1904	1904	1904	1894	1883	1883	1883	1873	1873	1863	1863	1863	1863	1863	1853	1853	1843	1843	1843	1843	1833	1833	1833	1824	1824	1814	1804	1804	1804	1804	1804	1804	1795	1795	1786	1786	1786	1777	1777	1777	1768	1768	1768	1768	1759	1759	1759	1759	1750	1750	1741	1732	1732	1732	1723	1723	1723	1715	1715	1715	1706	1706	1698	1698	1698	1698	1690	1690	1690	1681	1681	1681	1673	1673	1673	1673	1665	1665	1665	1461	1455	1455	1449	1449	1326	1321	1321	1321	1321	1321	1321	1316	1316	1311	1311	1306	1306	1306	1306	1306	1301	1301	1301	1296	1291	1291	1287	1282	1282	1282	1282	1277	1272	1272	1268	1268	1268	1263	1263	1263	1263	1259	1259	1254	1254	1249	1249	1245	1245	1245	1240	1236	1236	1236	1232	1232	1232	1227	1227	1223	1219	1219	1214	1214	1210	1210	1206	1206	1202	1202	1197	1197	1197	1193	1193	1193	1189	1189	1181	1181	1181	1181	1177	1177	1177	1177	1173	1173	1173	1169	1169	1161	1161	1161	1157	1157	1153	1150	1150	1150	1150	1146	1146	1146	1142	1142	1134	1131	1131	1131	1131	1127	1127	1127	1123	1120	1120	1116	1116	1113	1113	1113	1105	1105	1105	1105	1102	1102	1102	1098	1098	1095	1095	1095	1091	1091	1088	1088	1088	1085	1085	1081	1081	1074	1074	1071	1071	1074	1071	1068	1068	1068	1068	1064	1064	1061	1061	1061	1058	1058	1055	1052	1052	1052	1052	1048	1048	1048	1045	1045	1042	1039	1036	1036	1033	1033	1036	1036	1036	1033	1026	1026	1026	1023	1023	1023	1023	1023	1020	1017	1014	1011	1011	1011	1008	1008	1008	1008	1006	1003	1000	1000	1000	1000	1000	997	997	994	991	985	985	983	983	980	980	980	977	974	974	974	974	974	972	972	972	972	972	969	969	961	961	958	958	958	955	953	953	953	950	950	950	950	948	948	948	948	945	942	942	942	940	937	935	935	932	932	932	932	930	930	930	930	930	927	925	922	922	920	917	917	917	917	915	915	915	913	910	910	908	908	905	903	903	903	903	898	898	898	898	894	894	894	894	894	894	894	894	894	894	891	891	896	901	905	908	908	910	910	910	910	0	0	0	0	0	0	0	0	0	0	0	0	0	0	0	0
0	0	0	0	0	0	0	0	0	0	0	0	0	0	0	0	0	0	0	0	0	0	0	0	0	0	0	0	0	1127	1127	1127	1127	1127	1131	1131	1127	1127	1127	1506	1506	1506	1512	1519	1525	1525	1525	1525	1532	1532	1539	1539	0	0	0	2845	2845	2869	2845	2845	2845	2822	2822	2822	2822	2822	2822	2799	2799	2777	2777	2754	2754	2754	2754	2733	2733	2733	2711	2690	2690	2690	2690	2669	2669	2649	2649	2649	2649	2629	2629	2609	2609	2609	2589	2589	2589	2589	2570	2570	2551	2551	2532	2514	2514	2514	2514	2496	2496	2478	2478	2478	2478	2426	2426	2426	2426	2426	2409	2409	2409	2409	2392	2392	2392	2376	2359	2359	2359	2359	2359	2343	2343	2343	2343	2327	2312	2312	2297	2297	2297	2297	2281	2281	2281	2266	2252	2252	2237	2237	2237	2237	2223	2223	2223	2223	2223	2223	2208	2208	2194	2194	2194	2181	2181	2181	2181	2167	2167	2167	2167	2153	2153	2140	2140	2127	2127	2127	2127	2114	2114	2101	2101	2101	2088	2088	2088	2088	2076	2076	2076	2063	2063	2063	2063	2063	2051	2051	2039	2027	2027	2027	2027	2015	2015	2015	2015	2015	2015	2015	2003	2003	2003	1992	1980	1969	1969	1969	1958	1958	1958	1958	1958	1958	1947	1947	1936	1936	1936	1925	1925	1915	1915	1915	1904	1904	1904	1894	1883	1883	1883	1873	1873	1873	1873	1863	1863	1863	1853	1853	1843	1843	1843	1843	1833	1833	1833	1824	1824	1814	1814	1804	1804	1804	1804	1804	1795	1795	1795	1786	1786	1786	1777	1777	1768	1768	1768	1768	1759	1759	1759	1759	1750	1750	1732	1732	1732	1732	1723	1723	1723	1715	1715	1715	1706	1706	1698	1698	1698	1698	1690	1690	1690	1681	1681	1673	1673	1665	1665	1665	1665	1665	1665	1665	1455	1455	1449	1449	1326	1321	1321	1321	1321	1321	1321	1316	1316	1311	1311	1306	1306	1306	1301	1301	1301	1301	1301	1296	1291	1291	1287	1282	1282	1282	1282	1277	1277	1272	1268	1268	1268	1268	1268	1263	1263	1259	1259	1254	1254	1249	1249	1245	1245	1245	1240	1240	1236	1236	1232	1232	1232	1227	1227	1223	1219	1219	1214	1214	1210	1210	1206	1206	1202	1202	1197	1197	1197	1197	1193	1193	1189	1185	1185	1181	1181	1181	1181	1181	1177	1177	1173	1173	1173	1169	1169	1161	1161	1161	1157	1153	1153	1150	1150	1150	1146	1146	1146	1142	1142	1142	1134	1131	1131	1131	1131	1127	1127	1127	1123	1120	1120	1116	1116	1113	1113	1113	1105	1105	1105	1105	1102	1102	1102	1095	1095	1095	1091	1091	1091	1091	1088	1088	1088	1085	1085	1081	1078	1074	1074	1071	1071	1074	1071	1068	1068	1068	1068	1064	1064	1061	1061	1061	1058	1058	1055	1052	1052	1052	1052	1048	1048	1048	1045	1045	1042	1039	1036	1036	1033	1033	1036	1036	1036	1033	1026	1026	1026	1023	1023	1023	1023	1023	1020	1017	1014	1011	1011	1011	1008	1008	1008	1008	1006	1003	1000	1000	1000	1000	1000	997	997	994	991	988	985	985	983	980	980	980	977	974	974	974	974	974	974	972	972	972	972	969	969	963	963	961	961	958	958	953	953	953	950	950	950	950	948	948	948	948	945	942	942	942	940	937	935	935	932	932	932	932	930	930	930	930	930	927	925	922	920	920	917	917	917	917	915	915	915	913	910	910	908	908	903	903	903	903	901	898	898	898	898	896	894	894	894	891	891	891	891	891	891	891	891	894	896	910	910	910	910	910	910	910	0	0	0	0	0	0	0	0	0	0	0	0	0	0	0	0
0	0	0	0	0	0	0	0	0	0	0	0	0	0	0	0	0	0	0	0	0	0	0	0	0	0	0	0	0	1127	1127	1127	1127	1127	1131	1131	1131	1131	1506	1506	1506	1512	1512	1519	1525	1525	1525	1525	1532	1532	1532	1532	0	0	2893	2845	2845	2869	2845	2845	2822	2822	2822	2822	2822	2822	2822	2822	2799	2799	2777	2777	2777	2777	2754	2733	2733	2733	2711	2690	2690	2690	2669	2669	2669	2649	2649	2649	2649	2629	2629	2609	2609	2609	2589	2589	2589	2589	2570	2570	2551	2551	2532	2514	2514	2514	2514	2496	2478	2478	2478	2478	2460	2426	2426	2426	2426	2426	2409	2409	2409	2409	2392	2392	2376	2376	2359	2359	2359	2359	2343	2343	2343	2343	2327	2327	2327	2312	2297	2297	2297	2297	2281	2266	2266	2266	2252	2237	2237	2237	2237	2237	2223	2223	2223	2223	2223	2223	2208	2208	2194	2194	2194	2181	2181	2181	2181	2167	2167	2167	2167	2153	2153	2140	2140	2127	2127	2127	2114	2114	2114	2101	2101	2101	2088	2088	2088	2088	2076	2076	2076	2076	2063	2063	2063	2063	2051	2051	2039	2039	2027	2027	2027	2027	2015	2015	2015	2015	2015	2015	2003	2003	1992	1992	1980	1969	1969	1969	1958	1958	1958	1958	1958	1958	1947	1936	1936	1936	1936	1925	1925	1915	1915	1915	1904	1904	1904	1883	1883	1883	1883	1873	1873	1873	1873	1873	1863	1863	1853	1853	1843	1843	1843	1843	1833	1833	1833	1824	1824	1814	1814	1814	1814	1804	1804	1804	1804	1795	1795	1786	1786	1786	1777	1777	1768	1768	1768	1759	1759	1759	1759	1759	1750	1741	1732	1732	1732	1732	1723	1723	1723	1715	1715	1715	1715	1706	1698	1698	1698	1698	1690	1690	1690	1681	1681	1673	1673	1665	1665	1665	1665	1665	1665	1665	1461	1461	1455	1331	1331	1326	1321	1321	1321	1321	1321	1321	1316	1311	1311	1306	1306	1306	1301	1301	1301	1301	1301	1296	1291	1291	1287	1282	1282	1282	1282	1277	1277	1272	1268	1268	1268	1268	1268	1263	1263	1259	1259	1254	1254	1249	1249	1245	1245	1245	1240	1236	1236	1236	1232	1232	1232	1227	1223	1223	1219	1214	1210	1210	1210	1210	1210	1206	1202	1202	1197	1197	1197	1193	1193	1193	1189	1189	1185	1185	1181	1181	1181	1181	1177	1177	1177	1173	1173	1169	1165	1165	1165	1161	1161	1157	1153	1150	1150	1150	1146	1146	1146	1142	1142	1138	1134	1131	1131	1131	1131	1131	1131	1127	1123	1123	1123	1116	1116	1113	1113	1113	1109	1105	1105	1105	1102	1102	1102	1095	1095	1095	1091	1091	1091	1091	1091	1088	1088	1085	1085	1081	1078	1074	1074	1071	1071	1074	1071	1071	1068	1068	1068	1064	1064	1064	1061	1061	1058	1058	1055	1052	1052	1052	1052	1048	1048	1048	1045	1045	1042	1039	1036	1036	1036	1036	1036	1036	1036	1033	1033	1026	1026	1023	1023	1023	1023	1023	1020	1017	1017	1014	1011	1011	1008	1008	1008	1008	1008	1003	1003	1000	1000	1000	1000	997	997	994	991	988	988	985	983	983	980	980	977	977	977	974	974	974	974	972	972	972	972	969	969	961	961	961	961	958	958	955	955	953	953	950	950	950	948	948	948	948	945	942	942	942	940	940	937	937	935	932	932	932	932	930	930	930	930	927	925	922	920	920	917	917	917	917	915	915	915	913	913	910	910	905	903	903	903	903	901	901	901	898	898	896	894	894	894	891	891	891	891	891	891	891	891	894	894	905	908	910	910	908	908	908	0	0	0	0	0	0	0	0	0	0	0	0	0	0	0	0
0	0	0	0	0	0	0	0	0	0	0	0	0	0	0	0	0	0	0	0	0	0	0	0	0	0	0	0	0	1127	1127	1127	1127	1127	1127	1131	1131	1131	1506	1506	1506	1512	1519	1519	1525	1525	1525	1525	1532	1532	1532	1532	0	0	2893	2845	2845	2869	2845	2845	2822	2822	2822	2822	2822	2822	2822	2822	2822	2799	2799	2777	2777	2777	2754	2733	2733	2733	2711	2690	2690	2690	2669	2669	2669	2649	2649	2649	2649	2629	2629	2609	2609	2609	2589	2589	2589	2589	2570	2570	2570	2551	2551	2514	2514	2514	2496	2496	2478	2460	2460	2460	2460	2426	2426	2426	2426	2426	2409	2409	2409	2409	2392	2392	2376	2376	2359	2359	2359	2343	2343	2343	2327	2327	2327	2327	2312	2312	2297	2297	2297	2281	2281	2266	2266	2252	2237	2237	2237	2237	2237	2237	2223	2223	2223	2223	2223	2223	2208	2208	2194	2194	2181	2181	2181	2181	2181	2167	2167	2167	2167	2167	2153	2153	2140	2127	2127	2127	2114	2114	2114	2101	2101	2101	2101	2101	2088	2088	2076	2076	2076	2076	2063	2063	2063	2051	2051	2051	2039	2039	2027	2027	2027	2027	2015	2015	2015	2015	2015	2015	2003	2003	1992	1992	1980	1969	1969	1969	1958	1958	1958	1958	1958	1947	1947	1936	1936	1936	1925	1925	1925	1915	1915	1915	1904	1904	1904	1883	1883	1883	1883	1873	1873	1873	1873	1873	1873	1863	1863	1853	1843	1843	1843	1843	1833	1833	1833	1833	1824	1814	1814	1814	1814	1804	1804	1804	1795	1795	1795	1786	1786	1786	1777	1777	1768	1768	1768	1759	1759	1759	1759	1759	1750	1741	1732	1732	1732	1732	1723	1723	1723	1715	1715	1715	1706	1706	1698	1698	1698	1698	1698	1690	1681	1681	1681	1673	1665	1665	1665	1665	1665	1665	1665	1665	1665	1461	1461	1461	1331	1326	1326	1326	1321	1321	1321	1321	1316	1316	1311	1311	1306	1306	1306	1301	1301	1301	1301	1301	1296	1291	1287	1287	1282	1282	1282	1277	1277	1272	1268	1268	1268	1268	1268	1263	1263	1259	1259	1254	1254	1249	1249	1245	1245	1245	1240	1236	1236	1236	1232	1232	1232	1227	1223	1223	1219	1214	1210	1210	1210	1210	1206	1206	1202	1202	1197	1197	1197	1193	1193	1193	1189	1189	1185	1185	1185	1181	1181	1181	1181	1177	1177	1173	1173	1169	1165	1165	1165	1161	1161	1157	1153	1150	1150	1150	1146	1146	1146	1142	1142	1138	1134	1131	1131	1131	1131	1131	1131	1127	1123	1123	1123	1116	1116	1116	1113	1113	1109	1105	1105	1105	1102	1102	1098	1098	1095	1095	1091	1091	1091	1091	1088	1088	1088	1085	1085	1081	1078	1074	1074	1071	1071	1074	1071	1071	1068	1068	1068	1064	1064	1064	1061	1061	1058	1058	1055	1052	1052	1052	1052	1048	1048	1048	1045	1045	1042	1042	1039	1039	1036	1036	1036	1036	1033	1033	1030	1030	1026	1026	1023	1023	1023	1020	1020	1017	1014	1011	1011	1011	1008	1008	1008	1008	1008	1006	1003	1000	1000	1000	1000	997	997	994	991	988	988	985	983	983	980	980	977	974	974	974	974	974	974	972	972	972	966	966	963	961	961	961	961	958	958	955	955	953	953	950	950	950	948	948	948	948	945	942	942	940	940	940	937	937	935	932	932	932	932	930	930	930	930	930	925	922	922	920	917	917	917	917	915	915	915	913	913	910	908	905	903	903	903	903	901	901	901	901	898	898	896	894	894	894	891	891	891	891	891	891	891	894	894	905	908	908	908	908	908	908	0	0	0	0	0	0	0	0	0	0	0	0	0	0	0	0
0	0	0	0	0	0	0	0	0	0	0	0	0	0	0	0	0	0	0	0	0	0	0	0	0	0	0	0	0	1127	1127	1127	1127	1127	1127	1131	1131	1131	1506	1506	1506	1512	1519	1519	1525	1525	1525	1525	1525	1525	1532	1546	1546	2917	2869	2845	2845	2869	2869	2845	2845	2822	2822	2822	2822	2822	2822	2822	2822	2799	2799	2777	2777	2754	2754	2733	2733	2733	2711	2690	2690	2669	2669	2669	2669	2649	2649	2649	2649	2629	2629	2609	2609	2609	2589	2589	2589	2589	2570	2570	2570	2551	2551	2532	2514	2514	2496	2496	2478	2460	2460	2460	2460	2426	2426	2426	2426	2426	2409	2409	2409	2409	2392	2392	2376	2376	2359	2359	2343	2343	2343	2327	2327	2327	2327	2312	2312	2312	2297	2297	2297	2281	2281	2266	2266	2252	2237	2237	2237	2237	2237	2223	2223	2223	2223	2223	2223	2223	2223	2208	2194	2194	2181	2181	2181	2181	2181	2167	2167	2167	2167	2167	2153	2153	2140	2127	2127	2127	2127	2114	2114	2114	2114	2101	2101	2101	2088	2088	2076	2076	2076	2076	2063	2063	2063	2051	2051	2051	2039	2039	2027	2027	2027	2027	2015	2015	2015	2015	2015	2015	2003	2003	1992	1992	1980	1969	1969	1969	1958	1958	1958	1958	1958	1947	1947	1936	1936	1925	1925	1925	1925	1915	1915	1915	1904	1904	1904	1894	1883	1883	1883	1873	1873	1873	1873	1873	1873	1863	1863	1853	1843	1843	1843	1843	1833	1833	1833	1833	1824	1814	1814	1814	1804	1804	1804	1804	1795	1795	1795	1786	1786	1786	1777	1777	1768	1768	1768	1759	1759	1759	1759	1759	1750	1750	1741	1732	1732	1732	1723	1723	1723	1723	1715	1715	1706	1706	1698	1698	1698	1698	1690	1690	1681	1673	1673	1673	1665	1665	1665	1665	1665	1665	1665	1665	1461	1461	1461	1461	1331	1326	1326	1326	1321	1321	1321	1321	1316	1316	1316	1311	1306	1306	1306	1301	1301	1301	1301	1301	1296	1296	1287	1287	1282	1282	1282	1277	1277	1272	1268	1268	1268	1268	1263	1263	1263	1259	1254	1254	1254	1249	1249	1245	1245	1245	1240	1236	1236	1236	1232	1232	1232	1227	1223	1223	1219	1214	1210	1210	1210	1210	1206	1206	1202	1202	1197	1197	1197	1193	1193	1193	1189	1189	1185	1185	1185	1181	1181	1181	1181	1177	1177	1173	1173	1169	1165	1165	1165	1161	1161	1157	1153	1150	1150	1150	1146	1146	1146	1142	1142	1138	1134	1131	1131	1131	1127	1127	1127	1123	1123	1120	1120	1116	1116	1116	1113	1113	1109	1105	1105	1105	1102	1102	1098	1098	1095	1095	1091	1091	1091	1091	1088	1088	1085	1085	1085	1085	1081	1074	1074	1074	1074	1074	1071	1071	1071	1071	1068	1068	1064	1064	1061	1061	1058	1058	1055	1052	1052	1052	1052	1048	1048	1048	1045	1045	1045	1042	1042	1039	1039	1036	1036	1036	1033	1033	1030	1030	1030	1026	1023	1023	1023	1020	1017	1014	1014	1011	1011	1011	1008	1008	1008	1008	1008	1006	1003	1000	1000	1000	1000	997	997	991	988	985	985	985	985	983	980	980	977	974	974	974	974	974	974	972	972	972	966	966	963	963	961	961	961	958	958	958	955	953	953	950	950	950	948	948	948	948	945	942	942	940	940	940	937	937	935	932	932	932	932	930	930	930	930	927	925	925	922	920	917	917	917	915	915	915	915	913	913	910	908	905	903	903	903	901	901	901	901	901	898	898	896	896	894	894	891	891	891	891	891	891	891	894	898	905	908	908	908	908	908	908	0	0	0	0	0	0	0	0	0	0	0	0	0	0	0	0
0	0	0	0	0	0	0	0	0	0	0	0	0	0	0	0	0	0	0	0	0	0	0	0	0	0	0	0	0	1127	1127	1127	1127	1131	1131	1131	1131	1134	1506	1506	1506	1512	1519	1519	1525	1525	1525	1525	1525	1525	1532	1532	1532	2917	2869	2845	2845	2869	2869	2845	2845	2845	2845	2822	2822	2822	2822	2822	2799	2799	2777	2777	2754	2754	2754	2733	2733	2711	2711	2690	2690	2669	2669	2669	2669	2649	2649	2649	2649	2629	2629	2629	2609	2609	2589	2589	2589	2589	2570	2570	2570	2551	2551	2532	2514	2514	2496	2496	2478	2478	2478	2460	2460	2426	2426	2426	2426	2426	2409	2409	2409	2409	2392	2392	2392	2376	2359	2359	2343	2343	2343	2327	2327	2327	2327	2312	2312	2312	2297	2297	2297	2281	2281	2266	2266	2252	2237	2237	2237	2237	2237	2223	2223	2223	2223	2223	2223	2223	2223	2208	2194	2194	2181	2181	2181	2181	2181	2181	2167	2167	2167	2153	2153	2140	2140	2127	2127	2127	2127	2127	2114	2114	2114	2114	2101	2088	2088	2088	2076	2076	2076	2076	2063	2063	2063	2051	2051	2051	2039	2039	2039	2027	2027	2027	2015	2015	2015	2015	2015	2015	2003	2003	2003	1992	1980	1969	1969	1969	1958	1958	1958	1958	1958	1947	1936	1936	1936	1925	1925	1925	1925	1915	1915	1915	1904	1904	1904	1894	1883	1883	1883	1883	1883	1873	1873	1873	1873	1863	1863	1853	1843	1843	1843	1843	1833	1833	1833	1833	1824	1824	1814	1814	1804	1804	1804	1795	1795	1795	1795	1795	1795	1786	1777	1777	1768	1768	1768	1759	1759	1759	1759	1750	1750	1750	1741	1732	1732	1732	1723	1723	1723	1723	1715	1715	1715	1706	1698	1698	1698	1698	1690	1690	1681	1673	1673	1673	1665	1665	1665	1665	1665	1665	1665	1665	1461	1461	1461	1461	1331	1326	1326	1326	1321	1321	1321	1321	1316	1316	1316	1311	1306	1306	1306	1301	1301	1301	1301	1301	1296	1296	1287	1287	1282	1282	1282	1277	1277	1272	1268	1268	1268	1268	1263	1263	1263	1259	1254	1254	1254	1249	1249	1245	1245	1245	1245	1236	1236	1236	1232	1232	1232	1227	1223	1223	1219	1219	1214	1214	1210	1210	1206	1206	1202	1202	1197	1197	1197	1193	1193	1193	1189	1189	1185	1185	1185	1181	1181	1181	1181	1177	1177	1173	1173	1169	1165	1165	1165	1161	1161	1157	1153	1150	1150	1150	1150	1146	1146	1146	1142	1142	1134	1134	1131	1131	1127	1127	1127	1123	1123	1120	1120	1116	1116	1113	1113	1113	1109	1105	1105	1102	1102	1102	1098	1098	1095	1095	1091	1091	1091	1091	1088	1088	1085	1085	1085	1081	1081	1074	1074	1074	1074	1074	1071	1071	1071	1071	1068	1068	1064	1064	1064	1061	1058	1058	1058	1055	1055	1055	1055	1048	1048	1048	1045	1045	1045	1042	1042	1039	1039	1036	1036	1036	1033	1033	1033	1030	1030	1026	1023	1023	1023	1020	1017	1014	1014	1011	1011	1011	1008	1008	1008	1008	1008	1006	1003	1003	1000	1000	1000	997	997	991	988	985	985	985	985	983	980	980	977	974	974	974	974	974	974	972	972	972	966	966	963	963	961	961	961	958	958	958	955	953	953	950	950	950	948	948	948	948	945	945	942	942	940	940	937	937	937	935	932	932	932	930	930	930	927	927	925	925	922	917	917	917	917	915	915	913	913	913	910	910	908	905	903	903	903	901	901	901	901	901	901	901	898	898	894	894	891	891	891	891	891	891	891	896	901	908	910	910	910	913	913	913	0	0	0	0	0	0	0	0	0	0	0	0	0	0	0	0
0	0	0	0	0	0	0	0	0	0	0	0	0	0	0	0	0	0	0	0	0	0	0	0	0	0	0	0	0	1127	1127	1127	1127	1131	1131	1134	1134	1134	1512	1512	1506	1512	1512	1519	1519	1525	1525	1525	1532	1532	1532	1532	1532	2917	2869	2845	2845	2869	2869	2845	2845	2845	2845	2845	2822	2822	2822	2799	2799	2799	2777	2777	2754	2754	2754	2733	2733	2711	2711	2711	2690	2690	2669	2669	2669	2669	2649	2649	2649	2649	2629	2629	2609	2609	2589	2589	2589	2589	2570	2570	2570	2570	2551	2532	2514	2514	2514	2496	2496	2496	2496	2478	2478	2443	2426	2426	2426	2426	2426	2409	2409	2409	2409	2392	2392	2376	2359	2359	2343	2343	2343	2343	2343	2327	2327	2312	2312	2312	2297	2297	2281	2281	2281	2281	2266	2266	2252	2237	2237	2237	2237	2237	2237	2237	2237	2223	2223	2223	2223	2208	2194	2194	2181	2181	2181	2181	2181	2167	2167	2167	2153	2153	2153	2140	2140	2127	2127	2127	2127	2127	2114	2114	2114	2114	2101	2101	2088	2088	2076	2076	2076	2063	2063	2063	2063	2063	2051	2051	2039	2039	2039	2027	2027	2015	2015	2015	2015	2015	2015	2015	2003	2003	2003	1992	1980	1969	1969	1969	1958	1958	1958	1958	1958	1947	1936	1936	1936	1925	1925	1925	1925	1915	1915	1915	1904	1904	1904	1894	1883	1883	1883	1883	1883	1873	1873	1873	1873	1863	1863	1853	1843	1843	1843	1843	1833	1833	1833	1833	1824	1824	1814	1814	1804	1804	1804	1795	1795	1795	1795	1795	1795	1786	1786	1777	1768	1768	1768	1759	1759	1759	1759	1750	1750	1750	1741	1732	1732	1732	1723	1723	1723	1723	1715	1715	1715	1706	1706	1698	1698	1698	1690	1690	1681	1673	1673	1673	1665	1665	1665	1665	1665	1665	1665	1665	1461	1461	1461	1461	1331	1326	1326	1326	1321	1321	1321	1321	1316	1316	1316	1311	1311	1306	1306	1301	1301	1301	1301	1301	1296	1291	1287	1287	1282	1282	1282	1277	1272	1272	1268	1268	1268	1268	1263	1263	1263	1259	1254	1254	1249	1249	1249	1245	1245	1245	1240	1240	1236	1236	1232	1232	1232	1227	1227	1227	1223	1214	1214	1214	1210	1210	1210	1210	1206	1202	1197	1197	1197	1193	1193	1193	1189	1189	1185	1185	1181	1181	1181	1181	1181	1177	1177	1173	1169	1169	1165	1165	1165	1161	1161	1157	1157	1150	1150	1150	1150	1150	1146	1146	1142	1142	1134	1134	1131	1131	1131	1131	1127	1123	1123	1120	1120	1116	1116	1113	1113	1113	1109	1109	1109	1102	1102	1102	1098	1098	1095	1095	1091	1091	1091	1091	1088	1088	1085	1085	1085	1081	1078	1078	1074	1074	1074	1074	1071	1071	1071	1071	1068	1068	1064	1064	1061	1061	1058	1058	1058	1055	1055	1055	1055	1048	1048	1048	1045	1045	1045	1042	1042	1039	1039	1036	1036	1036	1033	1033	1033	1030	1030	1026	1023	1023	1023	1020	1017	1014	1014	1011	1011	1011	1011	1011	1008	1008	1008	1006	1003	1003	1000	1000	1000	997	997	991	991	985	985	985	985	985	985	983	983	974	974	974	977	974	974	974	972	972	969	969	963	961	963	963	961	961	961	958	958	955	953	953	950	950	948	948	948	945	945	945	942	942	940	940	937	937	937	935	932	932	932	930	930	927	927	925	925	922	920	917	917	917	917	915	915	913	913	913	910	910	908	905	905	905	903	903	903	901	901	901	901	901	898	898	894	894	891	891	891	891	891	891	894	896	903	905	910	910	913	913	913	913	0	0	0	0	0	0	0	0	0	0	0	0	0	0	0	0
0	0	0	0	0	0	0	0	0	0	0	0	0	0	0	0	0	0	0	0	0	0	0	0	0	0	0	0	0	1127	1127	1127	1127	1131	1131	1131	1134	0	1512	1512	1512	1512	1519	1519	1525	1525	1525	1532	1532	1532	1532	1532	1532	0	2869	2845	2845	2869	2869	2845	2845	2845	2845	2845	2822	2822	2822	2799	2799	2799	2777	2777	2754	2754	2754	2733	2733	2711	2711	2711	2690	2669	2669	2669	2669	2649	2649	2649	2649	2629	2629	2609	2609	2609	2589	2589	2589	2589	2570	2570	2570	2570	2551	2532	2514	2514	2514	2514	2496	2496	2496	2478	2460	2443	2426	2426	2426	2426	2426	2409	2409	2409	2392	2392	2376	2376	2359	2359	2343	2343	2343	2343	2343	2327	2327	2312	2312	2312	2297	2297	2281	2281	2281	2281	2281	2266	2252	2237	2237	2237	2237	2237	2237	2223	2223	2223	2223	2223	2208	2208	2194	2194	2194	2181	2181	2181	2181	2167	2167	2167	2153	2153	2153	2140	2127	2127	2127	2127	2127	2127	2114	2114	2114	2114	2101	2088	2088	2076	2076	2076	2076	2063	2063	2063	2063	2063	2051	2051	2039	2039	2039	2027	2027	2015	2015	2015	2015	2015	2015	2015	2015	2003	2003	2003	1980	1969	1969	1969	1958	1958	1958	1958	1958	1947	1947	1936	1936	1936	1925	1925	1925	1915	1915	1915	1904	1904	1904	1894	1894	1894	1883	1883	1883	1883	1873	1873	1873	1863	1863	1853	1843	1843	1843	1843	1833	1833	1833	1833	1824	1824	1814	1814	1804	1804	1804	1804	1804	1795	1795	1795	1795	1786	1786	1777	1768	1768	1759	1759	1759	1759	1759	1759	1750	1741	1741	1732	1732	1732	1723	1723	1723	1723	1715	1715	1715	1706	1706	1698	1698	1698	1698	1690	1681	1681	1681	1673	1673	1665	1665	1665	1665	1665	1665	1461	1461	1461	1461	1461	1331	1326	1326	1326	1326	1321	1321	1321	1316	1316	1316	1311	1311	1306	1306	1301	1301	1301	1301	1301	1296	1291	1287	1287	1282	1282	1282	1277	1272	1272	1268	1268	1268	1268	1263	1263	1263	1259	1254	1254	1249	1249	1249	1245	1245	1245	1240	1236	1236	1236	1232	1232	1232	1227	1227	1227	1223	1214	1214	1214	1210	1210	1210	1210	1206	1202	1197	1197	1197	1193	1193	1193	1189	1189	1185	1181	1181	1181	1181	1181	1181	1177	1177	1169	1169	1165	1165	1165	1161	1161	1161	1157	1157	1150	1150	1150	1150	1146	1146	1146	1142	1142	1134	1134	1131	1131	1131	1131	1127	1127	1123	1120	1120	1116	1116	1113	1113	1113	1109	1109	1109	1105	1102	1102	1098	1098	1098	1098	1095	1095	1091	1091	1091	1088	1085	1085	1085	1081	1078	1078	1074	1074	1074	1074	1071	1071	1071	1071	1068	1068	1064	1064	1061	1061	1058	1058	1058	1058	1058	1055	1055	1055	1048	1048	1045	1045	1045	1042	1042	1039	1039	1036	1036	1036	1033	1033	1033	1030	1026	1026	1023	1023	1023	1020	1020	1017	1014	1011	1011	1011	1011	1011	1008	1008	1008	1008	1003	1003	1000	1000	1000	997	997	991	991	985	985	985	985	985	983	983	980	974	974	974	977	974	974	974	972	972	966	963	963	961	961	961	961	961	961	958	958	955	955	953	950	950	950	950	948	945	945	945	942	942	940	940	937	937	937	935	932	932	930	930	930	927	927	925	925	922	920	917	917	917	917	915	915	915	915	913	910	910	908	905	905	905	903	903	903	901	901	901	901	901	901	898	894	894	891	891	891	891	891	894	894	896	905	910	910	913	913	913	913	913	0	0	0	0	0	0	0	0	0	0	0	0	0	0	0	0
0	0	0	0	0	0	0	0	0	0	0	0	0	0	0	0	0	0	0	0	0	0	0	0	0	0	0	0	0	1127	1127	1127	1131	1131	1131	1131	0	0	1512	1512	1512	1512	1512	1512	1519	1525	1532	1532	1532	1532	1532	1532	1532	0	2869	2845	2869	2869	2869	2845	2845	2845	2845	2845	2822	2822	2822	2799	2799	2799	2777	2777	2754	2754	2754	2733	2733	2711	2711	2711	2690	2669	2669	2669	2669	2649	2649	2649	2629	2629	2609	2609	2609	2589	2589	2589	2589	2589	2570	2570	2570	2570	2551	2532	2514	2514	2514	2514	2496	2496	2496	2478	2460	2443	2426	2426	2426	2426	2409	2409	2409	2409	2392	2392	2359	2359	2359	2359	2359	2343	2343	2343	2343	2327	2327	2312	2312	2312	2297	2297	2297	2281	2281	2281	2281	2266	2252	2252	2237	2237	2237	2237	2237	2223	2223	2223	2223	2223	2208	2208	2194	2194	2181	2181	2181	2181	2167	2167	2167	2167	2153	2153	2153	2140	2127	2127	2127	2127	2127	2127	2114	2114	2114	2114	2101	2088	2088	2076	2076	2076	2076	2076	2076	2063	2063	2063	2051	2051	2039	2039	2039	2027	2027	2027	2015	2015	2015	2015	2015	2015	2015	2003	2003	1992	1992	1969	1969	1969	1969	1969	1958	1958	1958	1958	1947	1947	1936	1936	1925	1925	1915	1915	1915	1915	1904	1904	1904	1894	1894	1894	1883	1883	1883	1873	1873	1873	1873	1863	1853	1853	1843	1843	1843	1843	1833	1833	1833	1833	1824	1824	1814	1804	1804	1804	1804	1804	1795	1795	1795	1795	1786	1786	1777	1777	1768	1768	1759	1759	1759	1759	1759	1759	1750	1741	1741	1732	1732	1732	1723	1723	1723	1723	1723	1715	1715	1706	1706	1706	1698	1698	1698	1690	1681	1681	1681	1673	1673	1673	1665	1665	1665	1665	1665	1461	1461	1461	1461	1461	1331	1326	1326	1326	1326	1321	1321	1321	1316	1316	1311	1311	1311	1306	1306	1301	1301	1301	1301	1301	1296	1291	1287	1287	1287	1282	1282	1277	1272	1272	1268	1268	1268	1268	1263	1263	1263	1259	1254	1254	1254	1249	1249	1249	1245	1245	1240	1236	1236	1236	1232	1232	1232	1227	1227	1227	1223	1214	1214	1214	1210	1210	1210	1210	1206	1202	1202	1197	1197	1193	1193	1193	1189	1189	1185	1181	1181	1181	1181	1181	1177	1177	1177	1169	1169	1165	1165	1165	1161	1161	1161	1161	1157	1153	1150	1150	1146	1146	1146	1146	1142	1142	1134	1131	1131	1131	1127	1127	1127	1123	1123	1120	1120	1116	1116	1113	1113	1113	1109	1109	1109	1105	1102	1102	1098	1098	1098	1098	1095	1095	1091	1091	1091	1088	1085	1085	1085	1085	1078	1078	1074	1074	1074	1074	1071	1071	1071	1071	1071	1068	1064	1064	1061	1061	1058	1058	1058	1055	1055	1055	1055	1052	1048	1048	1048	1045	1045	1042	1042	1039	1039	1036	1036	1036	1033	1033	1033	1030	1026	1026	1023	1023	1023	1020	1017	1017	1014	1014	1011	1011	1011	1011	1011	1008	1008	1008	1006	1003	1000	1000	1000	997	997	991	991	985	985	985	985	985	983	983	980	974	974	974	977	974	974	974	972	972	966	963	963	961	961	961	963	961	961	958	958	955	955	953	950	950	950	950	948	945	945	945	942	942	940	940	937	935	935	935	932	932	930	930	930	927	925	925	925	922	920	917	917	917	917	915	915	915	915	913	910	908	908	905	905	905	905	903	903	901	901	901	901	898	898	894	894	894	894	891	891	891	891	894	894	896	908	910	910	910	913	913	913	0	0	0	0	0	0	0	0	0	0	0	0	0	0	0	0	0
0	0	0	0	0	0	0	0	0	0	0	0	0	0	0	0	0	0	0	0	0	0	0	0	0	0	0	0	0	1127	1127	1127	1131	1131	1131	1131	0	0	1506	1506	1506	1506	1506	1506	1512	1519	1525	1532	1532	1532	1532	1539	1539	0	0	0	2869	2869	2845	2845	2845	2845	2845	2845	2845	2822	2799	2799	2799	2799	2777	2777	2754	2754	2754	2733	2733	2711	2711	2711	2690	2690	2669	2669	2669	2669	2649	2649	2629	2629	2609	2609	2609	2589	2589	2589	2589	2589	2570	2570	2570	2570	2551	2532	2514	2514	2514	2514	2496	2496	2496	2478	2478	2443	2443	2426	2426	2426	2409	2409	2409	2409	2392	2392	2359	2359	2359	2359	2359	2343	2343	2343	2343	2327	2327	2312	2312	2312	2297	2297	2297	2281	2281	2281	2281	2266	2252	2252	2237	2237	2237	2237	2237	2223	2223	2223	2223	2223	2208	2208	2194	2194	2181	2181	2181	2181	2167	2167	2167	2167	2153	2153	2153	2140	2140	2127	2127	2127	2127	2127	2114	2114	2101	2101	2088	2088	2088	2076	2076	2076	2076	2076	2076	2063	2063	2063	2051	2051	2039	2027	2027	2027	2027	2027	2015	2015	2015	2015	2015	2015	2015	2003	2003	1992	1992	1980	1969	1969	1969	1969	1958	1958	1958	1958	1947	1947	1936	1936	1925	1925	1915	1915	1915	1915	1904	1904	1904	1894	1894	1894	1883	1883	1883	1873	1873	1873	1863	1863	1863	1853	1843	1843	1843	1843	1833	1833	1833	1824	1824	1814	1814	1804	1804	1804	1804	1795	1795	1795	1795	1795	1786	1786	1777	1777	1768	1768	1759	1759	1759	1759	1759	1750	1750	1750	1741	1732	1732	1732	1732	1723	1723	1723	1723	1723	1715	1706	1706	1706	1698	1698	1698	1690	1681	1681	1681	1673	1673	1673	1665	1665	1665	1665	1665	1461	1461	1461	1455	1455	1455	1326	1326	1326	1326	1321	1321	1316	1316	1316	1311	1311	1311	1306	1306	1301	1301	1301	1301	1301	1296	1291	1287	1287	1287	1282	1282	1277	1272	1272	1272	1268	1268	1268	1268	1263	1263	1259	1254	1254	1254	1249	1249	1249	1245	1245	1240	1236	1236	1236	1232	1232	1232	1227	1227	1227	1223	1219	1214	1214	1210	1210	1210	1210	1206	1206	1202	1197	1197	1197	1193	1193	1189	1185	1181	1181	1181	1181	1181	1181	1177	1177	1177	1173	1169	1165	1165	1165	1161	1161	1161	1161	1157	1153	1150	1150	1146	1146	1146	1146	1142	1142	1134	1131	1131	1127	1127	1127	1127	1123	1123	1120	1120	1116	1116	1116	1113	1113	1109	1109	1109	1105	1105	1102	1102	1098	1098	1098	1098	1098	1095	1091	1088	1088	1085	1085	1085	1085	1081	1078	1074	1074	1074	1071	1071	1071	1071	1071	1068	1068	1064	1064	1061	1058	1058	1058	1058	1055	1055	1055	1055	1052	1048	1048	1048	1045	1045	1042	1042	1042	1039	1036	1036	1036	1033	1033	1033	1030	1026	1026	1023	1023	1020	1017	1017	1017	1017	1014	1011	1011	1011	1011	1011	1008	1008	1008	1006	1003	1000	1000	1000	997	997	991	991	988	988	985	985	985	985	983	983	974	974	974	974	974	974	974	974	972	966	963	963	963	961	961	961	961	961	958	958	955	955	953	953	953	950	950	948	948	945	945	942	940	940	940	937	935	935	935	932	932	930	930	927	925	925	925	925	925	922	920	920	920	920	917	917	915	915	913	910	908	905	905	905	905	903	901	901	901	901	898	898	898	896	896	894	894	894	891	891	891	891	894	896	901	908	910	910	910	913	913	913	0	0	0	0	0	0	0	0	0	0	0	0	0	0	0	0	0
0	0	0	0	0	0	0	0	0	0	0	0	0	0	0	0	0	0	0	0	0	0	0	0	0	0	0	0	0	1127	1127	1131	1131	1134	1134	1134	0	0	1506	1506	1506	1506	1506	1506	1512	1519	1525	1532	1532	1532	1539	1539	1539	0	0	0	0	2845	2845	2845	2845	2845	2845	2845	2845	2822	2822	2799	2799	2799	2777	2754	2754	2754	2754	2733	2733	2711	2711	2711	2690	2690	2669	2669	2669	2649	2649	2649	2649	2629	2609	2609	2609	2589	2589	2589	2589	2589	2570	2570	2551	2551	2551	2532	2514	2514	2514	2514	2496	2496	2496	2478	2478	2443	2443	2426	2426	2426	2409	2409	2409	2409	2392	2392	2376	2376	2359	2359	2359	2343	2343	2343	2343	2327	2327	2312	2312	2297	2297	2297	2297	2281	2281	2281	2281	2281	2266	2252	2252	2252	2237	2237	2237	2237	2237	2223	2223	2223	2208	2208	2194	2194	2194	2181	2181	2181	2181	2167	2167	2167	2153	2153	2153	2140	2127	2127	2127	2127	2127	2127	2114	2114	2101	2101	2088	2088	2088	2076	2076	2076	2076	2076	2076	2063	2063	2063	2051	2051	2039	2027	2027	2027	2027	2027	2015	2015	2015	2015	2015	2015	2015	2003	2003	1992	1992	1980	1969	1969	1969	1969	1958	1958	1958	1958	1958	1947	1947	1936	1925	1925	1915	1915	1915	1915	1915	1904	1904	1904	1894	1894	1883	1883	1883	1873	1873	1873	1863	1863	1863	1853	1853	1843	1843	1843	1833	1833	1833	1824	1824	1814	1804	1804	1804	1804	1804	1795	1795	1795	1795	1795	1786	1786	1777	1777	1768	1768	1759	1759	1759	1759	1759	1759	1750	1750	1741	1741	1732	1732	1732	1723	1723	1723	1723	1723	1715	1715	1706	1706	1698	1698	1698	1690	1690	1681	1681	1673	1673	1673	1673	1665	1665	1665	1461	1461	1461	1461	1455	1455	1331	1326	1326	1326	1321	1321	1321	1316	1316	1316	1311	1311	1311	1306	1306	1306	1301	1301	1301	1296	1296	1291	1287	1287	1282	1282	1282	1277	1272	1272	1268	1268	1268	1268	1263	1263	1263	1259	1254	1254	1254	1249	1249	1249	1245	1245	1240	1240	1236	1236	1232	1232	1232	1227	1227	1227	1223	1219	1214	1214	1210	1210	1210	1210	1206	1206	1202	1202	1197	1197	1197	1193	1189	1185	1181	1181	1181	1181	1177	1177	1177	1177	1177	1173	1169	1165	1165	1165	1161	1161	1161	1161	1157	1153	1150	1150	1146	1146	1146	1146	1142	1142	1134	1131	1131	1127	1127	1127	1127	1127	1123	1123	1120	1116	1116	1116	1113	1113	1109	1109	1109	1109	1105	1102	1102	1102	1098	1098	1098	1098	1095	1091	1088	1088	1085	1085	1085	1085	1081	1081	1078	1074	1074	1071	1071	1071	1071	1071	1068	1068	1064	1061	1061	1058	1058	1058	1058	1055	1055	1055	1055	1052	1048	1048	1048	1045	1045	1042	1042	1042	1039	1039	1036	1036	1033	1030	1030	1030	1026	1023	1023	1023	1020	1017	1017	1017	1017	1014	1014	1011	1011	1011	1011	1008	1008	1008	1006	1003	1003	1000	1000	997	997	991	991	985	985	985	985	985	983	983	983	980	974	974	974	974	974	974	972	972	966	966	963	963	963	963	963	961	961	961	961	958	958	955	953	953	950	950	948	945	945	945	942	940	940	940	937	937	937	935	932	930	930	930	927	925	925	925	925	925	922	922	920	920	920	917	917	915	915	913	910	908	905	905	905	905	903	901	901	901	901	898	898	898	896	896	894	894	894	891	891	891	891	894	896	903	908	910	910	910	913	913	913	0	0	0	0	0	0	0	0	0	0	0	0	0	0	0	0	0
0	0	0	0	0	0	0	0	0	0	0	0	0	0	0	0	0	0	0	0	0	0	0	0	0	0	0	0	0	1127	1127	1131	1131	1131	1134	1134	0	0	1506	1499	1499	1506	1506	1506	1512	1519	1525	1532	1532	1532	1539	1539	1539	0	0	0	0	2845	2845	2845	2845	2845	2845	2845	2845	2822	2822	2799	2799	2799	2777	2754	2754	2754	2754	2733	2733	2711	2711	2711	2690	2669	2669	2669	2669	2649	2649	2649	2629	2629	2609	2609	2589	2589	2589	2589	2589	2570	2570	2570	2551	2551	2551	2514	2514	2514	2514	2514	2496	2496	2496	2496	2478	2443	2443	2426	2426	2426	2426	2409	2409	2409	2392	2392	2376	2376	2359	2359	2359	2359	2343	2343	2343	2327	2327	2312	2312	2297	2297	2297	2297	2297	2281	2281	2281	2281	2266	2266	2252	2252	2237	2237	2237	2237	2237	2223	2223	2223	2223	2208	2194	2194	2194	2181	2181	2181	2181	2167	2167	2167	2153	2153	2153	2140	2127	2127	2127	2127	2127	2114	2114	2114	2101	2101	2088	2088	2088	2076	2076	2076	2076	2076	2076	2063	2063	2063	2051	2051	2039	2027	2027	2027	2027	2027	2015	2015	2015	2015	2015	2015	2003	2003	1992	1992	1992	1980	1969	1969	1969	1969	1958	1958	1958	1947	1947	1947	1936	1936	1925	1925	1915	1915	1915	1915	1915	1904	1904	1904	1904	1894	1883	1883	1883	1883	1873	1873	1863	1863	1863	1853	1853	1843	1843	1843	1833	1833	1833	1824	1824	1814	1814	1814	1804	1804	1804	1804	1795	1795	1795	1786	1786	1786	1777	1777	1768	1768	1759	1759	1759	1759	1759	1759	1750	1750	1741	1741	1732	1732	1732	1723	1723	1723	1723	1715	1715	1715	1706	1706	1698	1698	1698	1690	1690	1690	1681	1681	1681	1673	1673	1665	1665	1665	1461	1461	1461	1461	1455	1455	1331	1326	1326	1326	1321	1321	1321	1321	1316	1316	1311	1311	1311	1306	1306	1306	1301	1301	1301	1296	1291	1287	1287	1287	1287	1282	1282	1277	1272	1268	1268	1268	1268	1268	1263	1263	1263	1259	1254	1254	1254	1249	1249	1249	1245	1245	1240	1240	1236	1236	1232	1232	1232	1227	1227	1227	1223	1219	1214	1214	1210	1210	1210	1210	1206	1206	1206	1202	1202	1197	1197	1193	1189	1185	1181	1181	1181	1181	1177	1177	1177	1177	1177	1173	1169	1169	1165	1165	1161	1161	1161	1161	1157	1153	1150	1150	1146	1146	1146	1146	1142	1142	1134	1131	1131	1127	1127	1127	1127	1123	1123	1123	1123	1120	1116	1116	1113	1113	1109	1109	1109	1109	1105	1102	1102	1102	1098	1098	1098	1098	1095	1091	1088	1088	1085	1085	1085	1085	1081	1081	1078	1074	1074	1074	1071	1071	1071	1071	1068	1064	1064	1061	1061	1058	1058	1058	1058	1055	1055	1055	1055	1052	1048	1048	1045	1045	1045	1042	1042	1042	1039	1039	1039	1036	1033	1030	1030	1030	1026	1023	1023	1023	1023	1020	1020	1017	1017	1017	1014	1014	1011	1011	1011	1008	1008	1008	1006	1003	1003	1000	1000	1000	997	991	991	985	985	985	985	983	983	983	980	980	977	977	974	974	974	974	972	972	969	966	963	963	963	963	963	963	961	961	961	958	958	955	953	953	950	950	948	945	942	942	942	942	942	940	940	937	935	935	932	930	930	930	927	925	925	925	925	925	922	922	920	920	920	917	917	915	915	913	910	908	905	905	905	905	903	901	901	901	901	898	898	898	896	896	894	894	894	894	894	894	894	896	896	903	908	908	908	910	913	913	0	0	0	0	0	0	0	0	0	0	0	0	0	0	0	0	0	0
0	0	0	0	0	0	0	0	0	0	0	0	0	0	0	0	0	0	0	0	0	0	0	0	0	0	0	0	0	1127	1127	1131	1131	1131	1134	1134	0	0	1499	1499	1499	1499	1499	1499	1506	1519	1525	1525	1532	1532	1539	1546	1546	0	0	0	0	2822	2822	2822	2845	2845	2845	2845	2845	2822	2822	2799	2799	2799	2777	2777	2754	2754	2754	2733	2733	2711	2711	2711	2690	2690	2669	2669	2669	2649	2649	2649	2649	2629	2609	2609	2609	2589	2589	2589	2589	2570	2570	2570	2551	2551	2551	2514	2514	2514	2514	2514	2496	2496	2496	2496	2478	2443	2443	2426	2426	2426	2409	2409	2409	2409	2392	2392	2376	2376	2376	2359	2359	2359	2343	2343	2343	2327	2327	2312	2312	2297	2297	2297	2297	2297	2297	2281	2281	2281	2281	2266	2252	2252	2252	2252	2252	2237	2237	2237	2223	2223	2223	2208	2194	2194	2194	2181	2181	2181	2181	2167	2167	2167	2153	2153	2153	2140	2127	2127	2127	2127	2127	2114	2114	2114	2101	2101	2088	2088	2088	2076	2076	2076	2076	2076	2076	2063	2063	2063	2051	2051	2039	2027	2027	2027	2027	2027	2015	2015	2015	2015	2015	2015	2003	2003	1992	1992	1992	1980	1969	1969	1969	1969	1958	1958	1958	1947	1947	1947	1936	1936	1925	1925	1915	1915	1915	1915	1915	1915	1904	1904	1904	1894	1883	1883	1883	1883	1873	1873	1863	1863	1863	1853	1853	1843	1843	1843	1833	1833	1833	1824	1824	1814	1814	1814	1814	1804	1804	1795	1795	1795	1795	1786	1786	1786	1777	1768	1768	1768	1768	1759	1759	1759	1759	1759	1750	1750	1741	1741	1732	1732	1732	1732	1723	1723	1723	1715	1715	1715	1706	1706	1698	1698	1698	1690	1690	1690	1690	1681	1681	1673	1673	1673	1673	1673	1461	1461	1461	1461	1455	1455	1331	1326	1326	1326	1326	1321	1321	1321	1316	1316	1311	1311	1311	1306	1306	1306	1301	1301	1301	1296	1291	1287	1287	1287	1287	1282	1282	1277	1272	1268	1268	1268	1268	1268	1263	1263	1263	1259	1254	1254	1254	1249	1249	1249	1249	1245	1245	1240	1232	1232	1232	1232	1232	1227	1227	1223	1223	1219	1214	1210	1210	1210	1210	1206	1206	1206	1206	1202	1202	1197	1193	1193	1189	1185	1185	1181	1181	1181	1181	1177	1177	1177	1173	1173	1169	1169	1165	1165	1161	1161	1161	1157	1153	1153	1150	1150	1146	1146	1146	1142	1142	1142	1138	1131	1131	1127	1127	1127	1127	1127	1127	1127	1123	1120	1116	1116	1113	1113	1113	1113	1113	1109	1109	1102	1102	1102	1098	1098	1098	1098	1095	1091	1091	1088	1088	1085	1085	1085	1081	1078	1074	1074	1074	1074	1074	1071	1071	1071	1068	1064	1061	1058	1058	1058	1058	1058	1058	1058	1055	1055	1052	1052	1048	1048	1045	1045	1042	1042	1042	1042	1039	1039	1036	1036	1033	1030	1030	1030	1026	1023	1023	1020	1020	1020	1020	1020	1017	1017	1014	1014	1011	1011	1008	1008	1008	1008	1006	1003	1003	1000	1000	997	997	991	991	988	988	985	985	983	983	983	980	980	977	974	974	974	974	974	972	972	969	966	966	963	963	963	963	963	961	961	961	958	958	955	953	953	950	950	948	945	942	942	942	942	942	940	940	937	935	935	932	930	930	930	927	927	925	925	925	925	922	922	922	920	920	920	917	915	915	913	910	908	905	903	903	903	903	901	901	901	901	898	898	896	896	896	894	894	894	894	894	894	894	896	901	903	908	908	908	910	913	913	0	0	0	0	0	0	0	0	0	0	0	0	0	0	0	0	0	0
0	0	0	0	0	0	0	0	0	0	0	0	0	0	0	0	0	0	0	0	0	0	0	0	0	0	0	0	0	1127	1127	1131	1127	1127	1131	1131	0	0	1499	1486	1492	1492	1499	1499	1506	1512	1519	1525	1532	1532	1532	1532	1546	0	0	0	0	2822	2822	2822	2845	2845	2845	2845	2845	2822	2822	2799	2799	2799	2777	2777	2754	2754	2754	2733	2711	2711	2711	2711	2690	2690	2690	2669	2669	2649	2649	2649	2649	2629	2609	2609	2609	2589	2589	2589	2589	2570	2570	2570	2551	2551	2551	2532	2514	2514	2514	2514	2496	2496	2496	2496	2478	2443	2443	2426	2426	2426	2409	2409	2409	2409	2409	2392	2376	2376	2376	2376	2359	2359	2343	2343	2343	2327	2327	2312	2312	2297	2297	2297	2297	2297	2297	2281	2281	2281	2281	2266	2266	2252	2252	2252	2252	2237	2237	2237	2223	2223	2223	2208	2208	2208	2194	2194	2194	2181	2181	2167	2167	2167	2153	2153	2153	2140	2127	2127	2127	2127	2127	2114	2114	2114	2101	2101	2088	2088	2088	2088	2076	2076	2076	2076	2076	2063	2063	2063	2051	2039	2039	2027	2027	2027	2027	2027	2027	2015	2015	2015	2015	2003	2003	2003	2003	1992	1992	1980	1969	1969	1969	1969	1958	1958	1947	1947	1947	1947	1936	1936	1925	1925	1915	1915	1915	1915	1915	1904	1904	1904	1904	1894	1883	1883	1883	1883	1873	1863	1863	1853	1853	1853	1843	1843	1843	1843	1833	1833	1833	1824	1824	1814	1814	1814	1814	1804	1804	1795	1795	1795	1795	1786	1786	1786	1777	1768	1768	1768	1768	1759	1759	1759	1759	1759	1750	1750	1741	1741	1732	1732	1732	1732	1723	1723	1723	1715	1715	1715	1706	1706	1698	1698	1698	1690	1690	1690	1690	1681	1681	1681	1681	1673	1673	1467	1461	1461	1461	1461	1461	1331	1326	1326	1326	1326	1321	1321	1321	1321	1321	1316	1316	1311	1311	1311	1306	1306	1301	1301	1301	1296	1291	1291	1287	1287	1287	1282	1282	1282	1272	1268	1268	1268	1268	1263	1263	1263	1259	1259	1254	1254	1249	1249	1249	1249	1249	1245	1245	1240	1232	1232	1232	1232	1232	1227	1227	1223	1219	1214	1214	1210	1210	1210	1210	1206	1206	1206	1206	1202	1202	1197	1193	1193	1189	1189	1185	1185	1181	1181	1181	1177	1177	1177	1173	1173	1169	1169	1165	1165	1161	1161	1161	1157	1153	1153	1150	1150	1146	1146	1146	1142	1142	1142	1134	1131	1131	1127	1127	1127	1127	1127	1123	1123	1123	1123	1120	1116	1116	1113	1113	1113	1113	1109	1109	1105	1102	1102	1098	1098	1098	1098	1095	1091	1091	1088	1088	1085	1085	1085	1085	1078	1074	1074	1074	1074	1074	1071	1071	1068	1068	1064	1061	1058	1058	1058	1058	1058	1058	1055	1055	1055	1052	1048	1048	1048	1045	1045	1042	1042	1042	1042	1039	1039	1036	1033	1033	1030	1030	1030	1026	1026	1023	1020	1020	1020	1020	1020	1017	1017	1014	1014	1011	1011	1008	1008	1008	1008	1006	1003	1003	1000	1000	997	997	994	994	988	988	985	985	983	983	983	980	980	974	974	974	974	974	974	974	972	969	966	966	963	963	963	963	963	961	961	961	958	955	955	953	953	950	948	948	945	942	942	942	942	942	940	940	937	935	935	935	932	930	930	927	927	925	925	925	922	922	922	922	920	920	920	917	915	913	913	910	908	905	903	903	903	901	901	901	901	898	898	896	896	896	894	894	894	894	894	894	896	896	898	901	905	908	908	908	910	913	913	0	0	0	0	0	0	0	0	0	0	0	0	0	0	0	0	0	0
