0	0	0	0	0	0	0	0	0	0	0	0	0	0	0	0	0	0	0	0	0	0	0	0	0	0	0	0	0	0	958	958	958	958	961	963	963	963	963	966	969	969	972	974	974	974	977	977	977	980	983	983	983	983	985	985	988	988	994	994	997	997	1000	1000	1000	1003	1006	1006	1008	1008	1011	1011	1011	1014	1017	1017	1020	1020	1023	1026	1026	1026	1026	1030	1033	1033	1036	1039	1042	1042	1045	1042	1042	1042	1042	0	0	0	827	817	817	819	819	819	819	819	821	821	821	823	825	825	827	829	831	831	833	833	839	871	871	871	873	873	875	875	878	880	882	882	882	884	884	887	887	887	0	0	0	691	690	690	689	689	689	687	687	687	689	690	691	691	691	691	693	693	693	693	694	695	697	698	698	698	700	700	700	700	0	0	0	0	0	958	958	958	958	958	961	961	961	0	0	0	0	0	0	0	0	0	0	527	527	526	523	523	523	521	520	518	517	515	513	513	513	512	509	509	509	509	509	509	509	510	510	510	511	512	512	512	513	513	513	512	512	513	513	513	513	513	513	513	513	513	513	513	513	513	514	514	515	516	516	516	516	516	516	516	515	515	515	515	515	516	516	516	517	517	517	517	517	517	517	517	518	519	519	519	519	519	519	519	519	519	519	519	520	520	520	520	520	520	521	522	523	522	522	522	523	523	523	523	523	523	523	523	523	524	525	525	526	526	526	525	525	524	524	523	523	523	523	517	517	516	516	516	516	516	517	517	517	518	519	519	521	522	523	523	523	524	526	526	527	529	529	529	530	530	530	531	531	531	532	532	532	532	532	533	534	534	535	535	535	534	534	534	534	534	535	534	534	534	535	536	536	536	536	536	536	536	537	537	536	536	537	537	537	536	536	537	538	538	539	539	539	539	539	539	540	541	542	542	542	543	545	546	547	548	548	549	549	550	554	557	558	560	562	563	565	567	567	568	569	570	571	572	573	573	573	574	574	574	0	0	0	0	0	0	0	0	0	1023	1023	1020	1020	1020	1017	1017	1017	1017	1017	1014	1014	1014	1014	1014	1014	1014	1014	1011	1011	1011	1011	1011	1011	1011	1011	1011	1011	1008	1008	1008	1008	1008	1008	1008	1008	1011	1011	1011	0	0	0	0	0	0	0	1499	1506	1512	1567	1567	1574	1574	1574	1574	1581	1581	1574	1574	1574	1581	1581	1574	1574	1574	1574	1574	1581	1581	1581	1581	1589	1589	1589	1589	1589	1589	1589	1589	1589	1589	1589	1589	1589	1589	1596	1596	1596	1596	1596	1596	1596	1596	1603	1603	1603	1603	1603	1603	1603	1603	1603	1603	1603	1603	1603	1603	1611	1611	1611	1611	1611	1611	1611	1611	1611	1611	1611	1611	1611	1611	1618	1618	1618	1618	1626	1634	1634	1634	1634	1634	1634	1634	1407	1407	1402	1396	1390	1390	1385	1379	1379	1374	1374	1368	1368	1368	1368	1358	1358	0	0	0	0	0	0	0	0	0	0	0	0	1277	1272	1272	1272	1272	1272	1272	1272	1272	0	0	1649	1649	1649	1657	1657	1649	1649	1657	1657	1649	1649	1649	1649	1649	0	0	0	0	0	0	0	0	0	0	0	0	0	0	0	0	0	0	0	0	0	0
0	0	0	0	0	0	0	0	0	0	0	0	0	0	0	0	0	0	0	0	0	0	0	0	0	0	0	0	0	0	958	958	961	961	963	963	963	963	966	969	969	972	972	974	974	977	977	977	977	980	983	983	983	985	985	988	988	991	994	997	997	1000	1000	1000	1003	1006	1006	1008	1008	1011	1011	1011	1011	1017	1020	1020	1020	1023	1023	1026	1026	1026	1026	1030	1033	1036	1036	1039	1042	1045	1045	1042	1042	1042	1042	0	0	0	827	823	823	819	819	819	821	821	821	823	823	823	825	825	827	829	831	831	833	835	839	873	873	873	873	873	875	875	878	880	882	882	882	884	884	887	887	887	0	0	0	693	691	690	690	690	689	687	687	687	686	687	690	690	691	691	693	693	693	693	694	695	697	698	698	698	700	700	700	700	0	0	0	0	0	0	0	958	958	961	961	963	963	0	0	0	0	0	0	0	0	0	0	0	527	526	524	524	523	523	520	518	518	516	514	514	514	509	509	508	508	508	508	508	508	509	509	510	510	510	511	511	511	511	511	511	511	511	513	513	513	513	513	513	512	512	512	513	513	513	513	513	514	513	513	513	514	514	514	515	514	514	514	515	515	516	516	516	516	516	516	516	517	516	516	516	517	517	517	517	517	517	518	518	518	518	518	519	519	519	519	520	520	520	520	520	520	521	521	521	522	522	522	522	523	523	523	523	523	523	523	523	524	523	523	523	523	523	523	523	523	523	523	517	517	516	516	516	516	517	517	517	517	518	519	520	522	523	523	523	523	525	526	526	527	529	529	529	529	530	530	530	530	530	531	531	529	529	531	531	531	531	529	529	530	532	532	533	533	534	533	533	533	532	532	534	534	535	536	536	536	536	536	536	534	534	535	535	535	536	536	536	536	536	537	537	538	538	538	539	539	540	542	542	542	543	545	546	548	548	549	550	550	550	557	559	560	560	562	563	565	565	567	570	570	571	571	571	573	573	573	574	574	574	0	0	0	0	0	0	1023	1023	1023	1023	1023	1020	1020	1017	1017	1017	1017	1017	1017	1014	1014	1014	1014	1014	1014	1014	1014	1011	1011	1011	1011	1011	1011	1011	1011	1011	1011	1008	1008	1008	1008	1008	1008	1008	1008	1008	1011	1011	0	0	0	0	0	1499	1499	1499	1506	1506	1512	1567	1567	1567	1567	1567	1567	1567	1567	1567	1567	1574	1574	1574	1567	1567	1574	1574	1581	1581	1581	1581	1581	1581	1589	1589	1589	1589	1589	1589	1589	1589	1589	1589	1589	1589	1589	1589	1589	1589	1589	1596	1596	1596	1596	1596	1596	1596	1603	1603	1596	1596	1596	1603	1603	1603	1596	1596	1596	1603	1611	1611	1603	1603	1603	1603	1603	1603	1603	1611	1611	1611	1611	1611	1618	1618	1618	1626	1634	1634	1634	1634	1425	1419	1413	1407	1402	1396	1396	1390	1390	1385	1385	1374	1374	1374	1368	1368	1368	0	0	0	0	0	0	0	0	0	0	0	0	0	0	0	1268	1268	1268	1272	1272	1272	1272	1272	0	0	1649	1649	1649	1649	1649	1641	1641	1641	1641	1641	1641	1641	1641	1641	0	0	0	0	0	0	0	0	0	0	0	0	0	0	0	0	0	0	0	0	0	0
0	0	0	0	0	0	0	0	0	0	0	0	0	0	0	0	0	0	0	0	0	0	0	0	0	0	0	0	0	0	958	958	961	963	963	963	966	966	969	969	972	972	972	974	974	977	977	977	980	980	983	985	985	985	988	988	988	991	994	997	997	1000	1000	1003	1003	1006	1008	1008	1008	1011	1011	1011	1014	1017	1020	1020	1023	1023	1023	1030	1030	1030	1030	1033	1033	1036	1036	1042	1045	1045	1045	1045	1045	1045	1045	0	0	0	829	823	823	819	819	821	821	821	821	823	823	823	825	825	827	829	831	831	833	835	873	873	873	873	873	873	875	875	878	880	882	882	884	884	884	887	887	887	0	0	0	693	691	691	689	689	689	687	687	686	687	687	689	690	691	691	693	693	693	693	694	697	697	697	698	698	700	700	701	701	0	0	0	0	0	0	0	961	961	961	963	963	966	969	969	0	0	0	0	0	0	0	0	0	527	526	524	524	523	523	520	520	518	515	514	514	514	509	509	508	508	507	507	507	507	508	508	509	509	510	510	510	510	510	510	510	510	510	510	512	512	512	512	512	511	511	510	510	510	510	510	511	511	511	512	512	513	513	514	514	514	514	514	514	514	515	516	516	516	516	516	516	516	515	515	516	516	516	516	516	516	516	516	516	516	517	517	518	519	519	519	519	519	519	518	518	518	519	519	519	520	520	520	520	523	523	523	523	523	523	520	520	520	521	521	523	523	523	523	523	523	523	523	518	517	516	516	516	516	517	517	517	518	518	520	521	522	523	523	523	524	525	526	527	527	528	528	528	528	529	529	529	529	529	529	529	529	529	530	530	529	529	528	528	529	529	531	532	532	532	532	532	532	532	532	533	533	533	535	535	535	535	535	534	534	534	534	534	534	535	535	536	536	536	536	536	537	537	538	538	539	540	541	542	542	543	545	547	548	549	550	552	555	556	558	559	560	560	562	564	564	565	0	570	570	571	571	571	0	0	0	0	0	0	0	0	0	0	0	1023	1023	1023	1023	1023	1023	1020	1020	1017	1017	1017	1017	1017	1014	1014	1014	1014	1014	1014	1014	1014	1014	1011	1011	1011	1011	1011	1011	1011	1011	1011	1011	1008	1008	1008	1008	1008	1008	1008	1008	1008	1011	1011	1011	0	0	0	0	1499	1499	1499	1506	1506	1512	1553	1553	1560	1560	1560	1560	1560	1560	1560	1560	1560	1560	1567	1567	1567	1567	1574	1574	1574	1581	1581	1581	1581	1581	1581	1581	1581	1581	1581	1589	1581	1581	1589	1589	1589	1589	1589	1589	1589	1589	1589	1589	1589	1589	1596	1596	1596	1596	1596	1596	1589	1589	1596	1589	1589	1589	1596	1596	1596	1603	1603	1603	1603	1603	1603	1603	1603	1603	1603	1603	1603	1603	1603	1611	1611	1611	1611	1455	1449	1443	1443	1425	1419	1419	1413	1402	1402	1396	1396	1390	1390	1385	1385	1385	1374	0	0	0	0	0	0	0	0	0	0	0	0	0	0	0	0	0	0	1268	1268	1268	1272	1268	1268	1268	1272	0	0	1634	1634	1634	1634	1634	1626	1626	1634	1634	1634	1634	1634	1634	1634	1641	0	0	0	0	0	0	0	0	0	0	0	0	0	0	0	0	0	0	0	0	0
0	0	0	0	0	0	0	0	0	0	0	0	0	0	0	0	0	0	0	0	0	0	0	0	0	0	0	0	0	0	961	961	963	963	963	966	966	966	969	972	972	972	974	974	974	977	977	980	980	983	983	985	985	985	988	988	991	994	997	997	1000	1000	1000	1003	1003	1006	1008	1008	1011	1011	1011	1011	1017	1017	1020	1020	1023	1026	1030	1030	1033	1033	1033	1033	1036	1036	1039	1042	1045	1045	1045	1045	1045	1045	1045	0	0	829	829	821	821	819	819	821	821	821	821	823	823	825	825	825	827	829	831	833	833	875	875	873	873	873	873	875	875	878	880	882	882	884	884	884	887	887	891	891	0	0	0	693	691	691	689	689	687	687	686	686	686	687	687	689	690	691	691	693	693	693	694	697	697	697	698	698	700	700	701	701	0	0	0	0	0	0	0	961	961	963	963	963	966	969	972	972	0	0	0	0	0	0	0	0	0	0	524	524	523	523	520	520	520	514	514	514	514	508	508	508	507	506	506	507	507	507	507	507	507	508	508	509	508	508	508	507	506	506	507	507	507	508	508	508	508	509	509	509	509	509	510	510	511	510	510	511	511	512	513	513	513	513	513	514	514	514	514	514	514	514	514	514	513	513	513	514	513	513	514	514	515	516	515	515	516	516	516	516	519	519	518	518	518	517	517	517	517	517	517	518	519	519	519	519	519	520	520	520	520	519	519	519	519	519	519	520	520	520	522	522	520	520	519	519	517	517	517	517	517	517	518	518	519	519	520	521	522	523	523	523	523	524	526	526	526	527	527	527	527	528	529	529	529	529	529	529	530	530	529	529	528	528	527	527	528	528	528	531	531	531	531	531	532	532	532	532	532	532	533	533	534	533	533	532	532	533	533	533	533	533	534	535	534	534	535	535	536	536	537	538	538	539	541	542	542	543	546	548	548	550	551	552	555	556	558	559	560	560	562	562	564	0	0	0	0	0	0	0	0	0	0	0	0	0	0	0	0	0	1023	1023	1023	1023	1023	1023	1023	1020	1020	1020	1017	1017	1017	1017	1014	1014	1014	1014	1014	1014	1014	1014	1014	1014	1014	1011	1011	1011	1011	1011	1011	1011	1011	1008	1008	1008	1008	1008	1008	1008	1008	1008	1008	1011	1011	0	0	0	0	1499	1499	1499	1506	1506	1519	1519	1546	1553	1553	1553	1553	1553	1560	1560	1560	1560	1560	1567	1567	1567	1567	1567	1567	1574	1574	1574	1574	1574	1574	1574	1574	1574	1581	1581	1581	1581	1581	1581	1581	1581	1581	1581	1581	1581	1589	1589	1589	1589	1589	1589	1589	1589	1589	1589	1589	1589	1589	1589	1589	1589	1589	1589	1589	1596	1596	1596	1596	1596	1596	1596	1596	1603	1603	1603	1603	1603	1603	1603	1611	1611	1611	1611	1455	1449	1443	1443	1431	1425	1419	1413	1407	1402	1396	1396	1390	1390	1390	1390	1385	0	0	0	0	0	0	0	0	0	0	0	0	0	0	0	0	0	0	0	1263	1263	1268	1268	1263	1263	1263	0	0	0	1626	1618	1618	1618	1618	1618	1618	1626	1618	1618	1626	1626	1634	1634	1634	0	0	0	0	0	0	0	0	0	0	0	0	0	0	0	0	0	0	0	0	0
0	0	0	0	0	0	0	0	0	0	0	0	0	0	0	0	0	0	0	0	0	0	0	0	0	0	0	0	0	0	961	961	963	963	963	966	966	966	969	972	972	974	974	974	977	977	977	980	980	983	985	985	985	985	988	988	991	994	997	997	1000	1000	1000	1003	1003	1006	1008	1008	1011	1011	1011	1011	1017	1017	1023	1023	1026	1026	1030	1030	1033	1033	1033	1033	1036	1036	1039	1042	1045	1045	1045	1045	1045	1045	0	0	0	821	821	821	821	819	821	821	823	823	823	823	823	825	825	825	827	829	831	833	837	837	875	875	873	873	873	875	878	878	880	882	884	884	884	887	889	889	891	891	0	0	0	0	694	693	690	689	687	687	686	686	686	687	687	687	689	690	691	691	693	693	694	697	697	697	697	698	700	700	701	701	0	0	0	0	0	0	0	963	963	963	966	966	969	969	972	974	974	0	0	0	0	0	0	0	0	0	0	524	523	523	520	520	521	514	514	514	515	515	508	508	507	506	506	507	507	507	507	507	507	507	507	507	507	507	507	506	506	506	506	506	506	507	507	507	507	508	508	508	509	509	509	510	510	510	510	510	510	510	510	510	510	513	513	513	513	513	513	513	513	513	512	512	512	512	512	512	512	512	512	513	514	515	515	515	515	516	516	516	516	516	516	516	516	516	516	516	516	516	516	517	517	518	519	519	519	520	519	519	519	519	519	519	519	519	519	519	519	520	521	520	520	520	519	519	518	518	518	517	517	518	518	518	519	519	520	520	521	522	523	523	523	523	525	525	525	526	527	526	526	526	527	527	528	528	528	528	528	528	528	528	528	528	527	527	527	527	527	527	526	527	527	528	529	530	530	531	531	532	532	532	533	532	532	532	532	532	532	532	532	533	533	533	533	533	534	534	535	536	536	538	538	539	541	542	543	544	547	548	549	550	551	553	555	556	559	560	561	561	562	562	0	0	0	0	0	0	0	0	0	0	0	0	0	0	0	0	1026	1026	1023	1023	1023	1023	1023	1023	1023	1020	1020	1020	1020	1017	1017	1017	1014	1014	1014	1014	1014	1017	1014	1017	1014	1014	1014	1011	1011	1011	1011	1011	1011	1011	1011	1008	1008	1008	1008	1008	1006	1006	1006	1008	1008	1011	1011	0	0	0	1506	1506	1506	1506	1506	1512	1519	1532	1539	1546	1546	1553	1553	1553	1553	1560	1560	1560	1560	1560	1560	1560	1567	1567	1567	1567	1574	1574	1574	1574	1574	1574	1574	1574	1574	1574	1574	1581	1581	1581	1581	1581	1581	1581	1581	1581	1581	1581	1581	1589	1589	1581	1581	1589	1589	1589	1589	1589	1589	1589	1589	1589	1589	1589	1589	1596	1596	1596	1596	1596	1596	1596	1596	1596	1603	1603	1596	1596	1603	1603	1467	1461	1461	1455	1455	1455	1449	1449	1431	1425	1419	1413	1407	1402	1402	1402	1402	1402	1390	1390	0	0	0	0	0	0	0	0	0	0	0	0	0	0	0	0	0	0	0	0	1263	1263	1263	1263	1263	1263	1268	1268	0	1626	1626	1618	1618	1618	1611	1611	1611	1618	1618	1618	1618	1626	1626	1634	1634	0	0	0	0	0	0	0	0	0	0	0	0	0	0	0	0	0	0	0	0	0
0	0	0	0	0	0	0	0	0	0	0	0	0	0	0	0	0	0	0	0	0	0	0	0	0	0	0	0	0	0	963	963	963	963	963	966	966	969	969	972	972	974	974	977	977	980	980	983	983	985	985	985	985	985	988	994	994	994	997	997	1000	1000	1003	1003	1006	1006	1008	1008	1011	1011	1011	1011	1017	1020	1023	1023	1026	1026	1030	1030	1033	1033	1033	1033	1036	1036	1039	1042	1045	1045	1045	1045	1045	1045	0	0	0	821	821	821	821	821	823	823	823	823	823	823	823	825	825	825	827	829	833	833	837	837	875	875	873	873	875	875	878	878	880	882	884	884	884	887	889	891	891	891	0	0	0	700	697	695	691	690	689	687	686	686	686	686	686	687	689	690	691	691	693	693	694	697	697	697	697	698	698	700	701	701	0	0	0	0	0	0	0	963	963	966	966	969	969	972	972	972	972	974	974	0	0	0	0	0	0	0	0	0	523	523	520	520	521	514	514	515	515	515	507	507	507	505	505	506	506	506	506	507	506	506	506	506	506	506	506	505	505	505	505	505	505	506	506	507	507	507	507	508	508	508	508	509	509	509	509	509	509	509	509	509	510	510	510	511	513	512	511	511	511	511	511	511	511	511	511	511	511	511	511	513	513	514	514	514	514	515	515	515	515	515	515	515	516	515	515	516	516	516	516	516	517	518	518	518	519	519	518	518	519	518	518	517	517	517	518	519	519	519	520	519	519	519	519	519	518	518	518	518	518	518	518	518	519	519	520	520	521	522	523	523	523	523	523	523	523	525	525	525	525	526	526	526	525	525	525	526	525	526	526	526	527	527	527	527	527	527	527	527	526	526	526	527	527	528	528	529	530	530	531	532	532	531	531	531	531	532	532	532	532	532	532	533	532	532	533	534	535	536	536	538	539	540	542	542	544	546	548	549	550	551	552	555	555	557	559	561	562	562	563	563	0	0	0	0	0	0	0	0	0	0	0	0	0	0	1026	1026	1026	1026	1026	1023	1023	1023	1023	1023	1023	1020	1020	1020	1020	1020	1020	1017	1017	1017	1017	1017	1017	1017	1014	1017	1014	1014	1014	1011	1011	1011	1011	1011	1011	1008	1008	1008	1008	1008	1008	1008	1006	1006	1006	1008	1008	1008	1011	0	0	0	1506	1506	1506	1506	1506	1506	1519	1525	1525	1532	1539	1539	1539	1546	1553	1553	1553	1553	1553	1553	1560	1560	1560	1560	1560	1567	1567	1567	1574	1574	1574	1574	1574	1574	1574	1574	1574	1574	1574	1574	1574	1574	1574	1574	1581	1581	1581	1581	1581	1581	1581	1581	1581	1581	1581	1581	1581	1581	1581	1581	1581	1581	1581	1581	1589	1589	1596	1596	1589	1589	1589	1589	1589	1589	1603	1596	1596	1596	1603	1603	1467	1461	1461	1455	1455	1455	1449	1443	1431	1425	1425	1419	1413	1413	1413	1413	1402	1402	0	0	0	0	0	0	0	0	0	0	0	0	0	0	0	0	0	0	0	0	0	0	1254	1254	1259	1259	1259	1259	1263	1263	0	1618	1618	1626	1618	1618	1611	1611	1611	1611	1611	1611	1618	1626	1626	1634	1634	0	0	0	0	0	0	0	0	0	0	0	0	0	0	0	0	0	0	0	0	0
0	0	0	0	0	0	0	0	0	0	0	0	0	0	0	0	0	0	0	0	0	0	0	0	0	0	0	0	0	0	963	963	963	963	966	966	969	969	972	972	974	974	974	977	977	980	980	983	983	985	985	988	988	988	988	994	994	997	997	997	1000	1000	1003	1006	1006	1006	1008	1008	1008	1011	1011	1017	1020	1020	1023	1023	1026	1026	1030	1030	1033	1033	1033	1033	1036	1036	1042	1045	1045	1045	1045	1048	1048	0	0	0	0	0	823	823	823	821	823	823	823	823	823	823	825	825	825	827	829	831	833	833	837	839	839	873	873	873	875	875	878	880	880	882	884	887	887	889	891	894	894	0	0	0	0	700	697	697	693	690	689	687	686	686	686	686	686	687	687	689	690	691	691	691	693	694	695	697	697	698	698	700	700	700	0	0	0	0	0	0	0	966	966	966	969	969	969	972	972	972	972	972	972	0	0	0	0	0	0	0	0	0	0	0	520	520	521	515	515	515	515	515	507	507	506	505	505	505	505	505	504	504	504	504	505	505	505	505	505	505	505	505	505	505	505	506	506	506	507	507	507	507	507	507	507	508	508	508	508	508	508	508	508	508	508	508	508	511	513	513	510	510	510	510	510	510	510	510	510	510	510	510	510	511	513	513	513	513	513	514	514	513	513	513	513	513	513	513	513	514	514	515	515	516	516	516	517	517	517	516	516	516	516	516	516	516	516	516	516	518	519	519	519	519	519	519	519	519	518	518	518	518	518	519	519	519	519	519	519	520	521	521	522	523	523	523	523	523	523	523	524	524	525	525	525	525	525	525	525	525	523	523	525	525	526	526	526	526	527	527	527	526	526	526	526	526	526	526	526	528	529	530	530	530	530	529	529	529	529	532	531	531	532	532	532	532	532	532	533	534	535	536	538	539	540	541	542	543	544	547	548	550	552	552	553	555	556	560	560	561	562	562	563	563	0	0	0	0	0	0	0	0	0	0	0	0	0	1026	1026	1026	1026	1026	1026	1023	1023	1023	1023	1023	1023	1020	1020	1020	1020	1020	1020	1017	1017	1017	1017	1017	1017	1017	1017	1017	1014	1014	1014	1011	1011	1011	1011	1011	1011	1008	1008	1008	1008	1008	1008	1008	1006	1006	1006	1006	1008	1008	0	0	0	1512	1506	1506	1506	1512	1506	1506	1519	1525	1525	1532	1532	1532	1539	1546	1546	1553	1553	1553	1553	1553	1553	1553	1560	1560	1560	1560	1567	1560	1567	1567	1567	1567	1567	1567	1567	1567	1567	1567	1574	1574	1574	1574	1574	1574	1574	1574	1574	1581	1581	1581	1581	1581	1581	1581	1581	1581	1581	1581	1581	1581	1581	1581	1581	1581	1581	1589	1589	1589	1581	1581	1581	1581	1581	1581	1589	1589	1589	1603	1603	1603	1467	1461	1455	1455	1455	1455	1449	1443	1443	1425	1425	1425	1425	1425	1413	1413	0	0	0	0	0	0	0	0	0	0	0	0	0	0	0	0	0	0	0	0	0	0	0	0	1254	1254	1259	1254	1254	1254	1263	1263	0	1611	1611	1618	1611	1611	1618	1611	1611	1611	1611	1611	1618	1626	1626	1626	1626	0	0	0	0	0	0	0	0	0	0	0	0	0	0	0	0	0	0	0	0	0
0	0	0	0	0	0	0	0	0	0	0	0	0	0	0	0	0	0	0	0	0	0	0	0	0	0	0	0	0	0	963	963	963	966	966	966	969	969	972	974	974	974	974	977	977	980	980	983	983	985	985	988	988	988	994	994	997	997	997	1000	1000	1000	1003	1006	1006	1006	1008	1008	1011	1011	1014	1017	1020	1020	1023	1023	1026	1030	1030	1033	1033	1033	1033	1036	1036	1036	1042	1045	1045	1048	1048	1048	1048	1048	0	0	0	0	823	823	823	823	823	823	823	823	823	823	825	825	827	827	829	831	833	837	837	839	839	875	873	873	875	878	878	882	882	884	884	887	889	891	894	894	894	0	0	0	703	701	700	700	693	690	689	687	687	686	686	686	686	686	687	689	690	690	691	691	693	694	695	695	697	697	698	698	698	698	0	0	0	0	0	0	0	966	966	969	969	969	969	972	972	972	972	972	972	0	0	0	0	0	0	0	0	0	0	0	520	520	520	515	515	515	514	514	510	507	506	504	504	505	505	504	504	504	504	504	504	504	504	504	504	504	504	504	504	504	504	505	505	505	505	505	506	507	507	507	507	507	507	507	507	507	507	507	507	507	506	506	506	507	507	507	508	510	509	510	510	510	510	510	510	509	509	510	510	510	510	511	511	512	513	513	513	511	511	511	513	513	513	513	513	513	513	514	514	515	515	516	516	515	515	515	515	515	515	515	515	516	515	515	516	517	517	518	518	518	518	518	518	517	517	517	519	519	519	519	519	519	519	519	519	519	519	520	521	522	522	522	522	522	522	522	522	521	523	525	525	522	522	523	523	523	523	523	523	523	524	524	525	525	526	526	526	525	525	525	526	526	525	525	525	525	528	529	529	529	529	529	528	528	528	529	529	530	531	531	532	532	532	532	533	533	536	536	538	539	540	542	542	544	545	548	550	551	552	553	554	554	556	556	560	561	562	562	563	563	0	0	0	0	0	0	0	0	0	0	0	0	1030	1026	1026	1026	1026	1026	1026	1023	1023	1026	1026	1026	1023	1020	1020	1020	1020	1020	1020	1017	1017	1017	1017	1017	1017	1017	1014	1014	1014	1011	1011	1011	1011	1011	1011	1011	1011	1011	1011	1008	1008	1008	1008	1008	1006	1003	1003	1006	1006	1006	0	0	0	1512	1512	1512	1512	1519	1519	1519	1525	1525	1532	1532	1532	1532	1539	1546	1546	1546	1546	1546	1553	1546	1546	1553	1553	1553	1553	1553	1553	1553	1553	1553	1553	1567	1560	1560	1560	1560	1560	1567	1567	1567	1567	1567	1574	1574	1567	1567	1567	1567	1574	1574	1574	1574	1574	1581	1581	1581	1581	1574	1574	1574	1574	1574	1581	1581	1581	1581	1589	1589	1581	1581	1574	1574	1574	1574	1589	1589	1589	1589	1473	1467	1467	1461	1455	1455	1455	1455	1449	1443	1443	1443	1449	1449	1425	1425	0	0	0	0	0	0	0	0	0	0	0	0	0	0	0	0	0	0	0	0	0	0	0	0	0	1249	1249	1254	1259	1254	1254	1254	1254	1263	1611	1611	1611	1618	1611	1611	1618	1611	1611	1611	1611	1611	1611	1611	1611	1611	1611	0	0	0	0	0	0	0	0	0	0	0	0	0	0	0	0	0	0	0	0	0
0	0	0	0	0	0	0	0	0	0	0	0	0	0	0	0	0	0	0	0	0	0	0	0	0	0	0	0	0	0	963	963	963	966	969	969	972	972	974	974	974	974	977	977	977	980	980	983	983	985	985	988	988	988	994	994	997	997	1000	1000	1000	1000	1003	1006	1006	1008	1008	1008	1011	1011	1017	1020	1020	1023	1023	1026	1026	1030	1033	1033	1033	1033	1036	1036	1036	1036	1042	1045	1048	1048	1048	1048	1048	1048	0	0	0	0	825	823	823	823	823	823	823	823	823	825	825	827	827	827	829	831	833	837	839	839	839	841	841	875	875	878	882	882	882	884	887	887	889	891	894	894	894	0	0	0	703	701	701	701	693	690	689	687	687	686	686	686	686	686	687	689	690	690	691	691	693	694	695	695	697	697	697	698	698	698	0	0	0	0	0	0	0	966	966	969	969	969	969	972	972	972	974	974	974	985	985	0	0	0	0	0	0	0	0	0	520	520	520	514	514	514	514	512	510	509	506	504	504	504	504	504	503	503	502	502	503	503	503	504	504	504	504	504	504	504	504	504	504	504	504	504	504	505	505	505	505	506	506	506	506	506	506	507	507	506	505	505	505	506	507	507	507	507	507	508	508	509	509	509	508	508	508	509	509	509	509	509	510	510	510	510	508	508	509	509	510	511	511	512	513	513	513	513	514	514	514	515	515	514	514	514	514	514	514	514	514	514	515	515	516	516	516	516	516	517	517	517	517	517	517	517	517	517	518	518	518	519	518	518	518	518	519	519	519	520	521	521	521	521	522	521	521	520	520	520	520	520	520	521	522	522	523	523	523	523	523	523	523	524	524	524	524	524	524	524	525	525	525	525	525	525	525	527	528	527	527	527	527	527	527	527	527	527	529	530	532	532	532	532	533	533	536	536	539	541	542	542	543	545	548	548	550	551	552	553	554	554	554	556	0	0	0	0	0	0	0	0	0	0	0	0	0	0	0	0	1033	1030	1030	1026	1026	1026	1026	1026	1026	1026	1026	1026	1026	1026	1023	1020	1020	1020	1020	1020	1020	1017	1017	1017	1017	1017	1017	1017	1014	1014	1014	1011	1011	1011	1011	1011	1011	1011	1011	1011	1011	1008	1008	1008	1008	1008	1006	1003	1003	1006	1006	1006	0	0	1506	1506	1512	1512	1519	1519	1525	1525	1532	1539	1532	1532	1532	1532	1539	1546	1546	1546	1546	1546	1546	1546	1546	1546	1546	1546	1546	1546	1553	1553	1553	1553	1553	1553	1560	1553	1553	1553	1560	1560	1560	1560	1553	1553	1560	1560	1560	1560	1567	1567	1567	1567	1574	1574	1574	1574	1574	1574	1574	1574	1574	1574	1574	1574	1574	1574	1581	1581	1581	1581	1581	1581	1574	1574	1574	1574	1581	1581	1581	1581	1473	1467	1467	1461	1461	1455	1449	1449	1449	1449	1449	1449	1449	1449	0	0	0	0	0	0	0	0	0	0	0	0	0	0	0	0	0	0	0	0	0	0	0	0	0	0	0	1249	1249	1254	1259	1254	1254	1259	1259	0	1603	1603	1611	1611	1611	1611	1611	1611	1611	1611	1611	1611	1611	1611	1611	1611	1611	0	0	0	0	0	0	0	0	0	0	0	0	0	0	0	0	0	0	0	0	0
0	0	0	0	0	0	0	0	0	0	0	0	0	0	0	0	0	0	0	0	0	0	0	0	0	0	0	0	0	0	963	963	966	966	969	969	972	972	974	974	974	974	977	977	977	980	980	983	983	985	985	988	988	988	994	997	997	997	1000	1000	1000	1003	1006	1006	1008	1008	1008	1011	1011	1011	1017	1020	1020	1023	1023	1026	1030	1033	1033	1033	1036	1036	1036	1036	1036	1039	1045	1045	1048	1048	1048	1048	1048	1048	0	0	0	825	825	823	823	823	823	823	823	823	823	825	825	827	829	829	831	831	835	837	839	839	839	841	875	875	878	880	882	882	884	884	887	889	889	894	894	894	894	0	0	0	701	701	697	695	694	690	689	687	687	686	686	686	686	686	687	687	689	690	691	691	693	693	694	695	697	697	697	698	698	698	698	0	0	0	0	0	0	969	969	972	972	969	969	972	972	974	974	974	977	988	991	991	0	0	0	0	0	0	0	0	520	520	520	514	515	515	514	512	510	509	506	504	504	504	504	503	501	501	501	501	501	501	501	501	502	501	500	500	501	501	502	503	503	503	504	504	504	504	504	504	504	504	504	504	504	504	504	504	505	505	505	505	505	506	506	506	507	507	507	508	508	508	508	508	508	507	507	507	508	508	508	508	510	509	509	509	508	508	509	509	509	510	510	511	511	512	513	512	511	511	511	511	514	513	513	513	513	513	513	513	513	513	514	514	514	515	515	516	516	516	516	516	516	516	516	516	516	516	517	517	517	517	517	517	517	517	517	516	516	518	519	519	520	520	519	519	519	519	519	517	517	518	519	519	519	520	520	521	521	520	520	520	520	521	521	522	522	522	523	523	523	523	523	523	523	523	523	525	525	525	524	524	525	525	525	525	526	527	528	529	529	532	532	532	533	535	536	537	541	541	542	544	545	546	548	549	550	551	552	553	554	554	555	0	0	0	0	0	0	0	0	0	0	0	0	0	0	0	0	0	1030	1030	1030	1030	1026	1026	1026	1026	1026	1026	1026	1026	1026	1026	1023	1020	1020	1020	1020	1020	1020	1017	1017	1017	1017	1017	1017	1017	1014	1014	1014	1011	1011	1011	1011	1011	1011	1011	1011	1011	1011	1011	1008	1008	1008	1008	1006	1006	1006	1006	1006	1006	0	0	1506	1506	1512	1519	1519	1525	1525	1525	1532	1532	1532	1532	1532	1532	1532	1539	1539	1539	1539	1539	1539	1539	1539	1546	1546	1546	1546	1546	1546	1553	1553	1553	1553	1553	1553	1553	1553	1553	1553	1553	1553	1553	1553	1553	1560	1560	1560	1560	1560	1560	1567	1567	1567	1567	1567	1567	1567	1567	1567	1567	1567	1567	1567	1574	1574	1574	1581	1581	1581	1581	1574	1574	1574	1567	1567	1574	1581	1581	1581	1581	1473	1473	1467	1461	1461	1449	1449	1449	1449	1449	1449	1449	1449	1449	0	0	0	0	0	0	0	0	0	0	0	0	0	0	0	0	0	0	0	0	0	0	0	0	0	0	0	1254	1254	1254	1259	1254	1254	1259	1259	0	1603	1603	1611	1611	1611	1611	1611	1611	1611	1611	1603	1603	1603	1603	1603	1603	1603	0	0	0	0	0	0	0	0	0	0	0	0	0	0	0	0	0	0	0	0	0
0	0	0	0	0	0	0	0	0	0	0	0	0	0	0	0	0	0	0	0	0	0	0	0	0	0	0	0	0	0	966	966	966	969	969	972	972	972	974	974	974	974	977	977	977	980	980	983	983	985	988	988	991	994	994	997	997	997	1000	1000	1003	1003	1006	1008	1008	1008	1011	1011	1011	1014	1017	1020	1020	1023	1023	1026	1030	1033	1033	1036	1036	1036	1036	1036	1039	1045	1045	1045	1048	1048	1048	1048	1048	1048	0	0	848	825	825	823	823	823	823	823	823	823	825	825	827	829	829	831	831	833	835	835	839	839	839	841	875	875	878	880	882	882	884	884	887	889	891	894	894	896	896	0	0	0	701	697	695	695	694	691	689	687	687	686	686	686	686	686	687	687	689	690	690	690	693	693	694	695	695	695	697	697	698	698	698	698	0	0	0	0	0	969	969	972	972	972	972	972	974	977	980	983	985	988	991	991	0	0	0	0	0	0	0	0	0	0	0	0	515	515	513	512	510	509	507	505	505	505	504	503	501	500	500	500	500	499	499	499	500	499	499	499	499	500	501	502	502	502	502	502	503	503	503	503	503	503	503	503	503	503	503	503	504	504	504	504	504	505	505	505	506	506	507	507	507	507	507	507	507	507	507	507	507	507	507	507	508	508	508	508	507	507	508	508	508	508	510	510	510	510	510	510	510	510	510	510	511	511	511	513	513	513	513	513	513	513	513	514	514	514	514	515	514	513	513	515	515	515	514	514	514	513	513	514	515	515	515	515	516	516	516	516	516	516	516	517	519	519	519	519	518	517	517	517	516	517	519	519	519	519	519	519	519	518	518	519	519	519	519	520	521	522	522	523	523	523	523	521	521	521	522	523	523	523	523	523	524	525	525	525	526	527	528	529	532	532	533	533	536	537	538	541	542	542	543	544	546	547	548	549	550	551	552	552	554	554	555	0	0	0	0	0	0	0	0	0	0	0	0	0	0	1033	1030	1030	1030	1030	1026	1026	1026	1026	1026	1026	1026	1026	1026	1026	1026	1026	1023	1020	1020	1020	1020	1020	1020	1020	1017	1017	1017	1017	1017	1017	1017	1014	1014	1011	1011	1011	1011	1011	1011	1011	1011	1011	1011	1011	1008	1008	1008	1008	1008	1006	1006	1006	1006	0	0	0	1506	1506	1519	1519	1519	1525	1525	1525	1532	1532	1532	1532	1532	1532	1532	1539	1539	1539	1539	1539	1539	1539	1539	1539	1539	1546	1546	1546	1546	1546	1546	1546	1546	1546	1546	1546	1546	1553	1553	1553	1553	1553	1553	1553	1546	1546	1546	1553	1553	1560	1560	1560	1560	1560	1560	1560	1560	1560	1560	1560	1567	1567	1567	1567	1574	1574	1574	1574	1574	1574	1574	1567	1567	1546	1546	1525	1525	1525	1525	1525	1519	1467	1467	1461	1461	1449	1449	1449	1596	1567	1567	1581	1581	1449	0	0	0	0	0	0	0	0	0	0	0	0	0	0	0	0	0	0	0	0	0	0	0	0	0	0	0	1259	1259	1259	1259	1259	1259	1263	1263	0	1603	1603	1611	1611	1611	1611	1611	1611	1603	1603	1603	1603	1603	1603	1603	1603	1603	0	0	0	0	0	0	0	0	0	0	0	0	0	0	0	0	0	0	0	0	0
0	0	0	0	0	0	0	0	0	0	0	0	0	0	0	0	0	0	0	0	0	0	0	0	0	0	0	0	0	0	966	966	966	969	972	972	972	974	974	974	977	977	977	977	980	980	980	983	985	985	988	988	991	994	997	997	1000	1000	1000	1003	1003	1003	1006	1008	1008	1008	1011	1011	1011	1017	1020	1020	1020	1023	1023	1026	1030	1033	1033	1036	1036	1036	1036	1039	1039	1045	1045	1048	1048	1048	1048	1048	1048	1048	0	0	848	843	825	823	823	823	823	823	825	825	825	825	827	829	831	831	831	833	835	837	839	839	841	841	875	875	878	880	882	882	884	884	887	889	891	894	894	896	898	898	0	0	701	700	698	694	693	693	689	689	687	687	686	686	686	686	686	687	687	689	689	689	691	691	694	694	695	695	697	697	698	698	698	698	0	0	0	0	0	969	969	972	972	974	974	977	977	977	983	983	988	988	991	991	0	0	0	0	0	0	0	0	0	0	0	0	515	514	513	513	510	510	508	506	506	505	504	503	501	500	500	499	499	498	498	498	499	498	498	498	498	498	499	498	498	501	502	501	501	501	502	502	502	502	501	501	502	502	502	502	503	503	504	504	504	504	505	505	504	504	504	504	504	504	504	506	506	506	506	506	506	506	506	506	506	507	507	507	507	507	507	507	507	507	508	508	508	509	509	509	509	509	509	510	510	510	510	510	511	511	512	512	512	512	512	513	513	513	513	513	513	513	513	513	513	513	511	511	512	512	512	513	514	514	514	515	515	515	515	515	515	515	516	516	517	517	517	517	517	516	516	516	516	517	518	519	519	519	519	518	518	518	518	518	518	518	519	519	519	519	519	520	520	521	519	520	520	520	520	521	522	523	523	523	523	525	525	525	526	527	528	529	532	532	533	535	537	538	540	541	542	543	544	545	546	548	548	549	550	550	552	552	0	0	0	0	0	0	0	0	0	0	0	0	0	0	0	1030	1030	1030	1030	1030	1030	1030	1026	1026	1026	1026	1026	1026	1026	1026	1026	1026	1026	1026	1023	1020	1020	1020	1017	1017	1020	1020	1017	1017	1017	1017	1017	1014	1014	1014	1014	1011	1011	1011	1011	1011	1011	1011	1011	1011	1011	1011	1008	1008	1008	1008	1008	1006	1006	1006	1006	0	0	0	1512	1512	1519	1519	1519	1525	1525	1525	1525	1525	1525	1532	1525	1525	1532	1532	1532	1532	1532	1532	1532	1539	1532	1532	1532	1539	1539	1546	1546	1546	1546	1546	1539	1539	1539	1546	1546	1546	1546	1546	1546	1546	1546	1546	1546	1546	1546	1546	1546	1553	1553	1553	1560	1560	1560	1560	1560	1560	1560	1560	1560	1560	1560	1560	1567	1567	1567	1567	1574	1574	1567	1567	1567	1546	1525	1519	1519	1519	1519	1519	1519	1596	1589	1589	1581	1581	1581	1581	1581	1567	1567	1581	1589	1626	1626	0	0	0	0	0	0	0	0	0	0	0	0	0	0	0	0	0	0	0	0	0	0	0	0	0	0	1259	1263	1263	1263	1259	1259	1272	1272	0	1611	1611	1611	1611	1611	1611	1603	1603	1603	1596	1596	1596	1596	1596	1596	1603	1603	0	0	0	0	0	0	0	0	0	0	0	0	0	0	0	0	0	0	0	0	0
0	0	0	0	0	0	0	0	0	0	0	0	0	0	0	0	0	0	0	0	0	0	0	0	0	0	0	0	0	969	969	969	969	972	972	972	974	974	974	974	977	977	977	980	980	983	983	985	985	985	988	988	994	994	997	997	1000	1000	1000	1003	1003	1006	1008	1008	1008	1008	1011	1011	1011	1017	1020	1020	1020	1023	1023	1026	1033	1033	1036	1036	1036	1036	1039	1039	1045	1045	1048	1048	1048	1048	1048	1048	1048	1048	0	854	848	841	837	825	825	825	825	825	825	825	825	827	827	829	831	831	833	833	837	839	839	839	841	841	875	878	878	882	882	882	884	887	887	889	891	894	896	896	898	901	901	0	0	700	697	694	693	693	689	689	687	686	686	686	686	686	686	687	687	689	689	689	690	691	693	694	695	695	697	697	698	698	698	701	701	0	0	0	0	969	972	972	972	974	974	977	980	980	983	985	985	988	991	991	0	0	0	0	0	0	0	0	0	0	0	0	515	514	513	513	511	510	508	506	506	505	505	504	501	500	499	498	498	498	498	498	498	498	498	498	498	497	497	497	498	498	499	501	501	500	501	501	501	501	501	501	501	501	501	501	502	502	502	503	504	504	504	504	503	503	503	503	503	503	503	504	504	504	505	505	505	505	505	505	505	506	507	507	507	507	507	507	507	507	507	507	507	507	507	507	507	507	508	508	508	508	509	508	508	510	510	510	510	511	511	512	512	511	511	511	512	513	512	511	511	512	511	511	511	511	511	513	513	513	513	514	514	514	514	514	514	514	513	514	514	515	515	516	516	516	516	516	516	516	516	516	516	516	516	516	516	516	516	517	517	517	518	519	519	519	519	519	519	519	519	519	519	519	519	520	521	522	523	523	523	524	525	526	527	527	528	529	532	532	534	536	537	538	540	541	542	543	544	546	547	548	548	549	550	550	0	0	0	0	0	0	0	0	0	0	0	0	0	0	0	1033	1030	1030	1030	1033	1033	1030	1030	1030	1026	1026	1026	1026	1026	1026	1026	1026	1026	1026	1026	1026	1023	1020	1020	1020	1017	1017	1020	1020	1017	1017	1017	1017	1017	1014	1014	1014	1014	1011	1011	1011	1011	1011	1011	1011	1011	1011	1011	1011	1008	1008	1008	1008	1008	1006	1006	1006	0	0	0	0	1506	1506	1512	1512	1519	1519	1519	1519	1525	1525	1525	1519	1519	1525	1525	1525	1525	1532	1532	1532	1532	1532	1532	1532	1532	1532	1532	1539	1532	1532	1532	1539	1532	1532	1532	1539	1539	1539	1539	1539	1546	1546	1539	1539	1539	1539	1546	1546	1546	1553	1553	1553	1553	1553	1553	1553	1553	1560	1560	1560	1560	1560	1560	1560	1560	1560	1567	1567	1567	1567	1567	1553	1532	1532	1525	1519	1519	1519	1519	1519	1519	1589	1589	1581	1581	1581	1581	1581	1581	1567	1567	1581	1581	1603	1603	1603	1603	0	0	1574	1574	1581	1581	0	0	0	0	0	0	0	0	0	0	0	0	0	0	0	0	0	1272	1272	1268	1268	1268	1268	1272	1272	1272	0	1611	1611	1611	1611	1603	1603	1596	1596	1596	1596	1589	1589	1596	1596	1596	1596	1596	0	0	0	0	0	0	0	0	0	0	0	0	0	0	0	0	0	0	0	0	0
0	0	0	0	0	0	0	0	0	0	0	0	0	0	0	0	0	0	0	0	0	0	0	0	0	0	0	0	0	969	969	969	972	972	972	974	974	974	974	974	977	977	977	980	980	983	983	985	985	985	988	988	994	994	997	997	1000	1000	1003	1003	1006	1006	1008	1008	1008	1011	1011	1011	1014	1017	1020	1020	1023	1023	1026	1030	1033	1033	1036	1036	1036	1039	1039	1042	1045	1048	1048	1048	1052	1048	1048	1052	1052	0	0	854	848	841	837	825	825	825	825	825	825	825	827	827	829	831	831	831	833	833	839	839	841	841	841	841	880	880	880	882	882	882	884	887	887	889	891	894	896	898	898	901	901	0	0	0	697	694	693	690	689	689	687	686	686	686	686	686	687	687	687	689	689	690	690	691	693	694	695	697	697	697	698	698	698	701	701	0	0	0	0	0	972	972	972	974	974	980	980	980	983	985	985	988	991	991	991	0	0	0	0	0	0	0	0	0	0	0	515	514	513	512	511	510	508	507	506	505	505	504	500	499	497	496	496	496	496	497	497	497	496	496	496	497	497	497	498	498	499	500	500	500	500	500	500	500	500	500	501	501	501	501	501	501	501	502	503	503	503	502	501	501	501	501	502	502	502	502	504	504	504	504	504	504	504	504	505	505	505	506	504	504	505	505	505	505	504	504	505	506	506	506	507	507	507	507	507	507	507	507	507	507	508	508	510	510	510	510	510	510	510	510	510	510	510	510	510	510	510	510	510	510	510	511	512	512	513	513	513	513	513	513	513	513	512	513	513	513	514	514	515	515	515	516	516	516	516	516	516	516	516	516	516	516	516	516	516	516	516	516	516	517	517	518	517	517	517	517	517	518	519	519	520	521	522	523	523	524	525	526	527	527	528	530	532	533	534	536	537	538	540	541	542	544	545	546	546	547	548	549	549	550	0	0	0	0	0	0	0	0	0	0	0	0	0	0	1033	1033	1033	1033	1033	1033	1033	1030	1030	1030	1026	1026	1026	1026	1026	1026	1026	1026	1026	1026	1026	1026	1023	1020	1020	1020	1017	1017	1017	1017	1017	1017	1017	1017	1017	1017	1014	1014	1014	1011	1011	1011	1011	1011	1011	1011	1011	1011	1011	1011	1011	1008	1008	1008	1008	1008	1008	1008	0	0	0	0	1506	1506	1512	1512	1512	1512	1519	1519	1525	1525	1525	1519	1519	1525	1525	1525	1525	1525	1525	1525	1525	1525	1525	1525	1525	1532	1532	1532	1532	1532	1532	1532	1525	1525	1532	1532	1539	1539	1539	1539	1539	1539	1539	1539	1539	1539	1546	1546	1546	1546	1546	1553	1553	1553	1553	1553	1553	1553	1553	1553	1553	1560	1553	1553	1560	1560	1560	1560	1567	1567	1560	1553	1532	1532	1525	1519	1519	1519	1519	1519	1519	1574	1581	1581	1574	1574	1574	1581	1574	1574	1574	1581	1581	1589	1589	1581	1581	1581	1581	1574	1574	1581	1581	1581	0	0	0	0	0	0	0	0	0	0	0	0	0	0	0	0	1272	1272	1268	1268	1268	1268	1272	1272	1272	0	0	1611	1611	1603	1603	1603	1596	1596	1596	1596	1589	1589	1596	1596	1596	1596	1596	0	0	0	0	0	0	0	0	0	0	0	0	0	0	0	0	0	0	0	0	0
0	0	0	0	0	0	0	0	0	0	0	0	0	0	0	0	0	0	0	0	0	0	0	0	0	0	0	0	0	969	969	972	972	972	974	974	974	974	974	977	977	977	977	980	983	983	983	985	985	985	988	994	994	997	997	997	1000	1000	1003	1006	1006	1008	1008	1008	1011	1011	1011	1014	1017	1017	1020	1020	1023	1023	1026	1030	1033	1033	1036	1036	1039	1039	1042	1042	1045	1048	1048	1052	1052	1052	1052	1055	1055	0	0	854	850	845	845	825	825	825	825	825	825	827	827	829	829	831	831	833	833	837	839	841	841	841	841	841	880	880	882	882	884	884	884	887	889	891	894	896	896	898	901	901	903	903	0	0	697	694	693	691	690	689	687	686	686	686	686	686	687	687	687	689	690	690	691	691	693	694	695	697	697	697	698	698	698	698	701	701	0	0	0	0	972	972	974	974	977	980	980	983	983	985	985	988	991	991	991	991	0	0	0	0	0	0	0	0	0	0	0	514	513	512	511	510	509	507	507	506	506	505	500	499	496	495	495	496	495	495	495	495	496	496	496	496	496	496	496	498	499	500	500	498	498	498	499	499	500	500	500	500	500	500	500	501	501	501	501	501	501	501	501	501	501	501	501	502	502	502	503	504	504	504	502	502	502	502	502	502	502	502	504	504	504	504	504	505	504	504	504	504	504	504	505	506	507	506	506	506	507	507	507	507	507	508	509	509	510	509	509	509	509	509	509	509	510	510	510	510	510	510	510	510	510	510	510	510	511	511	511	511	512	511	511	511	511	511	512	512	513	513	514	514	514	515	515	516	516	515	515	515	515	515	515	515	515	516	515	515	516	515	515	516	516	516	515	515	516	516	517	518	519	519	519	521	522	523	523	525	525	526	527	528	529	530	532	533	535	536	537	538	539	541	542	544	545	546	546	547	547	549	549	0	0	0	0	0	0	0	0	0	0	0	0	0	0	0	1033	1033	1033	1033	1033	1033	1033	1030	1030	1030	1026	1026	1026	1026	1026	1026	1026	1026	1026	1026	1026	1023	1023	1020	1020	1020	1017	1017	1017	1017	1017	1017	1017	1017	1017	1017	1014	1014	1014	1014	1011	1011	1014	1011	1011	1011	1011	1011	1011	1011	1011	1011	1011	1011	1011	1011	1011	1008	0	0	0	1506	1506	1506	1506	1506	1506	1512	1512	1519	1519	1519	1519	1519	1519	1525	1525	1519	1519	1519	1525	1525	1525	1519	1519	1525	1525	1525	1525	1525	1525	1525	1525	1525	1525	1525	1532	1532	1532	1532	1532	1532	1532	1532	1532	1532	1532	1532	1539	1546	1546	1546	1546	1546	1546	1546	1546	1553	1553	1546	1546	1546	1546	1546	1546	1546	1546	1553	1560	1560	1560	1560	1553	1546	1532	1532	1525	1525	1525	1525	1525	1532	1539	1567	1574	1567	1567	1574	1574	1574	1574	1567	1567	1574	1574	1574	1581	1581	1581	1581	1581	1574	1574	1581	1581	1581	1581	0	0	0	0	0	0	0	0	0	0	0	0	0	0	0	1272	1272	1272	1272	1272	1272	1272	1272	1277	0	0	0	1611	1603	1603	1603	1603	1603	1596	1596	1589	1589	1596	1589	1589	1596	1596	0	0	0	0	0	0	0	0	0	0	0	0	0	0	0	0	0	0	0	0	0
0	0	0	0	0	0	0	0	0	0	0	0	0	0	0	0	0	0	0	0	0	0	0	0	0	0	0	0	0	972	972	972	972	972	974	974	974	974	977	977	977	977	980	980	983	985	985	985	988	988	991	994	997	997	997	997	1000	1000	1003	1006	1008	1008	1008	1008	1011	1011	1014	1014	1017	1017	1020	1020	1023	1026	1026	1030	1033	1033	1036	1036	1039	1042	1045	1045	1048	1048	1052	1052	1055	1055	1055	1055	1055	0	0	852	852	848	845	831	825	825	825	825	827	827	827	829	829	831	831	833	833	837	839	841	841	843	843	843	880	882	882	882	884	884	884	887	889	891	894	896	898	901	901	901	903	903	903	0	0	694	693	693	691	690	690	687	687	687	687	687	687	687	689	689	690	690	691	691	693	694	695	695	695	697	697	700	700	701	701	701	0	0	0	0	972	974	974	977	980	980	980	983	983	985	988	991	991	994	994	994	0	0	0	0	0	0	0	0	0	0	0	0	513	513	511	510	509	507	507	507	506	505	502	502	495	495	495	495	494	494	494	494	494	495	495	495	496	496	496	496	496	496	496	496	497	497	498	498	498	498	499	499	500	500	499	499	499	499	499	499	499	499	499	499	500	500	501	498	500	500	501	501	499	499	500	500	501	501	501	501	501	501	502	502	502	504	504	504	503	503	504	504	504	504	504	505	505	505	505	506	507	507	507	506	506	507	507	507	507	507	507	507	507	508	508	508	508	508	508	508	508	508	508	508	508	509	510	510	510	510	510	510	510	510	510	510	510	510	510	512	513	513	513	513	513	513	514	515	515	513	513	514	514	514	514	514	514	514	514	514	514	514	514	514	514	514	514	514	515	516	516	518	519	519	519	520	522	522	523	525	525	526	527	528	529	530	532	533	535	536	537	538	539	542	543	544	545	546	546	546	547	0	0	0	0	0	0	0	0	0	0	0	0	0	0	0	0	1033	1033	1033	1033	1033	1033	1033	1033	1030	1030	1030	1026	1026	1026	1026	1026	1026	1026	1026	1026	1026	1026	1023	1023	1020	1020	1020	1017	1017	1017	1017	1017	1017	1017	1017	1017	1017	1017	1017	1017	1014	1011	1011	1011	1011	1011	1011	1011	1011	1011	1011	1011	1011	1011	1011	1011	1011	1011	0	0	0	0	1506	1506	1506	1499	1499	1506	1506	1512	1512	1512	1512	1512	1512	1519	1519	1525	1519	1519	1519	1519	1519	1519	1519	1519	1519	1519	1519	1519	1519	1519	1519	1525	1525	1525	1525	1525	1532	1532	1532	1532	1532	1532	1532	1532	1532	1532	1532	1539	1539	1539	1539	1539	1539	1539	1539	1539	1539	1539	1546	1546	1546	1539	1539	1539	1546	1546	1546	1546	1553	1553	1560	1553	1546	1532	1532	1525	1525	1532	1532	1532	1539	1546	1560	1567	1567	1567	1567	1567	1574	1567	1560	1560	1567	1567	1574	1574	1574	1574	1581	1574	1574	1574	1581	1581	1574	1574	1574	1574	0	0	0	0	0	0	0	0	0	0	0	0	0	1272	1272	1272	1272	1272	1272	1272	1272	1277	0	0	0	0	1603	1603	1603	1603	1603	1596	1596	1596	1596	1596	1589	1589	1596	1596	0	0	0	0	0	0	0	0	0	0	0	0	0	0	0	0	0	0	0	0	0
0	0	0	0	0	0	0	0	0	0	0	0	0	0	0	0	0	0	0	0	0	0	0	0	0	0	0	0	0	972	972	974	974	974	974	977	977	977	977	977	980	980	983	983	985	985	988	988	991	994	994	997	997	997	997	997	1000	1000	1003	1006	1008	1008	1011	1011	1011	1011	1014	1017	1020	1020	1020	1023	1023	1026	1026	1033	1033	1036	1036	1039	1042	1042	1045	1045	1048	1052	1052	1055	1055	1055	1055	1058	1058	0	0	852	852	850	848	839	827	827	827	827	827	827	829	829	831	833	833	833	835	839	841	843	843	845	845	845	848	882	882	882	884	884	884	887	889	894	894	898	898	901	901	903	903	903	903	0	0	0	694	693	693	693	691	689	687	687	687	687	687	687	687	689	689	690	690	691	691	693	693	695	697	697	698	700	700	700	701	701	0	0	0	0	0	974	980	980	980	980	980	983	983	985	988	991	994	994	994	997	997	997	0	0	0	0	0	0	0	0	0	0	513	513	512	510	509	507	507	507	506	505	502	502	495	495	495	495	494	493	493	493	493	493	493	493	494	494	494	494	494	494	494	496	495	495	496	498	498	498	498	498	499	499	498	498	498	498	498	498	496	496	497	498	498	497	496	496	496	497	498	498	498	498	498	499	500	501	501	501	501	501	501	500	500	500	500	501	501	502	502	502	502	502	502	503	504	504	504	504	505	506	505	505	504	504	505	504	504	505	506	507	506	506	506	507	507	507	507	508	508	508	508	507	507	508	509	509	510	510	510	510	510	510	510	510	509	509	510	510	511	511	512	513	513	513	513	515	515	513	513	513	513	513	513	513	513	513	513	513	513	513	513	513	513	513	513	513	514	516	516	518	519	519	519	520	522	522	523	525	526	526	527	528	529	531	532	533	536	537	538	539	539	542	542	544	545	546	546	546	0	0	0	0	0	0	0	0	0	0	0	0	0	0	0	1033	1033	1033	1033	1033	1033	1033	1033	1033	1033	1033	1030	1030	1026	1026	1026	1026	1026	1026	1026	1026	1026	1026	1023	1023	1023	1020	1020	1017	1017	1017	1017	1017	1020	1020	1017	1017	1017	1017	1017	1017	1017	1014	1011	1011	1014	1011	1011	1011	1011	1011	1011	1011	1011	1011	1011	1011	1011	1011	1011	0	0	0	0	1506	1506	1506	1499	1499	1506	1506	1512	1506	1512	1512	1512	1512	1512	1512	1519	1512	1512	1519	1519	1519	1512	1512	1512	1512	1519	1519	1512	1512	1519	1519	1519	1519	1525	1525	1525	1525	1532	1525	1525	1525	1525	1532	1532	1525	1525	1532	1539	1539	1539	1539	1539	1539	1539	1532	1532	1532	1532	1532	1532	1539	1539	1539	1539	1539	1546	1546	1546	1546	1553	1553	1546	1546	1539	1532	1525	1525	1532	1539	1539	1546	1546	1553	1553	1553	1553	1560	1560	1567	1560	1560	1560	1567	1567	1567	1567	1567	1567	1574	1574	1574	1574	1574	1574	1574	1574	1574	1574	1574	0	0	0	0	0	0	0	0	0	0	0	0	0	1272	1272	1272	1272	1272	1268	1268	1268	0	0	0	0	0	0	0	0	0	0	1596	1596	1596	1596	1589	1589	1596	1596	0	0	0	0	0	0	0	0	0	0	0	0	0	0	0	0	0	0	0	0	0
0	0	0	0	0	0	0	0	0	0	0	0	0	0	0	0	0	0	0	0	0	0	0	0	0	0	0	0	0	974	974	974	974	974	974	977	977	977	977	980	980	983	985	985	988	988	991	991	991	994	994	997	997	997	997	1000	1000	1003	1006	1008	1008	1011	1011	1011	1011	1014	1017	1020	1020	1020	1020	1023	1023	1026	1030	1033	1033	1036	1036	1039	1042	1042	1045	1045	1048	1052	1052	1055	1058	1058	1058	1058	1058	1058	0	852	852	850	848	841	831	831	829	829	829	829	829	829	831	833	833	833	835	839	841	843	843	845	845	845	848	882	882	884	884	884	887	889	891	894	896	898	898	901	901	903	903	903	903	0	0	0	694	693	693	691	691	689	689	687	687	687	687	687	687	689	689	690	690	691	693	693	695	697	697	698	698	698	700	700	701	701	0	0	0	0	0	0	980	980	980	983	983	983	983	985	991	994	994	997	997	997	997	997	0	0	0	0	0	0	0	0	0	0	0	0	512	510	509	507	507	507	506	505	502	502	495	495	496	495	494	493	493	493	493	493	493	493	493	493	493	493	493	493	494	494	494	494	496	496	496	496	497	497	498	496	496	496	496	496	496	496	496	496	496	496	496	496	496	496	496	496	496	496	496	498	498	499	499	499	500	500	500	500	500	499	499	499	499	499	500	501	501	501	501	501	501	502	502	502	503	504	503	503	503	503	503	503	503	503	503	504	505	506	504	504	504	505	504	504	504	504	504	507	507	507	507	507	507	508	508	508	508	508	508	508	508	508	508	509	509	509	509	509	510	510	508	505	505	505	510	509	509	510	512	512	513	513	512	512	513	513	512	512	512	513	513	513	513	513	514	516	516	518	519	519	519	520	522	523	523	526	526	527	528	529	530	531	533	535	537	537	538	539	540	540	542	0	0	0	0	0	0	0	0	0	0	0	0	0	0	0	0	0	0	1036	1036	1033	1033	1033	1036	1033	1033	1033	1033	1033	1033	1033	1030	1030	1026	1026	1026	1026	1026	1026	1026	1026	1026	1023	1023	1023	1023	1020	1020	1017	1017	1017	1017	1017	1020	1020	1020	1020	1017	1017	1017	1014	1014	1014	1011	1011	1011	1011	1011	1011	1011	1011	1011	1011	1011	1011	1011	1011	1011	1011	0	0	0	0	0	0	1506	1499	1499	1499	1499	1506	1506	1506	1506	1506	1506	1506	1506	1512	1512	1512	1512	1512	1512	1512	1506	1506	1506	1512	1512	1512	1512	1512	1519	1519	1519	1519	1525	1525	1525	1525	1525	1525	1525	1525	1525	1525	1525	1525	1525	1525	1532	1532	1532	1532	1532	1532	1532	1532	1532	1532	1532	1532	1532	1532	1532	1532	1532	1539	1539	1539	1539	1546	1553	1553	1546	1546	1546	1532	1525	1525	1532	1539	1539	1546	1546	1546	1546	1553	1553	1553	1553	1560	1560	1560	1560	1567	1567	1567	1567	1567	1567	1567	1567	1567	1567	1574	1574	1574	1574	1574	1574	1567	1560	1553	1553	1553	0	0	0	0	1574	1581	1581	1581	0	1272	1272	1272	1272	1272	1268	1268	1268	0	0	0	0	0	0	0	0	0	0	0	1596	1596	1596	1596	1596	1596	1596	0	0	0	0	0	0	0	0	0	0	0	0	0	0	0	0	0	0	0	0	0
0	0	0	0	0	0	0	0	0	0	0	0	0	0	0	0	0	0	0	0	0	0	0	0	0	0	0	0	0	974	974	974	974	974	977	977	977	977	980	983	983	983	985	988	988	988	991	991	994	994	994	997	997	997	1000	1000	1003	1003	1006	1008	1008	1011	1011	1011	1014	1014	1017	1020	1020	1020	1023	1023	1026	1030	1030	1033	1033	1036	1036	1039	1042	1042	1045	1045	1048	1052	1055	1055	1058	1058	1058	1061	1061	1061	0	0	852	852	850	848	833	831	827	827	829	829	829	831	831	833	833	835	837	841	841	843	843	845	845	845	848	882	884	884	884	884	887	891	891	896	896	898	901	901	903	903	905	905	905	905	0	0	694	693	693	691	691	689	689	687	687	687	687	687	687	687	690	690	691	693	693	693	695	697	697	698	698	698	700	700	701	701	0	0	0	0	0	0	980	980	983	983	983	983	985	988	991	994	994	997	997	1000	1000	1003	1003	1003	0	0	0	0	0	0	0	0	0	0	512	510	508	507	507	507	506	505	503	501	496	496	496	495	494	493	493	493	493	492	492	492	492	493	493	493	493	493	493	493	493	493	495	495	493	493	495	495	495	495	495	495	495	495	496	495	495	496	496	496	496	496	496	496	496	496	496	496	496	496	498	498	498	498	498	499	499	499	499	499	498	498	498	498	499	500	501	501	501	501	501	501	501	501	502	502	502	502	502	502	502	502	502	502	502	502	504	504	504	504	504	504	503	503	503	503	503	505	505	506	506	507	507	507	507	507	507	507	507	507	507	507	507	508	508	508	507	507	507	507	505	505	505	505	510	509	509	510	511	511	512	512	511	511	512	512	511	511	511	512	513	513	513	513	514	516	516	518	519	519	519	520	522	523	526	527	527	527	528	529	530	533	535	537	538	538	539	539	539	540	0	0	0	0	0	0	0	0	0	0	0	0	0	0	0	0	0	1036	1036	1036	1036	1033	1033	1033	1036	1036	1036	1036	1033	1033	1036	1033	1033	1030	1026	1026	1026	1026	1026	1023	1023	1023	1023	1023	1023	1023	1023	1023	1020	1020	1020	1017	1017	1020	1020	1020	1017	1017	1017	1017	1017	1014	1014	1014	1011	1011	1011	1011	1011	1011	1011	1011	1011	1011	1011	1011	1011	1011	1011	1011	0	0	0	0	0	1499	1499	1499	1499	1499	1499	1499	1499	1499	1506	1499	1499	1499	1506	1506	1506	1506	1506	1512	1512	1506	1506	1506	1506	1506	1506	1506	1512	1512	1512	1512	1512	1519	1519	1519	1525	1525	1525	1525	1519	1519	1525	1525	1525	1525	1525	1525	1525	1525	1532	1532	1532	1532	1532	1532	1532	1525	1525	1525	1525	1525	1532	1532	1532	1532	1532	1539	1539	1546	1553	1553	1546	1546	1546	1539	1539	1539	1539	1539	1539	1539	1546	1546	1546	1546	1546	1546	1546	1553	1553	1553	1553	1553	1553	1560	1560	1560	1560	1567	1567	1567	1567	1567	1567	1567	1567	1574	1574	1567	1560	1553	1553	1560	1560	1560	1560	1567	1574	1574	1574	1581	0	1259	1259	1272	1272	1272	1272	1268	1268	0	0	0	0	0	0	0	0	0	0	0	0	0	1596	1596	1596	1596	1596	0	0	0	0	0	0	0	0	0	0	0	0	0	0	0	0	0	0	0	0	0
0	0	0	0	0	0	0	0	0	0	0	0	0	0	0	0	0	0	0	0	0	0	0	0	0	0	0	0	0	974	974	977	974	974	977	977	977	977	980	983	983	985	985	988	988	991	994	994	997	997	997	997	1000	1000	1000	1000	1003	1006	1006	1008	1008	1011	1011	1011	1014	1014	1017	1020	1020	1023	1023	1023	1026	1030	1033	1033	1036	1036	1036	1039	1042	1045	1045	1045	1048	1052	1052	1058	1058	1058	1058	1061	1061	1061	0	852	852	852	850	850	850	831	827	827	829	829	829	831	833	833	835	835	839	841	841	843	845	845	845	845	848	884	884	884	884	887	889	894	894	896	896	898	901	901	903	903	905	905	905	905	0	0	0	693	693	691	691	689	689	687	686	686	687	687	687	689	690	690	691	693	693	694	695	697	697	698	698	698	700	700	701	701	0	0	0	0	0	0	980	983	983	983	985	985	988	991	991	994	997	997	1000	1003	1003	1003	1003	1003	0	0	0	0	0	0	0	0	0	0	0	0	508	507	507	506	505	505	501	501	499	497	497	496	494	493	493	493	492	491	491	491	491	492	492	492	492	492	493	491	491	492	492	492	492	491	491	492	493	491	491	492	493	493	493	493	494	494	496	496	496	496	496	495	495	495	496	496	496	496	497	498	498	498	498	498	498	498	498	498	498	498	498	498	498	499	499	499	499	499	500	500	500	500	501	501	501	501	501	501	501	501	501	501	501	501	501	502	502	502	503	503	503	503	503	503	503	504	504	504	505	505	505	505	507	505	505	506	506	506	506	507	507	507	507	507	507	507	507	505	505	505	505	505	506	505	505	507	507	510	510	511	510	510	510	510	510	510	510	511	512	513	513	513	514	516	516	518	519	519	519	521	523	524	526	527	527	528	529	530	531	534	536	538	538	539	539	539	539	0	0	0	0	0	0	0	0	0	0	0	0	0	0	0	1039	1039	1036	1036	1036	1036	1036	1033	1033	1033	1036	1036	1036	1036	1033	1033	1036	1033	1033	1030	1026	1026	1026	1026	1026	1023	1023	1023	1023	1023	1023	1023	1023	1023	1020	1020	1020	1017	1017	1020	1020	1017	1017	1017	1017	1017	1014	1014	1014	1014	1011	1011	1011	1011	1011	1011	1011	1011	1011	1011	1011	1011	1011	1014	1014	0	0	0	0	0	0	1492	1492	1492	1492	1492	1492	1492	1492	1492	1499	1499	1499	1499	1499	1506	1506	1506	1506	1506	1506	1506	1506	1506	1506	1506	1506	1506	1506	1506	1512	1512	1512	1512	1519	1519	1519	1519	1519	1525	1519	1519	1519	1525	1525	1519	1519	1519	1525	1525	1525	1525	1525	1525	1525	1525	1525	1525	1525	1525	1525	1525	1525	1525	1525	1532	1532	1532	1539	1546	1553	1539	1539	1532	1532	1532	1539	1539	1539	1539	1539	1539	1539	1546	1539	1539	1546	1546	1546	1546	1546	1546	1546	1546	1546	1553	1553	1553	1560	1560	1560	1560	1560	1567	1567	1567	1567	1567	1567	1567	1560	1560	1560	1560	1560	1560	1560	1567	1567	1574	1574	0	0	1259	1259	1268	1268	1268	1272	0	0	0	0	0	1560	1560	1560	0	0	0	0	0	0	0	0	0	0	0	0	0	0	0	0	0	0	0	0	0	0	0	0	0	0	0	0	0	0	0	0	0
0	0	0	0	0	0	0	0	0	0	0	0	0	0	0	0	0	0	0	0	0	0	0	0	0	0	0	0	0	974	974	977	977	977	977	977	980	980	983	983	985	985	988	988	988	991	994	994	997	997	997	997	1000	1000	1000	1000	1003	1006	1006	1008	1008	1011	1011	1011	1014	1017	1020	1020	1020	1023	1023	1026	1030	1030	1033	1033	1036	1036	1036	1039	1042	1045	1045	1045	1048	1052	1055	1058	1058	1058	1058	1061	1061	0	0	852	852	854	852	850	831	831	829	829	829	831	831	831	833	835	835	839	839	841	843	843	845	848	845	845	848	884	884	884	884	889	891	894	894	896	896	898	901	901	903	903	905	905	905	908	908	0	0	693	693	693	693	690	689	687	687	687	687	687	687	687	690	690	691	693	693	694	695	695	697	697	698	698	698	700	700	700	0	0	0	0	0	0	0	983	983	985	985	985	991	991	994	997	997	1000	1003	1003	1006	1006	1006	1006	0	0	0	0	0	0	0	0	0	0	0	0	508	507	507	506	505	505	501	500	499	499	498	498	499	492	492	492	490	490	490	491	491	490	490	491	491	491	491	491	491	491	491	491	491	491	491	491	491	491	491	491	492	492	492	493	493	493	493	493	493	494	495	495	495	495	494	494	495	495	496	497	496	496	497	497	497	497	497	498	498	498	498	498	498	497	497	497	497	498	499	499	499	500	499	499	500	500	499	499	500	500	500	501	501	501	501	501	501	501	501	502	502	502	502	502	502	504	504	504	504	504	504	504	504	504	504	505	505	505	506	506	506	507	506	506	506	506	506	505	505	505	505	505	505	505	505	505	507	509	509	510	510	510	510	510	510	510	510	510	512	513	513	513	514	516	516	518	519	519	520	521	523	524	527	527	528	529	530	531	532	535	536	538	538	539	539	539	0	0	0	0	0	0	0	0	0	0	0	0	0	0	0	1036	1036	1036	1036	1036	1036	1036	1036	1036	1036	1036	1036	1036	1036	1036	1033	1033	1036	1033	1033	1030	1026	1026	1026	1026	1026	1023	1023	1023	1023	1023	1023	1023	1023	1023	1020	1020	1020	1017	1017	1020	1020	1017	1017	1017	1017	1014	1014	1014	1014	1014	1011	1011	1011	1011	1011	1011	1011	1011	1011	1011	1011	1011	1011	1011	1011	0	0	0	0	0	1486	1480	1480	1492	1492	1492	1492	1492	1492	1486	1486	1486	1492	1492	1492	1506	1506	1506	1506	1506	1506	1506	1506	1499	1499	1506	1506	1506	1506	1506	1512	1506	1506	1506	1506	1506	1506	1512	1512	1519	1512	1512	1519	1519	1519	1519	1512	1512	1519	1519	1525	1525	1525	1525	1525	1525	1525	1525	1525	1525	1525	1525	1525	1525	1525	1532	1532	1532	1532	1539	1546	1532	1525	1525	1525	1525	1532	1532	1532	1532	1539	1539	1539	1539	1539	1539	1539	1532	1532	1546	1546	1546	1546	1546	1546	1553	1553	1553	1553	1553	1553	1553	1560	1560	1560	1560	1567	1567	1567	1567	1560	1560	1560	1560	1560	1560	1560	1567	1567	1567	1567	0	0	1259	1259	1268	1268	1268	0	0	0	0	0	1553	1553	1553	1560	1567	1553	1553	1567	1567	0	0	0	0	0	0	0	0	0	0	0	0	0	0	0	0	0	0	0	0	0	0	0	0	0	0	0	0
0	0	0	0	0	0	0	0	0	0	0	0	0	0	0	0	0	0	0	0	0	0	0	0	0	0	0	0	0	977	977	977	977	977	977	980	980	983	985	985	985	985	988	988	988	991	994	997	997	997	1000	1000	1000	1000	1003	1003	1006	1006	1008	1008	1011	1011	1011	1014	1014	1017	1020	1020	1023	1023	1023	1026	1030	1030	1033	1033	1036	1036	1036	1039	1042	1045	1048	1048	1048	1052	1055	1058	1058	1061	1061	1061	1061	0	858	852	852	854	852	852	829	829	831	831	831	831	831	833	833	835	839	841	841	841	843	845	845	848	845	845	848	884	884	884	887	889	891	894	894	896	896	901	901	903	903	903	905	908	908	908	910	910	0	0	693	693	693	690	689	687	687	687	687	687	687	687	689	690	691	693	693	694	695	695	697	697	697	697	698	698	700	700	0	0	0	0	0	0	0	983	983	985	985	988	991	991	994	997	997	1000	1003	1003	1006	1006	1006	1006	1008	1008	1008	0	0	0	0	0	0	0	0	0	0	507	507	506	505	503	502	500	499	499	499	499	499	491	491	491	488	488	488	488	488	488	490	490	490	490	490	490	490	491	491	491	491	491	491	490	490	490	491	491	491	491	491	491	492	493	493	492	493	493	493	493	495	494	493	493	494	494	494	496	494	494	496	496	496	496	497	497	497	497	496	496	496	496	496	496	496	497	498	498	498	499	499	499	499	499	499	499	499	499	499	500	500	500	500	500	500	500	500	500	501	501	501	501	502	503	503	503	503	503	503	503	503	503	503	504	504	504	505	505	505	506	506	506	505	505	505	504	504	505	505	505	505	505	505	505	506	506	507	507	508	509	509	509	509	509	510	510	512	512	513	513	514	516	517	519	519	519	520	522	523	526	527	528	529	529	530	531	532	536	537	538	538	538	539	0	0	0	0	0	0	0	0	0	0	0	0	0	0	1036	1036	1036	1036	1036	1036	1036	1036	1036	1036	1036	1036	1036	1036	1036	1036	1036	1036	1036	1036	1033	1033	1030	1030	1026	1026	1026	1026	1026	1023	1023	1023	1023	1023	1023	1023	1023	1020	1020	1020	1020	1020	1020	1020	1020	1017	1017	1017	1014	1014	1014	1014	1014	1011	1011	1011	1011	1011	1011	1011	1011	1011	1011	1011	1011	1011	1011	1011	0	0	0	0	1480	1480	1480	1480	1486	1486	1486	1486	1486	1486	1480	1480	1486	1486	1486	1492	1492	1499	1499	1499	1499	1506	1506	1506	1499	1499	1499	1499	1499	1499	1506	1506	1506	1506	1506	1506	1506	1506	1506	1506	1512	1512	1512	1512	1512	1512	1512	1512	1512	1519	1519	1519	1519	1519	1525	1525	1525	1519	1519	1519	1519	1519	1519	1519	1525	1525	1525	1525	1525	1525	1532	1532	1532	1525	1519	1519	1525	1525	1525	1525	1525	1532	1532	1539	1539	1532	1532	1532	1532	1532	1532	1532	1532	1546	1546	1546	1546	1553	1553	1553	1553	1553	1553	1553	1553	1560	1560	1567	1567	1560	1560	1560	1560	1560	1560	1560	1560	1560	1567	1567	1567	1567	0	0	1259	1259	1272	1272	1268	0	0	0	0	1553	1553	1553	1553	1560	1553	1553	1553	1560	1567	1574	1574	0	0	0	0	0	0	0	0	0	0	0	0	0	0	0	0	0	0	0	0	0	0	0	0	0	0
0	0	0	0	0	0	0	0	0	0	0	0	0	0	0	0	0	0	0	0	0	0	0	0	0	0	0	0	0	977	977	977	977	977	980	980	983	983	985	985	985	985	988	988	988	991	994	997	997	997	1000	1000	1000	1003	1003	1003	1006	1008	1008	1008	1011	1011	1014	1014	1017	1020	1020	1020	1023	1023	1023	1026	1030	1033	1033	1036	1036	1036	1039	1039	1045	1045	1045	1048	1048	1055	1058	1058	1058	1061	1061	1061	0	0	858	856	856	856	854	854	829	829	831	831	831	831	831	833	835	837	839	841	841	843	843	845	845	848	848	848	848	884	884	887	887	891	891	894	894	896	898	901	901	903	905	905	905	908	910	910	910	910	0	0	0	0	693	690	689	686	686	687	686	686	687	687	689	690	691	691	693	694	695	695	697	697	697	697	698	698	701	701	0	0	0	0	0	0	0	983	983	985	988	988	991	994	994	997	997	1000	1003	1006	1006	1006	1008	1008	1008	1008	1008	0	0	0	0	0	0	0	0	0	0	0	0	0	503	502	502	501	501	500	500	500	500	489	489	489	488	488	488	488	488	488	489	489	489	489	489	489	489	489	489	489	490	490	490	490	490	490	490	490	490	491	491	491	491	491	491	491	491	491	493	493	494	493	493	493	494	493	493	493	493	493	494	493	493	496	496	496	496	496	496	496	496	495	495	496	496	496	497	497	498	498	498	498	498	498	498	498	498	498	499	499	499	499	499	499	499	499	499	500	500	500	501	501	500	500	501	501	501	501	501	502	502	502	503	503	504	504	504	504	504	505	505	505	505	505	505	504	504	505	505	505	505	504	504	504	505	505	506	507	507	507	507	507	508	508	510	510	512	512	513	513	514	516	519	519	519	520	522	523	526	527	528	529	530	530	531	532	532	532	537	538	538	538	0	0	0	0	0	0	0	0	0	0	0	0	0	1036	1036	1036	1036	1036	1036	1036	1036	1036	1036	1036	1036	1036	1036	1036	1036	1036	1036	1036	1036	1036	1036	1033	1033	1030	1026	1026	1026	1026	1026	1026	1023	1023	1023	1023	1023	1023	1023	1023	1020	1020	1020	1020	1020	1020	1020	1020	1017	1017	1014	1014	1014	1014	1014	1014	1011	1011	1011	1011	1011	1011	1011	1011	1011	1011	1011	1011	1011	1011	1011	0	0	0	0	1480	1480	1480	1480	1480	1480	1480	1480	1480	1480	1480	1480	1480	1486	1486	1486	1492	1492	1492	1492	1492	1499	1499	1499	1499	1499	1499	1499	1499	1499	1499	1499	1499	1499	1499	1506	1506	1506	1506	1506	1512	1506	1506	1506	1506	1506	1506	1506	1506	1512	1512	1512	1512	1512	1519	1519	1519	1519	1519	1519	1519	1519	1519	1519	1525	1525	1525	1525	1525	1525	1525	1525	1525	1512	1512	1519	1519	1525	1525	1525	1525	1525	1532	1532	1532	1525	1525	1525	1525	1525	1525	1532	1532	1539	1539	1539	1546	1546	1546	1546	1546	1546	1546	1546	1553	1553	1553	1560	1560	1560	1560	1560	1560	1560	1560	1560	1560	1560	1567	1567	1567	1574	1574	0	1263	1263	1272	1272	0	0	0	0	0	1553	1553	1553	1553	1560	1553	1546	1546	1553	1553	1525	1525	1539	1539	0	0	0	0	0	0	0	0	0	0	0	0	0	0	0	0	0	0	0	0	0	0	0	0
0	0	0	0	0	0	0	0	0	0	0	0	0	0	0	0	0	0	0	0	0	0	0	0	0	0	0	0	0	977	977	977	977	977	980	980	983	983	985	985	985	988	988	991	991	994	997	997	997	1000	1000	1000	1000	1003	1003	1006	1008	1008	1008	1011	1011	1011	1014	1014	1017	1020	1020	1020	1023	1023	1026	1030	1030	1033	1033	1036	1036	1039	1042	1042	1045	1045	1045	1048	1048	1058	1058	1058	1058	1061	1061	1061	0	0	860	858	858	858	856	856	856	829	829	831	831	831	831	833	835	837	841	841	841	843	845	845	848	848	848	848	848	887	887	889	889	891	894	894	896	896	898	901	901	901	905	908	910	910	910	910	910	910	0	0	0	0	694	694	687	686	686	687	686	686	687	687	689	690	691	691	693	694	694	695	697	697	697	697	700	700	701	701	0	0	0	0	0	0	0	983	985	985	988	994	994	994	994	997	1000	1000	1003	1006	1006	1008	1008	1008	1011	1014	1014	0	0	0	0	0	0	0	0	0	0	0	0	0	503	502	502	501	501	500	500	500	499	489	489	489	488	488	488	488	488	488	488	488	488	488	488	488	488	488	488	489	489	489	489	489	489	489	489	489	489	490	491	491	491	491	491	491	490	490	491	493	493	493	493	493	493	493	493	493	493	493	493	493	493	494	495	496	496	496	495	495	494	493	493	494	495	496	496	496	496	497	498	498	498	498	498	498	498	498	498	498	498	498	498	499	499	499	499	499	500	500	499	499	499	499	499	500	500	501	501	501	501	501	502	502	502	503	504	503	503	504	504	504	504	504	504	504	504	504	504	504	504	504	504	504	504	504	504	504	507	507	507	507	507	508	510	510	512	513	513	514	516	517	519	519	520	521	523	525	526	528	529	530	531	531	532	532	533	533	0	0	0	0	0	0	0	0	0	0	0	0	0	0	0	0	1039	1036	1036	1036	1036	1036	1036	1036	1036	1036	1036	1036	1036	1036	1036	1036	1036	1036	1036	1036	1036	1036	1036	1033	1033	1030	1026	1026	1026	1026	1026	1026	1026	1023	1023	1023	1023	1023	1023	1023	1020	1020	1020	1020	1020	1017	1017	1017	1017	1017	1014	1014	1014	1014	1014	1014	1011	1011	1011	1011	1011	1011	1011	1011	1011	1011	1011	1011	1011	1011	1011	0	0	0	0	1467	1473	1480	1480	1480	1480	1480	1480	1480	1480	1480	1480	1480	1480	1480	1486	1486	1492	1492	1492	1492	1499	1499	1499	1492	1492	1492	1492	1499	1499	1499	1499	1499	1499	1499	1499	1499	1499	1506	1506	1506	1506	1506	1506	1506	1506	1506	1506	1506	1506	1506	1512	1512	1506	1506	1506	1519	1519	1519	1519	1519	1519	1519	1519	1519	1519	1519	1519	1519	1519	1512	1512	1512	1506	1506	1512	1519	1519	1525	1525	1525	1525	1525	1525	1525	1525	1525	1525	1525	1525	1525	1532	1532	1532	1532	1539	1539	1539	1546	1546	1546	1546	1546	1546	1546	1546	1546	1553	1553	1553	1553	1553	1553	1553	1553	1553	1553	1560	1560	1560	1560	1574	1268	1263	1263	1263	1263	1263	1263	0	0	0	0	1546	1546	1546	1546	1546	1546	1546	1546	1546	1539	1525	1525	1532	1532	1539	1539	0	0	0	0	0	0	0	0	0	0	0	0	0	0	0	0	0	0	0	0	0	0
0	0	0	0	0	0	0	0	0	0	0	0	0	0	0	0	0	0	0	0	0	0	0	0	0	0	0	0	0	977	977	977	980	980	980	980	983	985	985	985	988	988	988	991	994	994	997	997	997	1000	1000	1000	1003	1006	1006	1006	1008	1008	1011	1011	1011	1014	1014	1017	1017	1020	1020	1023	1023	1026	1026	1030	1033	1033	1036	1036	1042	1042	1042	1045	1045	1045	1048	1048	1048	1058	1058	1061	1061	1061	1061	1061	0	862	862	860	860	860	856	856	856	829	829	829	831	831	831	833	835	837	841	841	841	843	845	845	848	848	848	848	848	848	887	889	889	891	894	896	896	896	898	901	903	905	908	908	910	910	910	910	910	910	910	910	0	0	694	694	687	686	686	686	686	686	687	687	689	689	690	691	693	694	694	695	697	697	697	697	698	698	698	698	0	0	0	0	0	0	0	0	985	985	988	994	994	994	994	997	1000	1003	1006	1006	1006	1008	1008	1011	1011	1014	1014	0	0	0	0	0	0	0	0	0	0	0	0	0	504	503	503	502	502	501	500	499	496	493	489	489	489	488	488	488	487	487	487	487	487	487	486	486	487	487	487	488	488	489	489	489	489	489	489	489	489	489	490	490	490	490	490	490	489	489	489	491	491	490	490	491	491	491	491	493	493	493	492	492	493	493	493	493	493	493	493	493	493	493	493	493	494	494	494	494	494	494	496	497	496	496	496	496	496	496	496	496	498	498	498	498	498	498	498	498	499	499	499	499	499	499	499	499	500	501	501	501	501	501	501	502	502	502	502	502	502	503	504	503	503	504	504	504	504	504	503	503	503	503	503	503	503	504	504	504	507	507	507	507	507	509	510	510	512	513	514	515	517	518	519	520	520	523	524	526	527	528	529	530	531	532	532	532	535	535	0	0	0	0	0	0	0	0	0	0	0	0	0	0	0	1039	1039	1036	1036	1036	1036	1036	1036	1036	1036	1036	1036	1036	1036	1036	1036	1036	1036	1036	1036	1036	1036	1036	1036	1033	1033	1030	1030	1030	1026	1026	1026	1026	1026	1026	1023	1023	1023	1023	1023	1023	1020	1020	1020	1020	1020	1017	1017	1017	1017	1014	1014	1014	1014	1014	1014	1014	1014	1011	1011	1011	1011	1011	1011	1011	1011	1011	1011	1011	1011	1011	1011	0	0	0	0	1461	1461	1473	1473	1480	1473	1473	1473	1473	1473	1473	1473	1480	1480	1480	1480	1480	1480	1480	1492	1492	1492	1499	1492	1492	1492	1492	1492	1492	1492	1492	1492	1492	1492	1492	1492	1499	1499	1499	1499	1499	1499	1499	1499	1499	1499	1506	1506	1506	1506	1506	1506	1506	1506	1506	1506	1512	1512	1512	1512	1512	1512	1519	1519	1519	1519	1519	1512	1512	1512	1506	1506	1506	1506	1506	1506	1512	1519	1519	1519	1525	1525	1525	1525	1525	1525	1525	1525	1525	1525	1525	1525	1525	1532	1532	1539	1539	1539	1539	1539	1546	1539	1539	1539	1539	1539	1546	1546	1553	1553	1553	1553	1553	1553	1553	1553	1553	1553	1553	1560	1560	0	1268	1263	1263	1263	1263	1263	1263	0	0	0	0	1546	1546	1546	1546	1546	1546	1539	1539	1539	1532	1525	1525	1532	1532	1525	1525	1525	0	0	0	0	0	0	0	0	0	0	0	0	0	0	0	0	0	0	0	0	0
0	0	0	0	0	0	0	0	0	0	0	0	0	0	0	0	0	0	0	0	0	0	0	0	0	0	0	0	0	977	977	977	980	980	980	980	983	985	985	988	988	988	991	991	994	997	997	997	1000	1000	1000	1003	1003	1006	1006	1006	1008	1008	1011	1011	1014	1014	1017	1017	1020	1020	1020	1023	1023	1026	1026	1030	1030	1033	1036	1039	1042	1042	1042	1045	1045	1045	1048	1048	1052	1058	1058	1061	1061	1061	1061	0	0	862	862	860	860	860	856	856	856	856	829	829	831	833	833	833	837	839	841	841	843	843	845	848	848	848	848	848	848	848	889	889	891	891	894	894	896	898	901	901	903	905	908	910	910	910	913	913	913	913	910	910	0	0	697	697	689	686	686	686	686	686	687	687	689	689	690	691	693	693	694	694	695	697	697	697	698	698	698	698	0	0	0	0	0	0	0	0	985	985	988	994	994	994	997	997	1000	1003	1006	1006	1008	1008	1011	1011	1014	1017	1017	0	0	0	0	0	0	0	0	0	0	0	0	0	504	503	503	502	502	501	500	498	495	493	493	493	491	488	488	487	487	486	485	485	485	485	486	486	486	487	487	488	488	488	488	488	488	488	487	487	488	488	489	489	489	489	489	489	489	489	489	490	490	490	490	490	491	490	490	491	491	492	491	491	491	491	491	491	491	492	492	493	493	493	493	493	493	493	493	493	493	493	494	494	494	493	493	494	494	495	495	495	497	497	497	497	497	497	497	497	498	498	498	498	498	498	499	499	499	500	500	501	501	501	501	501	501	501	501	501	501	502	503	502	502	503	502	502	501	501	501	500	500	501	501	501	501	503	503	504	505	506	506	507	507	509	510	512	512	514	515	516	517	517	519	520	522	523	525	526	527	528	529	529	531	532	532	532	532	535	0	0	0	0	0	0	0	0	0	0	0	0	0	0	1039	1039	1039	1039	1039	1036	1036	1036	1036	1036	1036	1036	1036	1036	1036	1036	1036	1036	1036	1036	1036	1036	1036	1036	1036	1036	1033	1033	1030	1030	1030	1026	1026	1026	1026	1026	1023	1023	1023	1023	1023	1023	1020	1020	1020	1020	1020	1017	1017	1017	1017	1014	1014	1014	1014	1014	1014	1014	1014	1011	1011	1011	1011	1011	1011	1011	1011	1011	1011	1011	1011	1011	1011	0	0	0	0	1461	1461	1473	1473	1473	1473	1473	1473	1473	1473	1473	1473	1473	1480	1480	1480	1480	1480	1480	1486	1486	1486	1492	1492	1486	1486	1492	1492	1492	1492	1492	1486	1486	1486	1486	1486	1486	1492	1492	1492	1499	1499	1499	1499	1499	1499	1499	1499	1499	1499	1499	1506	1506	1506	1506	1506	1506	1506	1506	1506	1512	1512	1512	1519	1512	1512	1512	1512	1506	1506	1506	1506	1499	1499	1499	1506	1512	1512	1512	1519	1519	1519	1519	1519	1519	1519	1519	1519	1519	1519	1525	1525	1525	1525	1532	1532	1539	1539	1539	1539	1539	1532	1532	1532	1532	1532	1539	1546	1546	1546	1553	1553	1546	1546	1553	1546	1546	1546	1546	1546	1560	1272	1268	1263	1263	1263	1268	1272	1272	0	0	0	0	1532	1532	1539	1539	1539	1539	1532	1532	1532	1525	1525	1525	1525	1525	1525	1519	1519	1519	0	0	0	0	0	0	0	0	0	0	0	0	0	0	0	0	0	0	0	0
0	0	0	0	0	0	0	0	0	0	0	0	0	0	0	0	0	0	0	0	0	0	0	0	0	0	0	0	0	977	977	980	980	980	983	983	983	985	988	988	988	988	991	991	994	997	997	997	1000	1000	1000	1003	1003	1006	1008	1008	1008	1011	1011	1011	1014	1014	1017	1017	1020	1020	1020	1023	1023	1026	1026	1030	1033	1033	1036	1039	1042	1042	1042	1045	1045	1045	1048	1048	1055	1058	1058	1061	1061	1061	1061	0	0	862	862	858	858	860	856	856	856	856	833	831	831	833	833	835	837	839	841	841	843	843	845	848	848	848	848	848	848	889	889	891	891	891	894	896	896	898	901	903	903	908	908	910	910	913	913	913	913	913	0	0	0	0	697	697	689	686	686	687	687	687	687	687	687	689	690	691	693	693	694	694	695	695	697	698	698	698	698	698	0	0	0	0	0	0	0	0	985	988	988	994	994	994	997	1000	1000	1003	1006	1008	1008	1008	1014	1014	1014	1017	1017	0	0	0	0	0	0	0	0	0	0	0	0	0	504	503	503	502	501	500	499	497	495	494	494	493	493	489	488	487	485	485	484	484	484	485	485	485	485	485	486	486	486	486	487	487	487	487	487	487	487	487	487	487	487	488	488	488	487	487	487	489	489	489	489	490	490	490	489	489	490	489	489	490	491	491	491	491	491	491	491	492	492	492	491	491	492	492	492	492	492	492	493	492	492	492	492	493	493	493	494	494	496	496	496	496	496	496	496	496	496	496	497	497	498	498	498	498	497	497	498	498	499	498	498	498	498	498	499	499	499	499	499	499	499	499	499	500	499	498	498	499	500	500	501	501	501	502	504	504	505	506	508	509	509	510	511	513	513	515	516	516	518	520	521	522	523	523	525	528	528	528	529	529	531	532	532	532	532	0	0	0	0	0	0	0	0	0	0	0	1042	1042	1039	1039	1039	1039	1039	1039	1039	1039	1039	1039	1036	1036	1036	1036	1036	1036	1036	1036	1036	1036	1036	1036	1036	1036	1036	1036	1036	1036	1033	1033	1030	1030	1030	1026	1026	1026	1026	1026	1023	1023	1023	1023	1023	1023	1020	1020	1020	1020	1020	1017	1017	1017	1017	1017	1017	1014	1014	1014	1014	1014	1014	1014	1014	1011	1011	1011	1011	1011	1011	1011	1011	1011	1011	1011	1011	0	0	0	1455	1455	1455	1461	1467	1467	1467	1467	1467	1473	1473	1473	1473	1473	1473	1473	1480	1473	1473	1473	1473	1473	1467	1467	1480	1480	1486	1486	1486	1486	1486	1486	1486	1486	1486	1486	1486	1486	1486	1486	1486	1492	1492	1492	1492	1492	1492	1499	1499	1499	1499	1499	1499	1499	1499	1499	1506	1506	1506	1506	1506	1506	1506	1512	1512	1512	1512	1512	1506	1506	1506	1506	1506	1499	1499	1499	1506	1512	1512	1512	1512	1519	1519	1519	1519	1519	1519	1519	1519	1519	1519	1519	1525	1525	1525	1532	1532	1532	1532	1532	1532	1532	1525	1525	1525	1525	1532	1532	1532	1532	1546	1546	1546	1546	1546	1546	1546	1546	1539	1539	1539	0	1268	1268	1263	1263	1263	1268	1268	1268	0	0	0	0	1532	1532	1532	1532	1532	1532	1532	1532	1525	1525	1525	1525	1525	1525	1525	1519	1519	1519	0	0	0	0	0	0	0	0	0	0	0	0	0	0	0	0	0	0	0	0
0	0	0	0	0	0	0	0	0	0	0	0	0	0	0	0	0	0	0	0	0	0	0	0	0	0	0	0	0	977	977	980	980	983	983	983	985	985	988	988	988	988	991	994	997	997	997	1000	1000	1000	1000	1003	1003	1006	1008	1008	1008	1011	1011	1014	1017	1020	1020	1020	1020	1020	1023	1023	1023	1026	1030	1030	1033	1033	1036	1042	1042	1042	1045	1045	1045	1045	1048	1052	1055	1058	1058	1058	1058	1058	1058	0	0	865	862	858	858	860	856	856	856	856	833	833	833	835	835	837	839	841	841	843	843	845	848	848	848	848	848	848	891	891	891	891	891	894	894	898	898	901	901	903	903	908	910	910	913	913	913	910	910	913	0	0	0	698	697	697	690	687	687	687	687	687	687	687	687	689	690	691	693	693	694	694	695	695	697	698	698	698	698	701	703	703	0	0	0	0	0	0	0	988	988	994	994	994	997	1000	1003	1006	1006	1008	1008	1008	1014	1014	1014	1017	1017	1017	0	0	0	0	0	0	0	0	0	0	0	0	504	503	503	502	501	500	499	497	496	495	494	494	493	491	491	492	485	484	484	484	484	484	484	484	484	484	484	484	484	484	485	485	485	487	486	485	487	486	486	486	486	487	487	487	486	486	487	487	487	488	488	488	488	488	488	488	488	488	488	488	489	489	489	489	489	490	490	491	491	491	491	491	491	491	491	491	491	491	491	492	491	491	491	493	493	493	493	493	494	495	495	495	493	494	495	495	496	496	496	496	496	496	496	496	496	496	496	496	496	496	496	497	497	498	498	498	498	498	498	498	498	498	498	498	498	498	498	498	499	500	501	501	501	502	504	504	507	507	508	509	509	510	511	513	514	516	516	517	519	520	521	522	523	523	525	525	528	528	0	0	0	0	0	0	0	0	0	0	0	0	0	0	0	0	0	1039	1039	1039	1039	1039	1039	1039	1039	1039	1039	1039	1039	1039	1039	1036	1036	1036	1036	1036	1036	1036	1036	1036	1036	1036	1036	1036	1036	1036	1036	1036	1033	1033	1033	1033	1030	1030	1026	1026	1026	1026	1026	1023	1023	1023	1023	1023	1020	1020	1020	1020	1020	1020	1020	1020	1017	1017	1017	1017	1017	1017	1014	1014	1011	1011	1014	1011	1011	1011	1011	1011	1011	1011	1011	1011	1011	1011	1011	0	0	0	1449	1449	1455	1461	1467	1467	1467	1467	1467	1467	1467	1467	1467	1473	1473	1473	1473	1473	1473	1473	1473	1473	1461	1461	1467	1480	1480	1480	1480	1486	1486	1486	1480	1480	1480	1480	1480	1480	1480	1480	1480	1486	1486	1486	1486	1486	1486	1486	1492	1492	1492	1492	1492	1499	1499	1499	1499	1499	1499	1499	1499	1506	1506	1506	1506	1506	1506	1506	1506	1506	1506	1506	1506	1506	1506	1499	1506	1512	1512	1512	1512	1519	1519	1519	1519	1519	1519	1519	1519	1519	1519	1519	1519	1519	1525	1525	1525	1525	1525	1525	1525	1525	1525	1525	1525	1525	1525	1525	1525	1532	1532	1532	1539	1539	1539	1546	1539	1539	1532	1532	1532	0	1268	1263	1263	1263	1263	1268	1268	1268	0	0	0	1525	1525	1525	1525	1525	1525	1525	1525	1525	1525	1519	1519	1519	1519	1525	1525	1519	1519	1519	0	0	0	0	0	0	0	0	0	0	0	0	0	0	0	0	0	0	0	0
0	0	0	0	0	0	0	0	0	0	0	0	0	0	0	0	0	0	0	0	0	0	0	0	0	0	0	0	0	980	980	980	983	983	983	985	985	985	988	988	991	991	994	994	997	997	1000	1000	1000	1000	1000	1003	1003	1006	1008	1008	1011	1011	1014	1014	1017	1020	1020	1023	1023	1023	1023	1023	1026	1026	1030	1030	1033	1036	1039	1042	1042	1045	1045	1048	1048	1048	1048	1052	1055	1058	1058	1058	1058	1058	1058	0	0	865	865	862	860	860	856	854	854	850	850	835	835	837	837	839	839	841	841	843	845	845	848	848	848	850	850	850	894	891	891	891	891	894	896	898	901	901	903	903	905	908	910	910	913	913	915	910	910	0	0	0	0	698	697	697	694	689	687	687	687	687	687	687	687	689	690	691	693	693	693	694	694	695	697	698	698	698	700	701	703	703	0	0	0	0	0	0	0	994	994	997	997	997	997	1003	1003	1006	1008	1008	1008	1008	1011	1011	1014	1014	1014	1277	1282	1282	0	0	0	0	0	0	0	0	0	0	0	503	503	503	503	500	498	497	496	495	494	494	493	493	492	492	485	484	483	483	484	483	483	483	484	484	484	482	482	482	482	483	483	483	483	484	485	484	484	484	484	485	487	486	485	485	486	487	487	487	487	487	487	487	487	487	487	487	487	487	488	488	488	488	488	489	489	489	489	489	490	490	491	491	491	491	491	491	491	491	491	491	491	492	492	491	491	491	491	491	491	491	492	493	493	494	494	494	494	495	493	493	496	495	494	494	495	495	495	495	496	496	496	496	496	496	496	497	497	497	497	497	498	498	498	497	497	498	498	499	501	501	501	504	504	507	507	508	509	509	510	511	513	514	516	516	517	518	519	521	521	523	523	524	524	525	0	0	0	0	0	0	0	0	0	0	0	0	0	0	0	0	0	0	1042	1039	1039	1039	1039	1039	1039	1039	1039	1039	1039	1039	1039	1039	1039	1039	1036	1036	1036	1036	1036	1036	1036	1036	1036	1036	1036	1036	1036	1036	1036	1033	1033	1033	1030	1030	1030	1030	1026	1026	1026	1026	1026	1023	1023	1023	1023	1023	1020	1020	1020	1020	1020	1020	1020	1020	1020	1020	1020	1017	1017	1017	1017	1014	1011	1011	1011	1011	1011	1011	1011	1011	1011	1011	1011	1011	1011	1011	1011	0	0	1449	1449	1449	1449	1455	1461	1461	1461	1461	1467	1467	1467	1467	1467	1473	1473	1473	1473	1473	1473	1467	1467	1467	1461	1461	1467	1473	1473	1480	1480	1480	1480	1480	1473	1473	1473	1480	1480	1480	1480	1480	1480	1480	1480	1480	1480	1480	1486	1486	1486	1486	1492	1492	1492	1492	1499	1499	1499	1499	1499	1499	1499	1506	1506	1506	1506	1506	1506	1506	1506	1506	1506	1506	1506	1506	1506	1499	1506	1506	1512	1512	1512	1512	1512	1512	1512	1512	1512	1512	1512	1512	1512	1512	1519	1519	1519	1519	1519	1519	1525	1525	1525	1525	1525	1525	1525	1525	1525	1525	1525	1525	1525	1525	1525	1525	1532	1539	1539	1539	1525	1525	1519	1519	1268	1259	1259	1259	1259	1263	1268	1268	0	0	1525	1519	1519	1519	1525	1525	1525	1525	1525	1525	1525	1519	1519	1519	1519	1519	1519	1519	1519	1519	0	0	0	0	0	0	0	0	0	0	0	0	0	0	0	0	0	0	0	0
0	0	0	0	0	0	0	0	0	0	0	0	0	0	0	0	0	0	0	0	0	0	0	0	0	0	0	0	0	983	983	983	983	983	985	985	988	988	988	991	991	991	994	997	997	997	1000	1000	1000	1000	1000	1003	1003	1006	1008	1008	1011	1011	1014	1017	1020	1020	1023	1023	1023	1023	1023	1026	1026	1030	1033	1033	1033	1036	1039	1042	1042	1045	1045	1048	1048	1048	1048	1052	1055	1058	1058	1058	1058	1058	1058	0	0	867	865	862	860	860	856	854	852	848	845	837	837	837	837	839	841	841	841	843	845	845	848	848	848	850	850	850	894	894	891	891	894	894	898	901	901	903	903	903	905	908	910	913	913	915	917	917	917	0	0	0	0	698	697	697	695	690	689	689	687	687	687	687	687	689	690	691	691	693	693	694	694	695	697	697	698	698	700	701	703	703	0	0	0	0	0	0	0	997	997	997	997	1000	1000	1003	1006	1006	1008	1008	1008	1008	1011	1011	1011	1272	1277	1277	1282	1282	0	0	0	0	0	0	0	0	0	0	0	0	503	503	503	0	498	497	496	495	495	494	493	493	492	492	492	483	482	482	482	482	482	482	482	482	483	482	482	482	482	483	483	482	482	483	483	483	483	483	483	485	485	485	485	485	485	485	486	486	487	487	487	485	485	485	486	486	486	487	487	487	487	487	488	487	487	488	488	488	489	489	489	489	489	489	490	490	490	490	491	491	491	491	491	491	491	491	491	491	491	491	491	491	492	491	491	492	493	492	492	493	493	493	493	493	493	492	493	493	493	493	495	495	495	496	496	496	496	496	496	496	497	497	497	497	497	498	498	499	500	501	502	504	504	507	508	508	510	510	510	512	513	515	516	516	518	518	519	521	522	523	523	523	524	0	0	0	0	0	0	0	0	0	0	0	0	0	0	0	0	0	1042	1042	1042	1039	1039	1039	1039	1039	1039	1039	1039	1039	1039	1039	1039	1039	1039	1039	1039	1036	1036	1036	1036	1036	1036	1036	1036	1036	1036	1036	1036	1036	1036	1036	1036	1033	1033	1030	1030	1030	1026	1026	1026	1026	1026	1023	1023	1023	1023	1023	1023	1020	1020	1020	1020	1020	1020	1020	1020	1020	1020	1017	1017	1017	1017	1014	1011	1011	1011	1011	1011	1011	1011	1011	1011	1011	1011	1011	1014	1014	1011	0	0	1443	1443	1449	1449	1455	1461	1461	1461	1461	1461	1461	1461	1467	1467	1467	1467	1467	1473	1467	1467	1467	1467	1461	1461	1461	1467	1473	1473	1473	1473	1473	1473	1473	1473	1473	1473	1473	1473	1473	1473	1480	1480	1480	1480	1480	1480	1480	1480	1486	1486	1486	1492	1492	1492	1492	1492	1492	1499	1492	1492	1499	1499	1499	1499	1499	1499	1499	1499	1506	1499	1499	1499	1499	1499	1506	1506	1499	1499	1499	1506	1506	1506	1506	1506	1506	1506	1512	1512	1512	1512	1512	1512	1512	1512	1512	1519	1519	1519	1519	1519	1519	1519	1519	1519	1519	1525	1525	1525	1519	1519	1519	1519	1525	1525	1525	1525	1525	1525	1532	1525	1519	1519	1519	0	1259	1259	1259	1259	1263	1263	1263	0	0	1525	1519	1519	1519	1519	1519	1519	1519	1519	1519	1519	1519	1512	1512	1512	1512	1512	1512	1512	1512	0	0	0	0	0	0	0	0	0	0	0	0	0	0	0	0	0	0	0	0
0	0	0	0	0	0	0	0	0	0	0	0	0	0	0	0	0	0	0	0	0	0	0	0	0	0	0	0	0	983	983	983	983	985	985	985	988	988	988	991	994	994	997	997	997	1000	1000	1000	1000	1000	1003	1003	1006	1006	1008	1008	1011	1014	1014	1017	1020	1023	1023	1023	1023	1023	1023	1026	1030	1030	1033	1033	1036	1036	1039	1042	1042	1045	1048	1048	1048	1048	1048	1052	1055	1058	1058	1058	1058	1061	1061	0	0	867	865	865	858	858	856	854	852	848	845	839	839	839	839	839	841	841	843	845	845	848	848	848	850	852	852	852	852	894	894	894	894	898	898	901	901	903	905	905	905	908	910	913	913	917	917	917	920	920	0	0	0	698	695	695	694	690	689	689	687	687	687	687	687	689	690	691	691	693	693	694	694	695	697	697	698	698	698	701	703	703	0	0	0	0	0	0	0	997	997	997	997	1000	1000	1003	1006	1006	1006	1008	1008	1008	1272	1272	1272	1272	1277	1277	1277	1277	0	0	0	0	0	0	0	0	0	0	0	0	0	0	0	0	498	497	496	496	495	494	493	493	492	492	482	482	482	482	481	480	480	480	480	480	480	482	482	482	482	482	482	482	482	482	482	482	482	482	482	482	482	482	484	484	484	485	485	485	485	485	484	484	484	484	485	485	486	486	486	487	487	487	487	486	486	485	485	487	487	487	489	489	489	489	489	489	489	489	489	489	489	490	490	490	490	490	490	490	490	491	491	491	491	491	491	491	492	491	491	491	491	492	492	493	493	491	492	493	493	493	494	494	494	495	495	495	495	496	496	496	496	496	497	497	497	498	498	499	500	504	504	504	507	507	508	509	510	510	511	512	514	515	516	517	518	518	519	522	522	523	523	523	0	0	0	0	0	0	0	0	0	0	0	0	0	0	0	0	1048	1048	1042	1042	1042	1042	1042	1042	1039	1039	1039	1039	1039	1039	1039	1039	1039	1039	1039	1039	1039	1039	1036	1036	1036	1036	1036	1036	1036	1036	1036	1036	1036	1036	1036	1036	1036	1036	1033	1033	1030	1030	1026	1026	1026	1026	1026	1026	1026	1026	1026	1026	1023	1020	1020	1020	1020	1020	1020	1020	1020	1020	1020	1017	1017	1017	1017	1014	1011	1011	1011	1011	1011	1011	1011	1011	1011	1011	1011	1011	1011	1014	0	0	0	1443	1443	1443	1449	1449	1449	1455	1455	1461	1461	1461	1461	1461	1461	1461	1461	1467	1467	1467	1461	1461	1461	1461	1455	1455	1461	1467	1473	1473	1473	1473	1473	1467	1467	1467	1467	1473	1473	1473	1473	1473	1473	1480	1480	1480	1480	1480	1480	1480	1480	1480	1486	1486	1486	1492	1492	1492	1492	1486	1486	1486	1486	1499	1499	1499	1499	1499	1499	1499	1499	1499	1499	1499	1499	1499	1499	1499	1499	1499	1499	1499	1499	1506	1506	1506	1506	1512	1512	1506	1506	1506	1506	1506	1506	1506	1512	1512	1512	1512	1519	1519	1519	1519	1519	1519	1519	1519	1519	1519	1519	1519	1519	1519	1519	1519	1519	1519	1519	1519	1519	1519	1512	1512	0	1259	1259	1259	1259	1263	1263	1263	0	0	1519	1519	1519	1519	1519	1519	1519	1519	1519	1519	1512	1506	1499	1499	1499	1499	1499	1499	1499	1499	0	0	0	0	0	0	0	0	0	0	0	0	0	0	0	0	0	0	0	0
0	0	0	0	0	0	0	0	0	0	0	0	0	0	0	0	0	0	0	0	0	0	0	0	0	0	0	0	0	983	983	985	985	985	988	988	988	988	991	991	994	994	997	997	1000	1000	1000	1000	1003	1003	1003	1006	1006	1008	1008	1011	1011	1014	1017	1017	1020	1023	1023	1023	1023	1026	1026	1030	1030	1030	1033	1033	1033	1033	1039	1042	1042	1045	1048	1048	1048	1048	1052	1055	1055	1058	1061	1061	1061	1061	1068	1071	1071	867	865	865	858	858	854	854	852	850	848	841	841	839	839	839	841	843	843	845	845	848	848	850	850	852	854	854	854	894	894	894	894	898	898	901	903	903	905	905	908	910	910	913	915	917	917	920	920	920	0	0	0	0	695	695	694	693	689	689	687	687	687	687	687	687	690	691	691	693	693	694	694	695	697	697	698	698	698	701	703	703	703	0	0	0	0	0	0	997	997	997	997	997	997	1003	1006	1006	1006	1008	1008	1008	1268	1272	1272	1272	1277	1277	1277	1282	1282	0	0	0	0	0	0	0	0	0	0	0	0	0	0	0	498	496	496	496	495	494	493	493	492	492	482	482	482	482	480	480	480	480	479	479	479	480	481	481	482	482	482	482	482	482	482	482	481	482	482	482	482	482	483	483	484	484	484	484	484	484	484	484	484	484	484	485	484	484	484	485	485	485	485	485	484	484	484	485	487	487	487	485	485	488	488	488	488	487	487	488	488	489	489	489	489	489	489	489	489	490	490	491	491	491	491	491	489	489	490	491	491	491	491	492	492	491	492	492	493	493	493	493	493	494	494	494	494	494	494	496	496	496	496	497	497	498	498	499	501	501	505	505	507	507	508	509	510	510	511	513	514	516	516	518	518	518	519	519	522	0	0	0	0	0	0	0	0	0	0	0	0	0	0	0	0	0	0	1048	1048	1045	1045	1045	1042	1042	1042	1042	1039	1039	1039	1039	1039	1039	1039	1039	1039	1039	1039	1039	1039	1039	1036	1036	1036	1036	1036	1036	1036	1036	1036	1036	1036	1036	1036	1033	1033	1033	1033	1033	1030	1030	1026	1026	1026	1026	1026	1026	1026	1026	1026	1026	1023	1020	1020	1020	1020	1020	1020	1020	1020	1020	1020	1020	1017	1017	1017	1014	1011	1011	1011	1011	1011	1011	1011	1011	1011	1011	1014	1014	1014	0	0	0	0	1443	1443	1443	1443	1449	1449	1455	1455	1455	1455	1455	1461	1461	1461	1461	1461	1461	1461	1461	1455	1461	1461	1455	1455	1455	1461	1461	1467	1467	1467	1467	1467	1467	1467	1467	1467	1467	1467	1473	1473	1473	1473	1473	1480	1473	1473	1473	1480	1480	1480	1480	1480	1486	1486	1486	1486	1486	1486	1486	1486	1486	1486	1486	1486	1486	1492	1499	1499	1492	1492	1492	1492	1499	1499	1499	1499	1492	1492	1499	1499	1499	1499	1499	1506	1506	1506	1512	1512	1506	1506	1506	1506	1506	1506	1506	1506	1506	1506	1506	1512	1512	1512	1512	1512	1512	1519	1512	1512	1512	1512	1512	1519	1519	1519	1519	1519	1519	1519	1519	1519	1519	1512	1512	1512	1259	1259	1259	1259	1259	1259	1259	0	0	1519	1519	1519	1519	1519	1519	1519	1519	1512	1512	1512	1506	1499	1499	1499	1499	1499	1499	1499	1499	0	0	0	0	0	0	0	0	0	0	0	0	0	0	0	0	0	0	0	0
0	0	0	0	0	0	0	0	0	0	0	0	0	0	0	0	0	0	0	0	0	0	0	0	0	0	0	0	0	985	985	985	985	988	988	988	988	991	991	994	997	997	1000	1000	1000	1000	1003	1003	1006	1006	1006	1006	1006	1008	1008	1011	1011	1014	1017	1017	1020	1023	1023	1023	1026	1026	1030	1030	1033	1033	1033	1033	1033	1033	1036	1042	1042	1045	1048	1048	1048	1048	1052	1055	1058	1058	1061	1061	1061	1061	1064	1085	1085	0	0	0	858	858	854	852	852	850	848	843	841	839	839	839	841	843	843	845	848	848	848	850	850	852	854	854	854	894	894	894	894	898	898	901	901	903	905	905	908	910	910	913	915	917	920	920	920	920	0	0	0	0	695	695	695	693	691	689	687	687	687	687	687	687	690	691	691	691	693	694	694	695	695	697	698	698	700	700	701	703	703	0	0	0	0	0	0	997	997	997	997	997	997	1003	1006	1006	1006	1008	1008	1008	1268	1272	1272	1277	1277	1277	1277	1291	1291	0	0	0	0	0	0	0	0	0	0	0	0	0	0	0	0	496	496	496	495	494	493	493	492	492	492	482	482	482	480	480	479	479	479	479	478	478	480	480	480	480	481	481	481	481	481	480	480	480	481	481	482	482	482	482	483	483	484	483	484	482	482	482	482	483	483	483	484	484	484	484	484	484	484	484	484	484	484	484	486	486	485	485	485	487	487	487	486	486	487	487	487	487	487	487	488	489	489	489	489	489	489	490	490	489	489	490	488	488	489	489	490	490	491	491	491	491	491	491	491	492	493	493	493	493	493	493	493	494	494	496	496	496	496	497	497	498	498	498	504	506	506	506	507	508	508	510	510	510	512	513	515	516	517	518	519	519	519	519	0	0	0	0	0	0	0	0	0	0	0	0	0	0	0	0	0	1052	1048	1045	1045	1045	1045	1042	1042	1045	1045	1042	1042	1042	1042	1039	1039	1039	1039	1039	1039	1039	1039	1039	1039	1039	1036	1036	1036	1036	1036	1036	1036	1036	1036	1036	1036	1036	1036	1033	1033	1033	1033	1030	1030	1030	1026	1026	1026	1026	1026	1026	1026	1026	1026	1026	1023	1020	1020	1020	1020	1020	1020	1020	1020	1020	1020	1020	1020	1020	1020	1014	1011	1011	1011	1011	1011	1011	1011	1011	1014	1014	1014	1017	1017	1017	0	0	0	1437	1437	1437	1443	1443	1449	1455	1455	1455	1455	1455	1455	1455	1455	1455	1455	1455	1455	1455	1455	1455	1455	1455	1455	1455	1461	1461	1461	1461	1467	1467	1467	1461	1461	1461	1461	1461	1467	1467	1467	1467	1473	1473	1473	1473	1473	1473	1473	1480	1480	1480	1480	1480	1480	1480	1480	1480	1480	1480	1480	1480	1486	1486	1486	1486	1486	1486	1486	1492	1492	1492	1492	1499	1499	1499	1499	1492	1492	1499	1499	1499	1499	1499	1499	1506	1506	1506	1506	1506	1499	1499	1499	1499	1506	1506	1506	1506	1506	1506	1512	1512	1512	1512	1512	1512	1512	1512	1512	1512	1512	1512	1512	1512	1512	1512	1512	1512	1512	1512	1512	1512	1512	1512	1512	0	1254	1254	1254	1259	1259	1259	0	1512	1512	1519	1519	1519	1519	1512	1512	1512	1506	1506	1499	1492	1492	1492	1492	1492	1492	1499	1499	1499	0	0	0	0	0	0	0	0	0	0	0	0	0	0	0	0	0	0	0	0
0	0	0	0	0	0	0	0	0	0	0	0	0	0	0	0	0	0	0	0	0	0	0	0	0	0	0	0	0	985	985	985	985	988	988	988	991	991	994	994	997	997	1000	1000	1000	1000	1003	1003	1006	1006	1006	1006	1008	1008	1011	1011	1014	1014	1017	1020	1020	1023	1023	1023	1026	1026	1030	1030	1033	1033	1033	1033	1036	1036	1036	1042	1045	1045	1048	1048	1048	1052	1052	1055	1058	1058	1061	1061	1061	1061	1064	1064	1064	0	0	0	860	858	854	852	852	850	848	845	843	841	841	841	843	845	845	848	848	848	850	850	852	854	854	854	856	896	896	896	898	898	898	901	901	903	905	905	908	910	913	913	915	920	920	920	920	920	920	0	0	0	695	697	695	693	691	690	689	689	687	687	687	689	689	690	691	691	693	693	694	695	695	697	697	698	700	701	701	701	701	701	0	0	0	0	0	0	997	997	997	997	1000	1003	1006	1272	1272	1272	1272	1272	1272	1272	1272	1277	1277	1277	1277	1287	1291	1291	0	0	0	0	0	0	0	0	0	0	0	0	0	0	0	496	496	496	494	494	493	493	493	493	485	483	483	482	481	479	479	479	479	479	478	478	479	479	480	480	480	480	480	480	480	480	480	480	480	480	480	480	480	480	479	479	479	482	482	482	480	481	481	482	482	482	483	483	482	482	483	483	484	484	484	484	484	484	484	484	484	484	484	484	484	484	484	485	485	485	485	486	486	486	487	487	487	487	488	488	487	487	488	488	488	487	487	488	488	489	489	490	490	490	490	490	490	490	490	491	491	491	492	493	493	493	493	494	494	496	496	496	497	497	497	498	498	504	504	504	505	506	507	508	509	510	510	511	512	513	514	515	517	518	519	519	519	519	0	0	0	0	0	0	0	0	0	0	0	0	0	0	0	0	1052	1048	1048	1045	1045	1045	1045	1042	1042	1045	1045	1042	1042	1042	1042	1039	1039	1039	1039	1039	1039	1039	1039	1039	1039	1039	1036	1036	1036	1036	1036	1036	1036	1036	1036	1036	1036	1036	1036	1033	1033	1033	1033	1030	1030	1030	1026	1026	1026	1026	1026	1026	1026	1026	1026	1026	1023	1020	1020	1020	1020	1020	1020	1020	1020	1020	1020	1020	1020	1020	1020	1014	1014	1014	1014	1014	1014	1014	1014	1014	1014	1014	1014	1014	1017	1017	0	0	1431	1431	1437	1437	1437	1443	1443	1449	1449	1449	1449	1449	1449	1449	1449	1449	1449	1455	1455	1455	1455	1455	1455	1455	1455	1455	1455	1455	1455	1455	1461	1461	1461	1461	1461	1461	1461	1461	1467	1467	1467	1467	1467	1467	1467	1467	1467	1467	1473	1473	1473	1473	1473	1480	1480	1473	1473	1480	1480	1480	1480	1480	1480	1480	1480	1480	1480	1480	1480	1486	1486	1486	1486	1499	1499	1499	1499	1492	1492	1492	1492	1492	1492	1499	1499	1499	1499	1499	1499	1499	1499	1499	1499	1499	1499	1499	1499	1506	1506	1506	1506	1506	1506	1512	1512	1512	1512	1512	1512	1512	1512	1506	1506	1512	1512	1506	1506	1506	1512	1512	1512	1512	1512	1512	1512	1254	1254	1254	1259	1259	1259	1259	0	1512	1512	1519	1519	1519	1512	1512	1512	1506	1506	1506	1499	1492	1492	1492	1492	1492	1492	1492	1499	1499	0	0	0	0	0	0	0	0	0	0	0	0	0	0	0	0	0	0	0	0
0	0	0	0	0	0	0	0	0	0	0	0	0	0	0	0	0	0	0	0	0	0	0	0	0	0	0	0	0	985	985	988	988	988	988	991	994	994	997	997	1000	1000	1000	1000	1003	1003	1006	1006	1006	1006	1008	1008	1008	1008	1011	1011	1017	1017	1017	1020	1020	1023	1023	1026	1026	1026	1030	1033	1033	1033	1036	1036	1036	1036	1042	1045	1048	1048	1048	1048	1052	1052	1055	1058	1058	1058	1061	1061	1061	1064	1068	1071	1071	0	0	0	860	858	854	852	852	850	848	845	845	841	841	843	843	845	845	848	848	850	850	852	854	854	856	856	856	896	896	898	898	901	901	903	903	905	905	905	910	910	913	913	917	920	920	920	922	920	920	0	0	0	0	697	695	694	693	690	690	689	687	687	687	689	689	690	691	691	693	693	694	695	695	697	698	698	700	701	701	701	701	701	0	0	0	0	0	0	0	997	997	997	1000	1003	1006	1272	1272	1272	1272	1272	1272	1272	1272	1277	1282	1282	1282	1287	1291	1296	1296	1296	0	0	0	0	0	0	0	0	0	0	0	0	0	0	496	496	494	494	493	493	492	492	485	483	483	482	481	479	478	478	478	478	478	477	477	478	479	479	478	478	479	479	479	479	479	479	478	478	478	478	479	479	479	479	479	479	480	479	479	479	479	479	480	480	480	480	482	482	482	482	483	483	483	483	483	483	482	482	482	483	483	484	484	484	484	484	484	484	484	484	485	485	486	487	487	487	487	487	487	487	487	487	488	487	487	487	487	488	489	489	489	489	489	489	489	488	489	489	490	490	491	492	492	492	493	493	493	495	496	497	497	497	497	498	504	504	504	504	505	507	507	508	509	510	510	511	513	513	514	515	517	518	519	519	519	0	0	0	0	0	0	0	0	0	0	0	0	0	0	0	0	0	1052	1048	1045	1045	1045	1045	1045	1045	1045	1045	1045	1045	1042	1042	1042	1039	1039	1039	1039	1039	1039	1039	1039	1039	1039	1039	1036	1036	1036	1036	1036	1036	1036	1036	1036	1036	1036	1036	1036	1036	1033	1033	1033	1030	1030	1030	1026	1026	1026	1026	1026	1026	1026	1026	1026	1026	1023	1020	1020	1020	1020	1020	1020	1020	1020	1020	1020	1020	1020	1020	1020	1014	1014	1014	1014	1017	1014	1014	1014	1014	1014	1014	1014	1017	1017	1017	0	0	1431	1431	1431	1437	1437	1443	1443	1443	1443	1443	1443	1443	1443	1443	1443	1443	1449	1449	1449	1449	1449	1449	1455	1455	1455	1455	1455	1455	1455	1455	1455	1455	1455	1455	1455	1455	1461	1461	1461	1461	1461	1461	1467	1467	1467	1467	1467	1467	1467	1467	1473	1473	1473	1473	1473	1473	1473	1473	1473	1473	1480	1480	1480	1480	1480	1480	1480	1480	1480	1480	1480	1480	1480	1486	1492	1492	1499	1492	1492	1492	1492	1492	1492	1499	1499	1499	1499	1499	1499	1499	1499	1499	1499	1499	1499	1499	1499	1506	1506	1506	1506	1506	1506	1512	1506	1506	1506	1506	1506	1506	1506	1506	1506	1506	1506	1506	1506	1506	1506	1506	1506	1506	1506	1506	0	1254	1254	1259	1259	1259	1259	1263	1263	1512	1512	1512	1519	1512	1512	1506	1506	1506	1499	1499	1492	1486	1486	1486	1486	1486	1486	1492	1492	1492	0	0	0	0	0	0	0	0	0	0	0	0	0	0	0	0	0	0	0	0
0	0	0	0	0	0	0	0	0	0	0	0	0	0	0	0	0	0	0	0	0	0	0	0	0	0	0	0	0	988	988	988	988	988	991	991	994	997	997	1000	1000	1000	1000	1000	1000	1003	1006	1006	1008	1008	1008	1008	1008	1011	1011	1014	1017	1017	1017	1020	1023	1023	1023	1026	1026	1030	1030	1033	1033	1033	1036	1036	1036	1036	1039	1042	1048	1048	1048	1048	1052	1052	1055	1058	1058	1058	1061	1061	1061	1064	1068	1071	1071	0	0	0	860	860	856	852	850	850	848	845	843	843	843	843	843	845	848	848	848	850	850	852	854	854	856	856	856	898	898	898	898	898	901	903	903	905	905	908	910	910	913	913	917	920	920	920	922	922	922	922	922	0	0	697	695	694	693	691	690	689	687	687	687	687	689	690	691	691	691	691	694	695	695	697	698	698	700	700	701	703	703	703	703	0	0	0	0	0	0	0	0	0	0	0	0	1272	1272	1272	1272	1272	1272	1272	1277	1277	1282	1282	1287	1291	1296	1296	1296	1296	0	0	0	0	0	0	0	0	0	0	0	0	0	0	0	0	494	494	493	493	492	492	492	484	484	482	480	480	478	478	478	477	477	476	476	476	477	477	477	478	477	477	477	477	477	478	478	478	478	478	478	478	479	478	478	478	478	478	478	478	478	479	479	479	480	480	480	481	482	482	482	482	482	482	482	482	481	481	481	482	482	482	482	484	484	484	484	483	483	484	484	484	485	486	486	486	487	487	486	486	486	487	487	487	486	487	487	487	488	488	487	487	487	488	488	488	488	489	489	489	490	491	491	492	492	493	493	495	496	497	497	498	498	501	503	504	505	505	506	507	507	508	509	510	511	512	513	514	515	516	517	518	519	519	519	0	0	0	0	0	0	0	0	0	0	0	0	0	0	0	1048	1048	1048	1048	1045	1045	1045	1045	1045	1045	1045	1045	1045	1045	1042	1042	1042	1039	1039	1039	1039	1039	1039	1039	1039	1039	1039	1039	1036	1036	1036	1036	1036	1036	1036	1036	1036	1036	1036	1036	1036	1036	1033	1033	1033	1030	1030	1026	1026	1026	1026	1026	1026	1026	1026	1026	1026	1026	1023	1023	1023	1020	1020	1020	1020	1020	1020	1020	1020	1020	1020	1020	1020	1017	1017	1017	1017	1017	1014	1014	1014	1014	1014	1014	1014	1017	1017	0	0	0	1425	1425	1425	1425	1437	1437	1437	1437	1437	1437	1443	1443	1443	1443	1443	1443	1449	1449	1449	1449	1449	1449	1455	1455	1449	1449	1455	1455	1455	1455	1455	1455	1455	1455	1455	1455	1455	1455	1455	1455	1461	1461	1461	1461	1461	1461	1461	1461	1461	1467	1467	1467	1467	1467	1467	1467	1467	1473	1473	1473	1473	1473	1480	1480	1480	1480	1473	1473	1473	1473	1473	1473	1473	1480	1486	1486	1486	1486	1486	1486	1486	1492	1492	1492	1492	1492	1492	1492	1492	1492	1492	1492	1492	1492	1492	1499	1499	1499	1499	1499	1499	1499	1499	1499	1499	1499	1499	1499	1506	1506	1506	1499	1499	1499	1506	1499	1499	1499	1499	1499	1499	1499	1499	1499	0	1259	1259	1259	1259	1259	1263	1263	1486	1486	1499	1506	1506	1506	1506	1499	1499	1499	1492	1492	1486	1486	1480	1480	1480	1480	1480	1480	1480	1480	0	0	0	0	0	0	0	0	0	0	0	0	0	0	0	0	0	0	0	0
