0	0	0	0	0	0	0	0	0	0	0	0	0	0	0	0	0	0	0	0	0	0	0	0	0	0	0	0	0	0	0	0	0	0	0	0	0	0	0	0	0	0	549	549	549	548	548	546	546	546	545	545	545	545	545	545	545	545	545	545	545	545	544	544	544	544	543	543	544	542	542	542	542	543	543	543	543	543	543	543	543	543	543	542	542	542	542	542	542	542	542	542	542	542	542	542	542	542	542	542	542	542	542	542	542	542	542	543	543	544	544	544	545	547	547	547	548	548	548	548	548	549	549	550	551	552	552	554	554	555	555	556	556	560	562	563	563	565	565	566	567	567	568	569	569	570	569	569	569	569	568	568	567	568	568	568	570	570	569	569	569	568	568	568	568	567	567	568	568	568	568	569	571	572	572	572	572	572	571	571	570	568	568	569	569	569	570	570	569	569	569	569	569	569	569	569	569	568	568	569	568	568	568	568	568	569	567	567	568	568	566	565	565	566	567	568	569	569	569	569	569	569	569	567	567	568	568	568	569	569	569	569	569	569	569	570	569	569	570	570	571	571	571	570	570	570	570	570	568	567	567	567	567	567	565	565	565	568	568	566	566	566	566	566	568	565	565	565	567	567	567	567	565	565	567	567	567	565	565	566	565	565	566	566	566	567	567	567	567	568	568	565	565	565	565	565	565	565	566	566	566	566	566	566	566	566	566	565	565	565	0	519	517	517	515	514	514	513	513	511	510	510	508	507	507	506	506	505	504	504	502	502	502	501	501	501	501	500	498	498	498	498	498	498	499	499	499	499	499	500	500	500	500	500	500	501	501	501	501	501	501	503	503	504	504	504	505	507	510	511	513	513	513	513	513	0	0	0	0	574	574	571	571	572	572	572	571	571	571	574	567	567	568	569	569	571	571	571	571	572	572	571	571	571	571	572	572	571	571	571	571	571	571	571	571	570	570	570	570	570	570	571	571	571	571	571	573	576	577	577	578	578	580	581	581	581	581	574	574	574	575	575	575	574	574	575	575	575	574	574	574	574	576	576	577	578	578	578	578	578	579	579	578	577	577	578	578	578	577	577	578	578	578	578	578	578	580	581	582	583	584	585	586	586	593	593	593	593	603	605	605	607	609	611	611	614	748	747	747	747	747	747	748	748	748	777	777	772	772	770	770	770	770	772	770	768	768	770	770	770	768	768	768	768	770	765	765	765	765	765	767	767	767	767	768	768	768	768	767	765	765	765	765	763	763	763	761	760	760	775	777	777	777	772	770	770	770	0	0	0	0	0	1833	1833	1814	1804	1804	1786	1750	1750	1750	1519	1519	1519	1519	1512	1506	1506	1499	1499	1499	1492	1492	1492	1492	1492	1486	1486	1486	1486	1486	1480	1480	1480	0	1232	1232	1227	1227	1223	1223	1223	1223	1223	1223	1214	1210	1202	1197	1197	1197	1185	1185	1185	1185	1185	1185	1185	1185	1185	0	0	0	0	0	0	0	0	0	0	0	0	0	0	0	0	0	0	0	0
0	0	0	0	0	0	0	0	0	0	0	0	0	0	0	0	0	0	0	0	0	0	0	0	0	0	0	0	0	0	0	0	0	0	0	0	0	0	0	0	0	0	549	549	549	549	549	546	546	546	546	545	545	546	546	545	545	545	545	545	545	545	545	545	545	545	545	545	545	545	545	544	544	544	544	543	543	543	543	543	543	543	543	543	543	543	543	543	542	542	542	542	542	542	542	542	542	542	542	542	542	542	542	543	543	543	543	544	544	544	544	545	545	545	545	547	548	548	548	548	549	549	550	551	551	552	553	553	555	555	556	558	559	561	562	563	564	564	565	565	565	566	566	568	568	567	566	566	566	567	566	566	566	566	568	569	569	569	569	569	569	567	567	567	566	566	567	567	567	566	566	565	565	565	565	565	565	571	565	565	565	565	566	566	566	566	567	566	566	566	567	568	568	568	568	568	568	567	567	567	566	565	565	566	567	566	565	565	565	565	565	565	565	565	566	566	567	567	568	568	565	565	565	565	566	566	566	566	567	568	568	568	568	568	569	568	567	567	566	566	566	566	566	566	565	565	566	568	566	566	565	565	562	562	563	563	564	564	564	565	565	565	565	565	564	564	564	564	564	563	563	563	563	564	564	564	564	564	564	565	565	565	565	565	565	566	566	566	565	565	564	563	563	564	564	564	565	565	565	565	565	565	565	565	565	565	565	565	565	565	0	519	519	517	516	515	515	513	512	511	510	510	508	507	507	506	506	505	505	504	504	503	503	502	502	501	501	500	499	499	499	499	499	499	499	499	500	500	500	501	501	501	501	501	501	501	501	501	501	501	502	503	504	504	504	505	506	507	510	511	513	513	513	513	513	513	0	0	0	567	567	567	568	570	571	570	569	568	567	567	567	567	567	567	567	566	566	567	570	571	570	570	570	571	571	571	571	570	570	571	571	571	570	570	571	571	571	573	570	570	570	570	570	570	570	570	570	567	567	570	570	570	570	581	581	581	581	573	573	574	573	573	573	572	572	572	573	573	572	572	572	573	573	573	573	574	574	572	572	573	573	573	573	573	572	572	572	572	571	571	571	572	573	574	576	577	577	578	579	581	583	585	585	586	586	593	593	0	0	605	605	605	609	611	611	614	745	745	745	745	745	747	747	747	748	750	750	750	772	770	768	768	770	770	770	768	768	768	768	768	767	767	768	768	768	765	763	763	763	765	767	767	767	767	768	768	767	765	761	761	761	761	761	761	760	760	760	758	758	758	777	777	772	770	768	767	767	765	765	765	0	0	1833	1833	1804	1804	1795	1777	1759	1759	1768	1768	1519	1519	1519	1512	1506	1506	1499	1499	1499	1499	1492	1492	1492	1492	1492	1486	1486	1486	1486	1480	1480	1480	1480	1232	1227	1227	1227	1223	1223	1223	1223	1223	1223	1219	1210	1206	1197	1197	1197	1185	1185	1185	1181	1181	1181	1181	1181	1181	0	0	0	0	0	0	0	0	0	0	0	0	0	0	0	0	0	0	0	0
0	0	0	0	0	0	0	0	0	0	0	0	0	0	0	0	0	0	0	0	0	0	0	0	0	0	0	0	0	0	0	0	0	0	0	0	0	0	0	0	0	0	549	549	549	549	549	546	546	546	546	546	546	546	546	546	546	546	546	546	545	545	546	546	546	546	545	545	545	545	545	544	544	544	544	543	543	543	543	543	543	543	543	544	544	544	544	544	542	543	543	543	542	542	543	543	543	543	543	543	544	544	544	544	544	544	544	544	544	545	545	545	545	545	549	549	549	549	549	549	550	550	551	551	551	552	555	555	555	556	557	558	559	562	562	563	564	564	565	565	564	564	565	565	565	565	565	565	566	566	565	565	565	565	565	565	565	565	568	568	568	566	566	566	566	565	565	565	565	565	565	565	565	565	564	564	563	563	563	563	564	564	565	565	565	564	564	564	564	565	565	565	566	567	567	567	567	566	565	565	565	564	564	564	565	563	563	564	563	563	563	563	564	565	565	565	565	565	565	565	565	565	565	565	565	565	565	565	565	565	564	564	564	565	567	565	565	565	565	565	565	565	565	565	565	565	565	564	562	562	562	562	562	562	562	563	563	564	564	564	564	565	565	564	563	563	563	563	562	562	561	561	562	562	562	561	562	562	562	563	563	564	565	565	565	565	565	565	563	562	562	562	562	563	563	563	564	564	564	564	564	563	563	564	564	563	563	564	564	565	565	519	519	518	517	516	516	514	512	511	510	510	508	507	507	507	506	505	505	504	504	504	504	503	502	501	501	501	500	500	500	500	500	500	500	500	500	500	500	501	501	501	501	501	501	501	501	501	501	501	502	503	504	504	505	506	507	508	510	512	513	513	513	513	513	513	0	0	0	567	567	567	567	570	570	570	569	567	567	567	567	567	566	566	565	565	565	565	566	568	568	568	569	569	570	570	568	568	568	569	570	571	570	569	569	569	569	571	569	569	569	569	569	569	569	569	566	566	566	569	570	570	570	0	0	0	0	573	573	574	572	572	572	571	571	571	572	572	572	572	572	572	572	571	571	571	570	570	570	571	571	571	571	571	571	571	571	571	571	571	571	571	572	573	575	576	576	578	579	581	583	585	587	587	587	0	0	0	0	605	605	605	0	0	0	742	742	742	742	742	742	743	743	743	745	747	745	745	743	743	743	742	740	740	742	743	743	743	743	768	765	765	767	767	767	763	761	761	763	765	765	767	767	767	768	767	767	763	760	760	760	760	760	758	758	758	756	756	756	756	758	758	770	768	767	767	767	765	765	765	765	0	1833	1795	1795	1795	786	786	788	1759	1768	1768	1519	1519	1519	1512	1506	1506	1499	1499	1499	1499	1499	1492	1492	1492	1492	1492	1486	1486	1486	1486	1480	1480	1480	1480	1227	1232	1227	1223	1223	1223	1223	1223	1223	1219	1210	1210	1202	1197	1197	1185	1185	1185	1181	1181	1181	1181	1181	1181	0	0	0	0	0	0	0	0	0	0	0	0	0	0	0	0	0	0	0	0
0	0	0	0	0	0	0	0	0	0	0	0	0	0	0	0	0	0	0	0	0	0	0	0	0	0	0	0	0	0	0	0	0	0	0	0	0	0	0	0	0	0	0	549	549	549	0	0	547	547	547	546	546	547	547	546	546	546	547	547	546	546	546	547	547	548	548	548	548	547	546	545	545	544	544	544	544	544	544	544	544	545	545	545	545	545	545	545	543	543	543	543	543	543	543	544	544	544	544	544	544	544	544	544	544	544	544	545	545	545	545	545	545	545	552	550	550	550	549	549	550	550	551	551	552	553	555	555	555	557	558	559	559	560	560	563	563	563	564	563	563	563	564	564	563	562	562	564	565	565	565	564	564	565	565	562	562	562	563	563	564	564	565	565	565	565	565	565	565	565	565	565	565	564	563	563	562	562	562	562	562	562	562	562	563	563	562	562	563	564	565	565	565	566	566	566	565	565	565	563	562	562	562	562	563	562	562	563	563	563	563	563	563	563	563	563	563	563	564	564	564	564	565	565	565	565	564	564	564	563	563	562	562	563	563	563	564	565	565	565	565	565	565	565	564	564	563	563	561	561	561	562	561	561	562	562	562	563	563	563	564	564	564	562	562	562	561	561	561	561	560	560	561	561	561	561	561	561	561	561	562	562	563	564	564	564	564	561	561	561	561	561	561	562	562	562	563	563	562	562	562	562	562	562	562	562	562	563	563	564	564	520	519	519	518	517	516	516	513	512	510	510	510	508	508	507	507	506	505	505	504	504	504	504	502	502	501	501	501	501	501	501	501	501	500	500	500	500	501	501	501	501	501	502	502	501	501	502	501	501	502	503	504	504	506	507	507	508	510	511	513	513	513	513	513	513	0	0	0	567	567	567	567	570	569	568	568	567	567	566	566	566	565	565	565	564	564	564	565	565	565	566	568	568	569	569	566	566	567	567	567	566	566	567	567	567	567	567	568	568	568	568	568	568	568	566	566	566	566	568	569	569	569	0	0	0	573	573	573	574	572	570	570	570	569	569	570	571	570	570	570	570	571	570	570	569	569	569	569	569	569	569	569	570	570	570	570	570	570	570	570	571	572	573	574	576	576	578	579	581	583	585	587	588	588	0	0	0	0	0	605	605	0	0	0	740	740	742	740	740	740	742	742	742	743	743	742	742	742	742	742	742	742	742	742	742	742	742	742	745	745	745	745	745	745	745	747	747	753	753	763	763	742	742	742	767	763	755	755	755	756	756	756	756	756	756	756	755	755	755	756	756	758	763	765	765	767	765	765	765	765	0	0	789	788	788	786	786	786	786	786	786	0	0	0	0	0	0	0	0	0	1499	1499	1499	1499	1499	1492	1492	1486	1486	1486	1486	1480	1480	1486	1486	1486	1486	1227	1223	1219	1219	1223	1223	1223	1219	1214	1210	1202	1197	1197	1185	1185	1185	1181	1181	1181	1181	1181	1181	0	0	0	0	0	0	0	0	0	0	0	0	0	0	0	0	0	0	0	0
0	0	0	0	0	0	0	0	0	0	0	0	0	0	0	0	0	0	0	0	0	0	0	0	0	0	0	0	0	0	0	0	0	0	0	0	0	0	0	0	0	0	0	0	0	0	0	0	547	552	551	551	548	548	547	547	547	547	547	548	548	548	548	548	548	548	548	548	548	548	548	546	545	545	545	545	545	545	545	544	544	545	545	545	545	545	545	545	544	544	544	544	544	544	544	544	544	544	544	544	544	544	544	544	544	545	545	545	545	545	545	545	545	545	552	551	551	551	551	551	551	551	552	553	554	555	555	555	555	557	558	559	559	560	560	561	562	562	563	563	562	562	562	562	560	560	560	562	565	565	565	563	563	565	565	559	559	559	561	561	562	563	563	564	564	565	564	564	564	564	563	562	562	562	562	561	560	560	561	561	561	560	560	560	561	561	561	561	562	563	563	563	565	565	565	565	562	562	562	561	561	561	561	561	562	562	562	562	562	562	562	562	563	563	562	562	562	562	562	562	563	563	563	564	564	564	564	564	562	562	562	561	561	561	561	561	562	562	564	563	563	564	563	563	562	562	562	561	560	560	560	560	560	560	561	561	561	559	559	558	558	558	558	558	559	559	560	560	560	560	560	560	560	560	560	560	560	560	560	561	561	561	561	561	562	561	561	561	560	561	560	560	560	560	561	561	562	561	561	561	561	561	561	561	561	561	561	562	563	563	564	520	519	519	518	517	516	516	514	513	511	510	510	508	508	507	507	506	505	505	505	504	504	504	504	502	501	501	501	501	501	501	501	501	501	501	501	501	501	501	501	501	501	502	502	502	502	502	503	503	503	504	504	505	507	507	507	509	510	511	513	513	514	514	513	0	0	0	0	0	567	567	567	570	569	568	568	567	567	566	566	566	565	565	563	563	563	563	563	563	563	563	565	567	567	567	565	565	566	566	566	566	565	565	565	565	565	567	566	566	566	567	566	566	566	565	565	565	565	566	566	566	569	0	0	0	573	573	573	569	569	569	569	568	568	568	569	569	569	569	569	569	569	569	568	568	568	568	568	568	568	568	568	569	569	569	569	569	569	569	569	570	570	572	573	575	575	578	579	581	583	587	588	589	589	0	0	0	0	0	0	0	0	0	739	739	740	740	739	739	740	740	740	740	742	742	742	740	740	742	742	742	742	742	742	742	740	740	740	742	742	740	740	742	742	742	740	740	753	753	753	740	740	740	740	742	747	747	752	753	755	755	753	753	755	755	755	755	755	753	753	753	755	755	753	753	752	752	763	763	753	753	753	789	788	788	786	786	786	786	786	786	0	0	0	0	0	0	0	0	0	0	1499	1499	1499	1499	1492	1492	1486	1486	1486	1480	1473	1473	1480	1480	1480	1480	0	1219	1219	1219	1223	1223	1223	1219	1219	1214	1206	1202	1197	1185	1185	1185	1181	1181	1177	1177	1181	1181	0	0	0	0	0	0	0	0	0	0	0	0	0	0	0	0	0	0	0	0
0	0	0	0	0	0	0	0	0	0	0	0	0	0	0	0	0	0	0	0	0	0	0	0	0	0	0	0	0	0	0	0	0	0	0	0	0	0	0	0	0	0	0	0	0	0	0	0	553	552	551	549	549	548	548	548	548	548	548	548	548	548	548	548	549	549	549	549	549	549	548	548	548	547	546	545	545	545	545	545	545	545	545	545	545	545	545	545	545	545	545	545	545	545	545	545	544	544	544	544	544	544	544	544	545	545	545	545	545	546	546	546	546	552	552	552	552	552	552	552	552	552	553	554	554	555	555	555	555	555	557	558	559	559	559	560	561	562	563	562	562	561	561	560	559	559	559	561	561	555	563	563	563	556	556	557	558	559	559	560	560	561	561	561	562	562	561	561	560	560	560	559	559	560	560	559	559	559	560	560	559	559	559	560	561	561	561	561	561	561	561	561	563	562	562	562	561	561	561	560	560	561	560	560	560	560	561	561	561	561	562	562	562	561	560	560	560	560	560	560	560	561	561	562	562	562	561	561	559	559	560	559	559	558	558	560	561	561	561	561	562	563	561	561	561	561	561	560	558	558	558	559	559	559	559	559	559	557	557	557	557	557	557	557	557	558	560	560	559	559	559	559	559	559	559	559	560	560	560	560	561	560	560	560	559	556	556	555	555	557	558	558	558	558	558	559	558	558	558	559	559	560	560	560	560	560	561	562	562	563	520	520	519	519	519	518	517	516	514	513	512	511	510	509	508	507	507	506	505	505	505	504	504	504	504	502	501	501	501	501	501	501	501	501	501	501	501	501	501	501	501	501	501	502	503	503	503	503	504	504	504	504	505	506	507	507	508	510	510	512	513	513	514	514	0	0	0	0	0	0	0	0	0	0	569	568	568	567	559	559	566	566	566	563	562	562	562	562	562	561	561	561	561	563	565	565	564	564	565	565	565	565	565	565	565	565	565	565	566	566	566	567	564	564	564	564	565	565	565	564	563	563	563	563	563	0	0	0	0	569	569	569	569	567	567	567	567	568	567	567	567	568	568	568	567	566	566	566	567	566	565	565	565	567	568	568	567	567	568	568	568	569	570	570	572	573	574	578	579	581	588	588	589	589	589	0	0	0	0	0	0	0	0	0	736	736	739	739	737	737	737	739	739	739	739	739	739	739	739	740	740	740	739	739	737	737	737	737	737	737	739	739	739	740	740	740	739	739	740	745	740	739	739	739	739	740	740	742	747	750	753	753	753	753	753	753	753	753	753	752	752	752	753	752	752	752	752	752	752	752	752	752	753	788	788	788	784	784	782	782	782	777	777	0	0	0	0	0	0	0	0	0	0	0	0	1499	1492	1492	1486	1486	1486	1480	1473	1473	1480	1480	1486	1486	1492	1492	1219	1227	1219	1219	1219	1219	1214	1214	1206	1202	1197	1193	1185	1185	1181	1181	1177	1177	1181	1181	0	0	0	0	0	0	0	0	0	0	0	0	0	0	0	0	0	0	0	0
0	0	0	0	0	0	0	0	0	0	0	0	0	0	0	0	0	0	0	0	0	0	0	0	0	0	0	0	0	0	0	0	0	0	0	0	0	0	0	0	0	0	0	0	0	0	0	0	553	553	552	550	549	549	548	548	548	548	548	548	548	548	548	549	549	549	549	549	549	549	548	548	548	548	547	546	546	546	546	546	546	546	546	546	545	545	546	546	545	545	545	545	545	545	545	545	545	545	545	545	545	545	545	545	545	545	545	545	545	546	546	546	550	552	552	552	552	552	552	552	552	553	553	554	554	555	555	555	555	555	557	558	558	558	559	559	560	560	561	560	560	559	558	558	556	556	556	556	555	555	555	555	555	555	556	556	556	557	557	558	558	559	560	560	558	558	557	557	557	557	557	557	557	559	559	558	558	558	559	558	558	558	559	560	561	561	561	561	561	559	559	558	558	558	558	562	561	561	561	560	560	560	559	558	558	559	560	560	560	560	561	561	561	560	559	557	557	558	558	558	558	558	558	562	562	562	555	555	555	555	556	556	556	556	556	558	558	558	558	559	559	558	558	558	558	558	558	558	557	557	558	558	558	558	557	557	556	556	556	556	556	556	556	556	556	557	559	559	558	556	556	555	555	556	556	557	558	559	559	559	560	560	556	556	554	554	554	554	554	555	554	554	556	556	556	557	557	557	557	558	558	558	558	558	559	559	559	560	560	0	520	520	519	519	519	518	517	516	514	513	512	511	511	510	508	507	507	507	505	505	505	504	504	504	504	503	501	501	501	501	501	501	501	501	501	501	501	501	501	501	501	501	501	502	503	503	503	504	504	504	505	505	505	507	507	508	510	510	511	512	513	514	515	515	0	0	0	0	0	0	0	0	0	0	0	0	0	0	559	559	560	560	561	561	561	560	560	560	560	559	559	559	559	560	561	562	562	563	564	564	564	564	560	560	560	560	560	562	562	562	562	562	561	561	562	562	562	562	563	562	561	561	561	562	562	0	559	559	561	561	560	560	567	567	566	566	566	566	565	565	565	565	565	566	566	566	566	566	566	565	564	563	563	564	562	562	565	565	566	566	567	569	570	570	572	573	574	574	574	589	589	589	590	590	590	0	0	0	0	0	0	0	0	736	736	736	739	739	736	736	736	736	737	737	737	737	737	737	737	739	739	739	737	737	736	736	736	736	736	736	736	736	737	736	736	736	736	736	739	739	739	739	737	737	739	739	739	742	745	750	752	752	752	752	753	752	752	750	750	750	750	750	750	748	748	748	748	748	750	750	750	752	752	752	788	788	780	780	780	780	777	777	777	777	777	0	0	0	0	0	0	0	0	0	0	0	0	0	0	1486	1486	1480	1486	1486	1486	1486	1480	1480	1486	1486	1492	1227	1219	1219	1214	1214	1214	1214	1206	1206	1202	1193	1189	1185	1181	1181	1177	1177	1181	1181	0	0	0	0	0	0	0	0	0	0	0	0	0	0	0	0	0	0	0	0
0	0	0	0	0	0	0	0	0	0	0	0	0	0	0	0	0	0	0	0	0	0	0	0	0	0	0	0	0	0	0	0	0	0	0	0	0	0	0	0	0	0	0	0	0	0	0	556	554	553	552	550	549	548	548	548	548	548	548	548	548	548	548	549	549	549	549	549	549	549	548	548	548	548	548	546	546	547	547	547	547	548	548	548	547	547	546	546	545	545	545	545	546	546	546	545	545	545	545	545	545	545	545	545	545	545	545	545	546	546	548	550	550	552	552	552	552	552	552	552	553	553	553	554	554	554	554	555	555	555	556	557	557	557	557	557	557	557	557	556	556	555	555	555	555	555	555	555	555	555	555	555	554	554	555	555	555	555	555	556	556	558	556	556	555	555	555	555	555	555	555	555	555	557	557	557	557	558	558	558	558	558	559	560	560	561	561	560	558	558	557	557	557	557	557	557	557	559	558	558	558	558	557	556	556	557	558	558	559	559	559	560	560	555	555	555	555	556	557	557	557	555	555	555	555	555	555	555	555	555	555	555	555	555	555	555	555	555	555	556	557	557	556	557	557	557	557	557	556	556	556	556	556	556	556	556	555	554	554	555	555	555	555	555	555	556	555	555	553	553	554	554	555	555	555	555	555	556	556	557	560	554	554	554	553	553	553	553	553	554	554	554	555	555	556	556	556	556	556	557	557	557	556	556	556	555	554	554	561	561	520	520	519	519	519	518	517	516	513	513	511	511	511	510	509	507	507	507	506	505	505	505	504	504	504	503	502	502	502	502	502	502	501	501	501	501	501	501	501	501	501	502	502	502	503	503	503	504	504	504	505	505	505	507	507	508	510	512	513	513	514	515	516	516	0	0	0	0	0	0	0	0	0	0	0	0	0	558	558	558	558	560	559	559	559	559	559	559	559	558	558	558	559	559	561	561	561	562	563	563	561	558	558	559	559	559	559	560	560	560	560	560	560	560	560	560	560	561	561	561	559	559	560	561	561	559	559	559	559	560	560	560	560	566	566	566	566	566	562	562	562	562	563	565	565	565	564	564	565	565	563	562	562	563	562	562	564	565	565	565	567	569	570	571	572	574	575	575	589	589	589	589	590	590	590	0	0	0	0	0	0	0	0	734	734	734	736	736	734	734	734	734	736	734	734	734	734	734	736	736	736	737	736	734	732	732	734	734	732	732	734	734	734	734	734	734	734	734	736	734	734	734	734	734	736	737	737	740	743	747	748	750	750	750	750	750	750	748	748	748	748	748	748	748	748	748	747	747	748	748	748	750	750	748	750	750	780	777	777	779	775	775	775	775	775	775	0	770	770	770	770	770	0	0	0	0	0	0	0	0	0	0	1486	1486	1486	1486	1480	1480	1486	1486	1492	0	1219	1219	1214	1214	1214	1214	1206	1202	1197	1193	1185	1185	1181	1181	1181	1177	1177	1181	0	0	0	0	0	0	0	0	0	0	0	0	0	0	0	0	0	0	0	0
0	0	0	0	0	0	0	0	0	0	0	0	0	0	0	0	0	0	0	0	0	0	0	0	0	0	0	0	0	0	0	0	0	0	0	0	0	0	0	0	0	0	0	0	0	0	0	556	554	554	552	550	549	548	548	548	548	548	548	548	548	548	548	549	549	549	549	549	549	548	548	548	548	548	548	547	547	547	548	548	548	548	548	547	547	547	547	547	547	546	546	546	546	546	546	546	546	546	546	546	546	545	545	545	546	546	546	546	546	548	548	550	551	551	551	551	552	552	552	552	553	552	552	554	554	554	554	554	554	555	555	554	554	555	555	555	555	555	555	555	555	555	555	555	555	555	555	554	554	554	553	553	553	553	554	554	555	555	555	555	555	555	554	554	555	555	555	555	555	555	555	555	555	555	555	556	556	556	557	556	556	557	557	558	559	561	561	559	558	557	557	556	556	556	556	556	556	556	558	555	555	555	555	555	555	555	556	556	556	555	555	560	560	554	554	555	555	555	555	556	555	555	554	554	554	554	554	555	555	555	555	555	555	555	555	554	554	554	554	555	555	555	555	555	556	556	555	555	555	555	555	555	555	554	554	554	553	553	553	553	554	550	550	550	552	551	551	551	551	551	553	553	554	554	554	554	554	555	555	555	557	553	552	552	552	552	552	552	552	553	552	552	554	554	555	555	555	555	555	555	555	555	554	554	553	553	553	553	553	553	553	520	519	519	519	518	516	516	513	513	511	511	511	510	510	508	508	507	506	506	505	505	505	504	504	504	503	503	502	502	502	502	501	501	501	501	501	501	501	501	501	502	502	503	504	504	504	504	504	505	507	507	507	507	508	509	511	513	513	515	515	516	516	516	0	0	0	0	0	0	0	0	0	0	0	0	0	558	556	556	555	555	555	555	555	557	558	558	558	557	557	557	557	559	560	560	560	561	562	560	558	557	557	558	558	558	558	560	560	559	559	559	559	559	559	559	559	559	558	558	558	558	559	558	558	558	558	559	559	559	559	559	559	555	555	555	556	556	556	556	558	561	561	561	560	560	562	563	563	562	561	561	562	562	562	562	563	565	565	565	566	566	570	571	573	574	574	576	588	588	589	589	590	590	590	0	0	0	0	728	728	728	729	729	731	731	732	734	732	732	732	732	734	732	732	731	731	732	732	732	729	729	729	731	731	731	731	731	731	731	731	731	732	731	731	731	732	732	732	729	729	731	731	731	732	732	734	736	742	745	745	747	748	748	748	747	747	747	747	747	747	747	747	747	747	747	747	747	747	747	747	747	747	747	747	747	745	777	777	775	775	775	773	773	773	773	770	770	770	770	770	768	768	768	768	0	0	0	0	0	0	0	0	0	0	0	1480	1480	1486	1486	0	0	1219	1219	1219	1219	1214	1214	1206	1202	1193	1189	1185	1181	1181	1181	1181	1177	1181	1181	0	0	0	0	0	0	0	0	0	0	0	0	0	0	0	0	0	0	0	0
0	0	0	0	0	0	0	0	0	0	0	0	0	0	0	0	0	0	0	0	0	0	0	0	0	0	0	0	0	0	0	0	0	0	0	0	0	0	0	0	0	0	0	0	0	0	557	556	555	554	553	551	549	548	548	548	547	547	547	547	547	548	548	549	549	549	549	549	548	548	548	548	548	547	547	547	547	547	547	548	548	548	548	547	547	547	547	547	546	546	546	546	547	546	546	546	546	546	546	546	546	546	546	546	547	547	548	548	548	548	549	550	550	550	551	551	552	552	552	552	553	552	552	553	554	553	552	552	552	552	552	552	552	552	552	552	551	551	553	554	555	555	555	555	555	555	555	554	553	553	552	552	553	553	553	553	553	553	553	553	553	553	553	552	553	553	553	554	554	554	555	555	555	554	554	555	555	555	556	555	555	555	555	558	559	559	559	559	558	557	552	552	552	555	554	554	554	554	554	552	552	551	551	553	553	553	553	551	551	551	551	551	552	552	553	553	554	554	554	553	553	553	553	553	554	554	554	554	554	554	554	553	553	554	554	553	553	553	554	554	555	553	553	554	555	555	555	555	554	554	554	554	553	553	553	553	547	547	550	551	550	550	550	550	551	551	551	550	550	550	551	553	553	554	554	553	553	553	553	553	552	552	552	552	552	551	551	551	551	551	551	551	551	553	554	554	554	554	554	554	554	552	552	553	553	551	551	551	551	551	551	551	520	519	518	517	516	516	513	513	511	511	511	510	510	509	508	507	507	506	506	506	505	505	504	504	503	503	503	502	502	502	501	501	501	501	501	501	501	501	502	502	503	504	504	504	504	504	505	506	507	507	507	507	509	510	512	513	513	516	516	516	516	516	0	0	0	0	0	0	0	0	0	0	0	0	0	555	555	555	555	555	555	555	555	556	557	557	557	556	556	556	556	557	557	557	559	559	560	555	555	555	556	557	558	557	557	559	559	559	558	558	558	558	557	557	557	557	556	556	557	558	558	558	558	558	558	558	558	557	558	558	555	555	555	555	555	555	555	555	555	555	555	560	560	560	560	561	561	560	560	559	559	560	560	561	562	563	565	565	566	566	570	571	573	575	576	576	588	588	589	589	589	589	0	0	0	0	0	728	728	728	729	729	729	729	731	731	731	731	731	731	731	731	731	729	729	731	731	731	728	728	728	729	729	728	728	729	729	729	729	729	729	729	729	729	731	731	729	729	729	729	729	729	729	729	731	734	742	743	745	745	745	745	742	742	742	743	743	743	745	745	745	745	745	745	745	745	745	745	745	745	745	745	745	745	745	745	777	773	773	773	773	773	773	772	770	770	772	770	770	768	768	768	768	0	0	0	0	0	0	0	0	0	0	0	0	0	0	0	0	0	0	0	1219	1219	1214	1214	1206	1202	1189	1189	1181	1181	1181	1181	1181	1169	1169	1173	1173	0	0	0	0	0	0	0	0	0	0	0	0	0	0	0	0	0	0	0
0	0	0	0	0	0	0	0	0	0	0	0	0	0	0	0	0	0	0	0	0	0	0	0	0	0	0	0	0	0	0	0	0	0	0	0	0	0	0	0	0	0	0	0	0	0	557	556	555	554	553	552	551	548	547	547	546	546	546	546	546	546	548	548	549	549	549	549	548	547	547	547	547	547	547	546	546	547	547	547	548	548	548	547	546	546	546	546	546	546	546	546	546	546	546	546	546	546	546	546	546	546	546	546	546	547	547	547	547	548	549	549	548	548	550	551	551	551	551	551	551	551	549	549	550	551	551	551	551	551	551	551	551	550	549	549	549	549	551	551	553	554	554	554	555	555	555	555	552	552	551	551	552	552	552	552	552	552	552	552	552	552	551	551	551	551	552	553	553	554	554	554	554	553	553	554	554	552	552	551	553	552	552	552	551	551	551	551	551	551	551	551	551	552	552	552	552	554	550	550	550	550	550	550	551	551	552	550	550	550	551	551	551	551	552	553	553	553	553	552	551	552	552	552	554	553	553	554	553	553	553	552	551	551	552	551	551	552	553	553	552	551	551	551	551	551	552	552	552	552	554	522	522	523	523	547	547	548	548	549	548	548	548	548	549	549	548	548	548	548	549	549	549	549	548	548	548	548	548	547	547	547	547	548	549	549	549	549	549	549	549	549	548	548	548	548	548	549	547	547	547	547	547	548	548	548	548	549	549	549	549	551	520	519	518	517	516	516	513	513	511	511	510	510	510	509	508	507	507	507	507	507	506	505	505	504	504	504	503	503	503	503	502	502	501	501	501	501	501	501	502	503	503	504	504	504	504	505	506	506	507	507	507	508	509	510	510	512	513	516	516	516	516	0	0	0	0	0	0	0	0	0	0	547	547	548	548	548	553	553	553	554	554	555	555	555	556	556	556	555	555	555	555	556	555	555	555	552	553	553	553	554	555	556	557	554	554	558	558	558	557	557	557	557	555	555	555	555	555	555	555	555	555	555	558	557	557	557	556	556	555	555	555	555	555	555	555	555	555	555	555	555	555	555	555	556	558	559	561	557	557	558	558	559	560	561	562	563	565	565	566	566	571	572	573	575	576	576	588	588	589	589	589	589	0	0	0	0	0	726	726	726	728	728	728	728	729	729	729	729	729	728	728	729	729	728	728	728	729	729	728	728	728	728	728	726	726	726	728	728	728	728	728	728	728	728	728	728	726	726	726	728	728	728	728	728	729	731	740	740	742	743	742	742	740	740	740	742	742	742	743	743	745	743	743	743	743	743	743	743	743	743	743	745	745	743	743	743	743	773	773	773	773	773	772	772	770	770	770	770	768	767	767	767	767	765	765	765	765	765	765	0	0	0	0	0	0	0	0	0	0	0	0	0	0	0	0	1214	1206	1202	1189	1189	1181	1181	1181	1177	1177	1169	1169	1169	1169	0	0	0	0	0	0	0	0	0	0	0	0	0	0	0	0	0	0	0
0	0	0	0	0	0	0	0	0	0	0	0	0	0	0	0	0	0	0	0	0	0	0	0	0	0	0	0	0	0	0	0	0	0	0	0	0	0	0	0	0	0	0	0	0	560	560	556	555	554	553	552	551	547	546	546	545	545	545	545	545	545	546	548	548	545	545	545	545	545	545	546	546	546	546	545	545	546	546	546	547	547	547	546	546	546	545	545	545	545	545	545	546	546	546	547	547	547	547	545	545	545	545	545	546	546	546	546	546	548	548	548	548	548	548	548	550	550	550	551	550	549	548	548	549	549	550	549	549	549	548	548	548	548	548	548	548	548	549	549	550	550	552	553	555	555	555	555	551	550	550	550	551	551	551	551	551	551	551	551	551	551	550	550	550	549	551	551	552	553	553	553	551	551	551	550	549	549	550	549	549	550	550	550	550	550	550	548	548	548	549	549	549	549	550	548	548	548	548	548	548	548	548	548	548	549	549	548	548	548	548	549	549	549	549	549	549	548	548	548	548	548	548	549	549	552	552	552	550	550	549	548	548	548	548	548	548	549	549	549	549	549	550	550	550	550	551	553	553	552	520	520	520	548	548	548	548	548	548	548	548	548	548	548	548	548	548	548	548	548	548	548	548	547	547	547	547	547	547	546	546	546	546	545	545	547	547	547	548	547	547	548	547	547	548	547	548	544	544	545	544	544	545	545	545	546	547	547	547	549	549	0	0	0	518	517	516	516	513	513	511	511	510	510	510	509	509	508	508	507	507	507	506	506	506	505	504	504	504	504	503	503	503	503	503	502	502	502	503	503	504	504	504	505	506	506	506	507	507	507	507	507	507	508	509	510	510	512	0	0	516	516	516	0	0	0	0	0	0	0	0	547	547	547	547	547	548	549	550	551	552	552	552	552	553	553	552	552	553	553	553	553	553	549	549	549	550	550	550	550	550	553	553	553	551	551	551	551	548	548	548	548	549	549	549	550	552	552	551	551	551	551	547	547	549	549	549	549	550	551	552	551	551	551	553	553	555	554	554	554	555	555	555	555	555	555	555	555	555	556	556	557	557	559	559	561	562	563	563	565	566	569	572	572	573	577	578	578	0	0	0	589	589	589	0	0	0	723	723	725	725	726	726	726	728	728	728	728	728	726	726	726	726	726	726	726	726	726	726	726	726	725	725	725	725	725	725	725	726	726	726	726	726	726	726	726	725	725	725	725	725	726	726	726	726	726	728	729	739	739	740	740	740	740	740	740	740	740	740	740	740	742	742	742	742	742	742	742	742	743	743	743	743	743	743	743	743	743	743	742	773	772	772	772	772	770	768	768	768	768	768	767	767	767	765	763	763	763	763	763	763	763	0	0	0	0	0	0	0	0	0	0	0	0	0	0	0	0	0	0	1189	1189	1181	1181	1177	1177	1173	1169	1169	1169	1169	0	0	0	0	0	0	0	0	0	0	0	0	0	0	0	0	0	0	0
0	0	0	0	0	0	0	0	0	0	0	0	0	0	0	0	0	0	0	0	0	0	0	0	0	0	0	0	0	0	0	0	0	0	0	0	0	0	0	0	691	691	0	0	0	560	560	558	556	555	554	552	552	547	546	546	545	545	545	545	543	542	542	545	543	543	543	543	543	544	544	545	545	545	546	545	545	544	544	544	545	544	544	544	544	544	544	544	544	544	544	544	545	545	545	545	545	545	545	545	545	545	545	545	545	544	544	545	546	547	546	545	545	546	546	545	544	544	545	546	548	548	548	548	548	548	548	548	548	547	547	547	547	547	547	547	548	548	548	548	548	548	546	545	545	545	545	545	545	550	548	548	548	548	548	548	548	548	546	546	546	546	547	547	547	547	547	548	548	551	551	551	551	550	549	545	545	546	546	546	546	546	546	548	548	548	548	548	548	548	548	548	548	550	550	550	546	547	547	547	547	547	548	547	547	548	548	547	547	547	548	548	548	548	548	548	548	547	547	547	547	547	546	546	547	552	549	549	549	548	548	548	548	548	548	548	548	548	548	548	549	549	549	549	550	550	551	551	551	0	519	519	520	546	546	547	547	547	548	548	548	547	547	547	547	546	546	546	546	547	548	545	545	545	545	545	546	546	546	546	546	545	545	544	544	545	545	545	546	546	546	544	544	544	543	543	543	543	543	544	543	543	544	544	544	544	544	544	544	544	549	0	0	0	0	0	0	0	0	0	511	511	510	510	510	509	509	508	508	508	507	507	507	506	506	506	504	504	504	504	504	504	504	504	504	503	503	504	504	504	504	504	504	506	506	506	507	507	507	507	507	507	508	508	509	510	510	0	0	0	0	0	0	0	0	0	0	0	0	0	545	545	546	546	547	547	547	548	548	549	550	551	551	553	553	553	552	552	547	547	552	551	548	548	549	549	549	550	550	550	550	550	550	551	549	549	549	549	548	548	548	548	548	549	549	550	551	550	549	549	549	549	547	547	546	548	549	549	549	550	550	550	550	550	552	552	552	552	552	552	552	552	552	552	553	553	553	553	553	553	553	553	553	553	559	561	562	562	563	565	565	565	565	572	577	577	578	578	0	0	0	0	0	0	0	0	0	722	722	723	723	725	723	723	725	725	725	725	725	723	723	725	723	723	725	725	725	725	725	725	725	722	722	722	722	723	723	723	723	725	725	725	725	725	725	725	725	725	725	725	725	725	725	725	725	726	728	729	732	737	739	739	739	739	739	739	739	739	739	739	739	740	739	739	739	739	739	740	740	740	742	742	742	743	743	743	742	742	742	742	772	770	770	770	770	767	767	767	767	767	767	767	765	765	763	763	761	761	763	761	761	761	0	0	0	0	0	0	0	0	0	0	0	0	0	0	0	0	0	0	0	0	0	1181	1177	1173	1173	1169	1169	1169	1169	0	0	0	0	0	0	0	0	0	0	0	0	0	0	0	0	0	0	0
0	0	0	0	0	0	0	0	0	0	0	0	0	0	0	0	0	0	0	0	0	0	0	0	0	0	0	0	0	0	0	0	0	0	0	0	0	0	690	690	690	690	690	0	0	560	560	558	558	555	555	555	555	547	546	546	545	545	545	545	542	542	542	542	542	542	542	542	542	542	543	543	543	544	545	544	543	542	542	543	543	544	542	542	543	543	543	543	543	543	543	543	543	543	543	544	544	544	545	543	543	542	542	545	543	542	542	543	544	543	543	544	544	544	544	543	543	543	542	542	543	547	547	547	547	545	545	544	543	543	543	543	543	543	543	544	544	544	545	545	545	544	544	544	543	543	543	543	543	544	544	544	545	545	545	545	545	544	543	543	544	544	543	543	543	544	545	546	546	546	542	542	542	544	544	544	544	545	545	545	545	544	544	547	548	548	547	546	546	545	545	545	544	544	544	544	544	544	545	545	546	546	546	546	546	546	546	546	546	546	546	546	545	545	546	545	545	546	546	546	547	546	546	545	545	545	547	547	548	548	548	548	548	548	547	547	547	547	548	548	548	549	549	549	549	549	518	518	518	518	518	519	520	545	545	546	546	546	546	546	547	547	547	547	547	546	546	546	546	546	546	545	545	545	543	543	545	546	546	545	545	544	543	543	543	543	543	543	543	544	544	542	542	542	542	542	542	542	542	543	543	543	543	543	543	543	544	544	544	544	0	0	0	0	0	0	0	0	0	0	0	511	510	510	510	508	508	508	508	508	507	507	507	507	507	507	505	505	504	504	504	504	504	504	504	504	504	504	504	504	504	505	505	506	507	507	507	507	507	507	507	507	508	508	0	0	0	0	0	0	0	0	0	0	0	0	0	0	0	544	544	544	545	545	546	546	546	546	547	548	548	551	551	551	546	546	545	545	545	545	545	546	546	547	548	548	548	549	549	549	549	549	548	548	548	548	547	547	547	547	547	548	548	549	549	549	550	549	548	548	548	548	548	548	546	548	548	548	549	549	550	550	550	551	551	551	551	551	551	551	551	551	551	551	552	552	552	552	552	552	552	552	552	552	561	561	565	565	565	565	565	565	575	575	577	578	579	579	0	0	0	0	0	0	0	0	719	719	720	720	722	722	720	720	720	720	720	722	720	720	720	720	720	720	723	723	722	722	720	719	719	719	719	719	719	720	720	720	720	722	722	723	723	723	723	725	723	723	723	723	723	723	723	723	725	725	726	728	732	737	739	739	739	739	739	739	739	739	739	737	737	737	736	736	736	737	737	739	739	739	739	740	740	740	742	742	742	742	742	742	772	770	770	770	765	765	765	765	765	767	767	765	765	765	761	761	761	761	763	761	761	763	763	0	0	0	0	0	0	0	0	0	0	0	0	0	0	0	0	0	0	0	0	1181	1173	1173	1173	1169	1169	1169	1169	0	0	0	0	0	0	0	0	0	0	0	0	0	0	0	0	0	0	0
0	0	0	0	0	0	0	0	0	0	0	0	0	0	0	0	0	0	0	0	0	0	0	0	0	0	0	0	0	0	0	0	0	0	0	0	0	689	689	689	690	690	690	690	0	0	0	558	558	556	556	557	558	547	546	546	545	545	544	543	542	542	542	542	542	542	542	542	542	542	542	542	542	542	542	542	542	542	542	542	542	541	541	541	542	542	542	542	542	542	542	542	542	542	542	542	542	542	542	542	541	541	541	541	541	541	541	541	541	540	540	541	542	542	541	541	541	541	541	541	541	541	541	544	543	542	542	542	542	542	542	542	542	542	542	542	542	543	543	544	544	542	542	542	542	542	544	543	543	543	543	543	543	542	542	542	542	542	542	542	542	542	542	542	542	542	543	541	541	541	542	542	542	542	542	543	543	543	543	543	542	542	543	544	547	548	547	545	545	542	542	542	542	542	542	543	543	543	542	542	544	544	542	542	542	542	542	543	543	543	542	542	542	542	542	542	542	543	544	545	546	545	545	545	543	542	543	546	547	547	547	547	547	547	547	546	546	546	548	518	518	518	518	518	518	518	518	518	519	518	518	519	519	545	545	546	546	546	546	546	510	510	547	547	547	543	543	547	546	546	546	542	542	540	540	541	541	541	541	541	543	543	542	542	542	542	542	542	542	543	542	542	542	540	540	541	541	542	542	542	542	542	542	542	542	542	543	543	543	544	544	0	0	0	0	0	0	0	0	0	0	0	510	510	510	507	507	508	508	508	507	507	507	507	507	507	505	505	504	504	504	504	504	504	504	504	504	504	504	504	505	505	505	506	507	507	507	507	507	507	508	508	0	0	0	0	0	0	0	0	0	0	0	0	0	0	0	0	0	543	543	544	544	544	545	545	545	546	545	547	547	546	545	545	545	545	545	544	544	544	544	546	546	546	547	548	548	548	548	548	548	548	548	545	545	547	546	546	546	546	546	547	548	548	548	548	548	548	548	547	546	546	546	546	546	547	547	548	548	548	548	548	548	550	550	550	550	550	550	550	550	549	549	550	550	551	551	551	551	552	552	552	552	552	552	565	565	565	565	565	565	0	575	577	577	578	578	578	0	0	0	0	0	713	713	714	714	716	719	719	719	719	719	719	717	717	719	719	719	717	717	719	719	719	717	716	716	716	716	714	714	714	714	716	716	716	716	716	716	717	717	719	717	717	719	720	720	720	720	722	720	720	720	720	722	723	725	726	726	734	736	737	737	737	737	737	737	737	737	736	736	736	734	734	734	734	736	737	737	737	739	739	739	739	740	740	739	739	739	739	739	770	770	770	765	765	763	763	765	765	765	765	763	763	761	761	761	761	763	763	763	763	763	0	0	0	0	0	0	0	0	0	0	0	0	0	0	0	0	0	0	0	0	0	1173	1169	1169	1169	1169	1169	1169	0	0	0	0	0	0	0	0	0	0	0	0	0	0	0	0	0	0	0
0	0	0	0	0	0	0	0	0	0	0	0	0	0	0	0	0	0	0	0	0	0	0	0	0	0	0	0	0	0	0	0	0	0	0	0	0	689	689	689	690	690	690	690	0	0	0	0	558	556	556	556	555	547	547	546	545	545	544	543	542	542	541	541	541	541	541	541	541	541	541	541	541	540	539	539	539	540	540	541	541	541	540	540	540	540	539	539	540	539	539	540	540	540	540	540	540	540	539	539	540	540	539	539	539	539	540	539	539	539	539	539	540	539	538	538	540	540	539	539	539	539	539	540	540	540	541	541	541	541	541	541	541	541	541	542	542	542	542	542	541	542	542	542	542	542	542	543	542	542	542	542	542	542	542	542	542	542	542	542	542	542	541	541	541	541	541	541	541	541	541	541	542	542	542	542	542	542	541	541	541	541	542	543	544	548	548	539	540	540	540	540	540	541	541	541	541	541	541	541	541	541	541	541	540	540	541	541	542	542	542	542	542	542	542	542	542	542	542	542	543	544	544	544	543	543	518	518	547	547	546	546	546	547	547	546	546	518	518	518	518	518	518	518	518	517	517	516	516	516	516	516	516	516	545	546	546	546	510	510	510	510	507	507	507	507	542	543	543	543	543	542	541	540	540	540	540	540	540	541	541	541	540	540	541	541	542	541	542	542	542	539	539	537	537	538	539	540	540	540	541	541	542	542	542	542	542	542	542	544	544	0	0	0	0	0	0	0	0	0	0	0	0	0	0	507	507	507	508	508	508	508	507	507	507	507	504	504	504	504	504	504	504	504	504	504	504	505	505	505	505	506	506	507	507	507	507	507	507	507	508	508	0	0	0	0	0	0	0	0	0	0	0	0	0	0	0	0	542	542	542	542	542	543	544	544	545	545	545	546	546	546	545	544	544	544	543	543	543	543	544	545	545	545	545	546	546	548	548	548	548	548	548	543	543	545	545	545	545	545	545	546	548	548	548	547	546	546	547	546	545	545	545	546	545	545	546	546	546	546	546	548	548	545	545	548	548	548	548	548	548	548	548	548	550	550	550	550	551	551	552	552	552	552	552	565	565	565	565	565	565	0	0	577	577	578	578	578	0	0	0	711	711	711	711	713	713	714	716	714	714	716	716	716	714	714	714	716	717	714	714	716	716	716	714	713	713	713	713	713	713	713	713	714	714	714	714	714	716	716	716	716	716	716	717	717	719	719	719	717	717	716	716	716	716	717	722	722	728	728	729	732	732	732	732	734	734	734	734	734	734	734	734	732	732	732	734	734	734	734	736	736	736	734	734	736	736	736	736	737	737	0	0	0	765	761	761	761	763	763	761	761	760	760	760	760	760	760	761	761	761	761	761	761	0	0	0	0	0	0	0	0	0	0	0	0	0	0	0	0	0	0	0	0	1173	1169	1169	1169	1169	1169	1169	0	0	0	0	0	0	0	0	0	0	0	0	0	0	0	0	0	0	0
0	0	0	0	0	0	0	0	0	0	0	0	0	0	0	0	0	0	0	0	0	0	0	0	0	0	0	0	0	0	0	0	0	0	0	0	0	689	689	689	689	689	689	689	0	0	0	0	556	556	556	556	555	555	548	546	545	545	543	543	542	541	540	539	538	538	537	537	538	538	538	536	536	536	537	537	536	536	538	538	540	540	538	538	540	540	536	536	536	536	538	538	538	538	539	539	538	538	537	537	538	538	537	537	538	538	538	538	537	537	538	538	538	538	538	538	539	539	538	538	538	538	538	539	539	539	540	540	541	541	541	541	540	540	540	541	540	540	540	541	541	541	541	541	541	541	542	542	542	542	542	542	541	541	541	541	541	541	541	542	541	541	540	540	540	540	539	539	540	540	540	540	542	542	542	537	537	537	537	539	540	541	541	541	541	541	537	537	538	538	539	539	539	539	540	540	539	539	540	540	540	539	539	539	539	539	540	540	541	541	541	541	541	541	541	541	541	541	541	541	541	542	544	544	517	517	517	518	518	516	516	546	546	547	547	547	518	518	518	518	518	518	518	517	517	516	516	516	516	516	516	516	515	515	515	515	510	510	510	510	510	508	507	507	507	507	507	542	542	543	543	542	541	539	539	540	540	539	539	539	538	537	537	537	537	537	538	538	538	536	536	536	536	536	536	536	537	537	538	538	539	539	540	540	540	540	541	542	542	542	544	0	0	0	0	0	0	0	0	0	0	0	0	0	0	507	507	507	508	508	508	508	508	507	507	507	504	504	504	504	504	504	503	503	504	504	504	506	506	506	506	506	506	507	507	507	507	507	507	508	508	508	0	0	0	0	0	0	0	0	0	0	0	0	0	0	0	0	539	539	539	540	540	542	543	543	544	544	544	544	546	540	540	542	542	542	542	542	542	542	542	543	542	542	543	543	543	548	548	537	538	538	542	542	542	543	544	544	545	545	545	545	546	546	546	544	544	544	544	544	544	544	544	545	544	544	544	545	545	544	543	542	542	542	543	544	544	544	547	547	547	548	548	548	546	546	548	548	550	551	551	552	552	552	559	560	560	0	0	0	0	0	0	577	577	578	578	578	0	0	711	711	711	711	711	711	711	713	713	713	713	713	713	713	713	713	713	714	714	711	711	713	713	713	713	711	711	711	711	711	711	711	711	713	713	714	714	714	713	713	714	713	713	713	711	711	711	716	713	713	714	714	714	716	716	716	716	726	726	726	728	729	729	729	731	731	731	731	731	732	731	729	729	729	729	729	728	728	726	726	726	726	726	726	726	726	726	726	734	737	737	0	0	0	0	761	760	758	758	758	756	756	756	758	758	758	758	758	760	761	761	761	761	761	0	0	0	0	0	0	0	0	0	0	0	0	0	0	0	0	0	0	0	0	0	1169	1169	1169	1169	1169	1169	0	0	0	0	0	0	0	0	0	0	0	0	0	0	0	0	0	0	0
0	0	0	0	0	0	0	0	0	0	0	0	0	0	0	0	0	0	0	0	0	0	0	0	0	0	0	0	0	0	0	0	0	0	0	0	0	689	689	689	689	689	687	687	690	690	0	0	556	556	556	556	555	554	554	554	545	545	543	543	542	541	539	539	537	536	536	536	536	536	536	535	535	534	534	534	534	535	537	538	539	540	538	538	534	534	534	534	535	535	536	536	536	537	537	537	537	536	536	536	536	536	536	536	536	537	537	537	536	536	536	536	536	536	536	537	537	537	537	536	536	537	537	538	538	538	539	539	540	540	539	539	539	538	538	539	539	539	539	539	541	541	540	540	540	541	541	541	541	539	539	540	539	539	540	540	540	541	541	541	540	540	538	538	538	537	537	537	538	538	538	537	537	537	537	536	536	536	536	538	538	539	540	537	536	535	535	536	536	537	537	537	537	538	538	538	537	537	538	538	539	538	538	538	538	538	538	538	539	539	539	540	540	540	540	540	540	540	540	540	540	541	541	517	517	517	517	517	517	516	516	516	517	516	516	516	516	517	517	518	518	518	517	517	516	516	515	515	515	516	516	515	515	515	515	515	508	508	508	509	508	507	507	507	506	506	505	505	542	542	543	0	541	539	539	539	540	538	538	539	538	536	536	536	536	536	536	536	536	536	536	536	536	536	536	536	537	537	537	536	536	537	537	537	537	537	539	540	542	542	0	0	0	0	0	0	0	0	0	0	0	0	0	0	0	0	507	507	508	508	508	508	508	507	507	507	507	504	504	504	504	504	503	503	504	504	504	506	506	506	506	506	506	507	507	507	507	507	508	508	508	0	0	0	0	0	0	0	0	0	0	0	0	0	0	0	0	538	538	538	538	538	539	540	541	541	542	543	544	544	544	540	540	541	542	542	542	542	542	542	542	542	542	542	541	541	536	536	537	537	538	538	538	541	542	542	542	542	542	543	543	544	546	546	546	544	544	544	542	542	542	542	542	543	542	542	543	543	543	543	542	542	542	542	542	542	542	542	542	544	544	543	543	545	545	545	546	548	550	551	551	552	552	557	559	560	560	0	0	0	0	0	0	0	0	0	0	0	0	0	710	710	710	710	710	710	710	711	711	711	711	711	711	711	711	711	711	711	711	710	710	711	711	711	711	710	710	710	710	710	710	710	710	710	711	713	711	711	711	711	711	711	711	710	710	710	710	708	707	707	705	705	707	708	708	713	713	725	725	725	726	726	726	726	728	726	726	726	728	729	729	728	728	728	728	728	726	725	723	723	723	723	723	723	722	722	723	723	726	726	737	0	0	0	0	758	758	756	752	752	752	752	753	753	755	755	756	758	760	761	761	761	761	761	0	0	0	0	0	0	0	0	0	0	0	0	0	0	0	0	0	0	0	0	0	1169	1169	1169	1169	1169	1169	0	0	0	0	0	0	0	0	0	0	0	0	0	0	0	0	0	0	0
0	0	0	0	0	0	0	0	0	0	0	0	0	0	0	0	0	0	0	0	0	0	0	0	0	0	0	0	0	0	0	0	0	0	0	0	0	689	689	689	689	689	687	687	690	690	689	689	0	556	556	556	555	555	555	555	547	547	545	545	542	541	541	537	536	536	536	536	536	535	535	534	534	533	533	533	533	534	533	533	539	533	533	533	532	532	532	532	533	534	535	535	535	536	536	536	536	536	535	535	535	535	536	536	536	536	536	536	536	536	536	535	535	535	535	536	537	537	537	535	535	536	536	536	537	537	537	538	539	538	537	537	537	537	537	537	537	537	537	537	537	537	539	539	538	538	539	539	538	538	538	538	538	538	538	538	539	540	540	540	540	540	537	537	537	536	536	536	537	537	537	536	536	536	536	535	535	535	536	536	536	535	535	536	536	535	535	536	536	536	536	536	537	537	537	537	537	537	537	537	537	537	537	537	537	536	536	536	536	537	537	538	539	539	539	539	539	539	539	539	540	540	517	517	517	517	517	517	516	516	516	516	516	516	516	516	516	516	516	516	516	516	516	516	516	515	515	515	515	515	515	515	515	515	514	511	511	508	508	509	508	507	507	507	506	505	504	504	504	504	0	0	0	538	538	539	539	538	537	537	536	536	536	536	536	536	536	536	536	536	536	536	536	536	536	536	536	536	536	536	536	536	536	535	535	535	539	540	540	542	0	0	0	0	0	0	0	0	0	0	0	0	0	0	0	0	0	0	0	0	0	0	0	0	507	507	507	0	0	0	0	0	503	503	504	504	506	506	506	507	507	0	0	507	507	507	507	507	508	508	508	0	0	0	0	0	0	0	0	0	0	0	0	0	0	0	0	538	538	537	537	537	538	538	537	536	536	538	538	538	539	539	540	541	542	542	542	541	541	539	539	540	540	539	539	539	536	536	536	537	537	538	538	539	539	540	541	541	541	542	542	544	544	536	536	536	536	536	539	539	539	539	541	542	541	541	541	541	541	541	540	540	541	541	542	542	542	542	542	542	542	542	542	542	542	544	545	548	550	551	552	552	553	557	559	560	560	0	0	0	0	0	0	0	0	0	0	0	705	705	705	707	708	707	707	707	708	710	710	710	710	710	710	710	708	707	707	708	708	708	708	710	708	708	710	708	708	705	705	705	705	705	705	705	708	708	708	708	710	710	710	710	710	708	708	708	708	705	705	705	704	704	705	705	705	704	704	708	725	723	723	725	725	725	725	723	723	725	726	728	728	728	726	726	726	726	726	725	723	723	723	723	722	722	722	722	722	722	723	723	0	0	0	0	0	758	758	752	750	750	752	752	752	752	752	752	756	758	758	763	763	763	761	761	0	0	0	0	0	0	0	0	0	0	0	0	0	0	0	0	0	0	0	0	1165	1165	1169	1169	1169	1169	1169	0	0	0	0	0	0	0	0	0	0	0	0	0	0	0	0	0	0	0
0	0	0	0	0	0	0	0	0	0	0	0	0	0	0	0	0	0	0	0	0	0	0	0	0	0	0	0	0	0	0	0	0	0	0	0	0	690	690	689	689	689	687	687	689	689	689	689	0	0	0	0	555	555	555	555	547	547	545	545	542	541	541	536	536	536	535	534	534	534	534	533	533	532	532	532	532	532	531	531	531	531	532	532	532	532	532	532	532	533	533	534	534	534	535	535	535	532	532	533	533	533	534	534	534	534	534	535	535	534	534	534	534	534	534	534	534	534	534	534	534	534	535	535	535	536	536	537	539	535	535	535	535	536	536	536	536	536	536	536	535	535	535	536	536	537	538	538	538	536	536	538	538	537	537	536	536	538	539	539	538	536	536	535	535	536	536	536	534	534	537	536	535	535	535	534	534	534	534	534	534	533	533	534	534	534	534	535	535	535	535	535	536	536	536	536	536	536	536	536	536	536	536	536	536	536	536	536	536	536	536	537	537	539	539	539	539	539	515	515	539	539	516	516	516	517	517	516	516	516	516	516	516	516	516	516	516	516	516	516	516	516	516	516	515	515	515	515	515	515	514	514	514	515	514	510	510	510	510	510	508	507	507	507	506	505	504	504	504	504	0	0	0	538	538	539	539	0	537	537	536	536	536	534	534	533	533	535	535	535	535	535	535	535	535	535	534	534	536	535	535	535	533	533	533	533	533	533	533	0	0	0	0	0	0	0	0	0	0	0	0	0	0	0	0	0	0	0	0	0	0	0	0	0	0	0	0	0	0	0	0	0	0	0	0	0	506	506	506	507	507	0	0	0	0	0	0	0	0	0	0	0	0	0	0	0	0	0	0	0	0	0	0	0	0	0	536	536	536	536	536	536	536	537	536	536	536	536	536	533	533	538	538	541	541	534	536	536	536	536	536	538	538	538	538	537	536	536	536	536	537	537	537	537	538	538	538	538	539	538	537	536	536	536	536	536	536	536	536	538	538	538	539	539	539	540	540	540	540	540	539	539	540	540	541	541	541	540	540	541	541	541	542	542	542	544	545	545	551	551	552	553	555	557	559	559	559	0	0	0	0	0	0	0	0	0	0	703	703	704	704	705	707	705	705	705	707	708	708	708	708	708	708	708	707	705	705	705	705	705	705	707	707	707	707	707	705	704	704	704	704	704	704	704	705	705	705	705	707	707	708	708	708	708	707	707	705	705	704	704	703	703	704	704	704	704	704	716	716	722	722	722	722	723	723	722	722	723	725	725	725	725	725	725	725	725	725	723	723	722	722	722	722	722	722	722	722	722	722	722	0	0	0	0	0	0	0	750	750	750	750	750	750	752	750	750	756	756	758	763	763	763	0	0	0	0	0	0	0	0	0	0	0	0	0	0	0	0	0	0	0	0	0	0	1165	1165	1165	1165	1165	1169	1169	0	0	0	0	0	0	0	0	0	0	0	0	0	0	0	0	0	0	0
0	0	0	0	0	0	0	0	0	0	0	0	0	0	0	0	0	0	0	0	0	0	0	0	0	0	0	0	0	0	0	0	0	0	0	0	0	690	690	690	689	689	689	689	689	689	689	689	689	689	691	691	555	555	555	555	0	0	0	0	0	0	536	536	536	535	534	533	533	533	533	532	532	532	532	531	531	530	528	528	528	529	529	529	529	530	530	530	531	532	532	532	532	532	532	531	531	530	530	531	532	532	532	532	532	532	532	532	532	532	532	532	532	532	534	534	533	533	533	534	534	534	534	534	534	535	535	534	534	534	533	534	534	534	535	534	534	534	534	534	533	532	532	534	534	537	538	538	538	536	536	533	533	533	533	533	534	535	536	536	536	534	533	533	533	533	533	533	533	533	533	533	533	533	533	533	533	533	532	532	532	532	532	532	532	532	532	534	534	534	533	533	534	535	535	535	535	535	535	536	536	536	536	536	536	536	536	536	535	535	536	536	536	537	537	537	537	513	513	515	515	516	516	516	516	516	516	516	516	516	516	516	516	516	516	515	515	515	515	516	516	515	515	515	514	514	514	514	514	515	514	513	513	513	513	510	510	509	509	508	507	507	507	507	507	507	504	504	504	504	0	0	0	538	538	539	539	0	537	537	0	536	533	533	533	532	532	532	532	532	532	530	530	530	532	532	532	533	533	533	534	533	532	532	533	533	532	532	532	532	532	0	0	0	0	0	0	0	0	0	0	0	0	0	0	0	0	0	0	0	0	0	0	0	0	0	0	0	0	0	0	0	0	0	0	0	0	0	0	0	0	0	0	0	0	0	0	0	0	0	0	0	0	0	0	0	0	0	0	0	0	0	0	0	0	0	535	535	535	535	536	535	535	536	535	535	533	533	533	532	532	532	538	538	538	532	534	534	534	535	535	537	536	536	537	536	536	535	535	536	536	536	536	536	537	537	537	537	537	536	536	535	535	535	535	536	536	536	536	537	537	537	537	537	537	538	538	538	538	539	538	538	539	539	540	540	540	540	540	540	541	541	542	542	542	544	545	545	545	553	553	555	557	557	559	559	559	0	0	0	0	0	0	0	700	700	700	701	701	703	703	704	705	704	704	704	705	705	705	705	705	705	707	705	705	704	704	704	704	704	704	704	704	704	704	704	703	703	703	703	703	703	701	701	703	703	703	703	703	703	704	705	707	707	705	705	705	704	704	703	703	703	703	703	701	701	701	714	714	720	720	722	722	722	722	722	722	722	723	723	723	723	723	723	723	723	723	723	722	722	720	720	720	720	720	720	720	720	720	720	0	0	0	0	0	0	0	750	748	748	748	750	750	750	750	750	750	756	0	0	0	0	0	0	0	0	0	0	0	0	0	0	0	0	0	0	0	0	0	0	0	0	0	0	1153	1153	1153	1153	1153	1153	1153	0	0	0	0	0	0	0	0	0	0	0	0	0	0	0	0	0	0	0
0	0	0	0	0	0	0	0	0	0	0	0	0	0	0	0	0	0	0	0	0	0	0	0	0	0	0	0	0	0	0	0	0	0	0	0	0	690	690	690	690	689	689	689	689	689	689	689	689	691	691	691	0	0	0	0	0	0	0	0	0	0	536	536	536	535	534	532	532	532	532	532	532	529	529	528	528	528	526	526	527	527	527	528	528	529	529	529	531	531	531	532	532	531	531	529	529	529	529	531	531	530	530	530	530	531	531	531	530	530	530	531	531	531	533	533	533	533	533	533	533	533	533	533	533	535	535	534	534	534	532	532	532	532	532	532	532	532	532	532	532	532	532	531	531	532	532	532	532	532	532	532	532	532	532	532	533	533	533	533	533	532	532	532	532	532	532	532	532	532	532	532	531	531	532	532	532	532	532	531	530	530	530	530	530	532	532	532	532	532	532	532	532	532	532	532	532	533	533	534	534	534	535	535	536	535	535	535	535	535	535	536	536	536	536	513	513	513	513	515	515	515	515	516	516	516	516	516	516	516	516	516	516	516	516	515	515	515	515	515	516	515	515	515	514	514	514	514	514	514	514	513	513	513	513	510	510	507	507	507	507	507	507	507	507	507	504	504	504	0	0	0	0	0	0	0	0	0	0	0	0	0	532	532	532	531	530	530	530	530	529	529	529	528	528	527	527	528	530	530	528	528	529	530	530	530	530	530	530	530	530	530	0	527	527	527	0	0	0	0	0	0	0	0	0	0	0	0	0	0	0	0	0	0	0	0	0	0	0	0	0	0	0	0	0	0	0	0	0	0	0	0	0	0	0	0	0	0	0	0	0	0	0	0	0	0	0	0	0	0	0	0	0	0	531	531	531	532	532	532	532	532	533	533	533	534	532	532	533	532	532	532	532	532	532	532	532	532	533	534	534	537	535	535	536	536	535	535	535	535	535	535	536	536	536	536	537	536	536	535	535	534	534	534	534	535	535	535	535	536	536	537	537	537	537	537	537	537	537	538	537	537	539	539	540	540	539	539	539	540	541	541	542	542	543	544	545	545	555	555	555	555	557	557	559	559	559	0	0	0	0	0	698	698	698	700	700	700	700	701	701	701	703	703	703	703	704	704	704	704	704	704	704	703	703	703	703	703	703	703	701	701	701	701	703	703	703	701	701	701	701	701	700	700	700	700	700	700	698	698	700	698	698	703	704	704	704	703	703	701	701	701	701	701	700	700	700	701	713	719	719	720	720	722	722	720	720	722	722	722	722	722	722	722	722	722	722	722	722	720	720	719	719	717	717	717	719	717	717	717	0	0	0	0	0	0	0	748	748	748	748	750	750	750	750	750	750	0	0	0	0	0	0	0	0	0	0	0	0	0	0	0	0	0	0	0	0	0	0	0	0	0	0	1153	1150	1150	1150	1150	1150	1150	1150	0	0	0	0	0	0	0	0	0	0	0	0	0	0	0	0	0	0	0
0	0	0	0	0	0	0	0	0	0	0	0	0	0	0	0	0	0	0	0	0	0	0	0	0	0	0	0	0	0	0	0	0	0	0	0	0	691	691	690	690	689	689	689	689	690	690	690	690	691	694	695	695	0	0	0	0	0	0	0	0	0	536	536	536	535	533	532	532	531	531	532	529	528	528	527	527	524	524	525	525	526	526	527	527	527	528	528	528	528	529	528	528	527	527	528	528	527	527	527	528	530	530	529	529	529	529	530	528	528	528	529	529	531	533	533	533	533	533	529	528	528	528	528	527	527	527	527	527	527	532	529	529	529	529	530	531	531	531	531	531	531	531	530	530	531	531	532	532	532	531	531	531	531	531	531	532	532	532	532	532	531	531	531	531	531	531	531	531	531	531	531	530	530	531	531	531	531	531	530	529	529	529	529	529	530	530	531	531	532	532	532	532	531	531	531	531	532	531	531	531	532	532	535	535	535	535	535	535	535	535	536	536	536	536	512	512	513	513	514	514	515	515	515	516	516	516	516	516	516	516	516	516	516	516	516	516	515	515	515	516	515	515	515	514	514	514	514	514	514	514	513	513	513	0	0	0	507	507	507	507	507	507	507	507	0	0	0	0	0	0	0	0	0	0	0	0	0	0	0	0	0	532	530	530	529	529	529	529	529	529	528	528	528	527	527	527	527	527	527	527	527	528	529	529	529	529	529	530	530	523	523	523	525	526	526	523	523	523	523	523	0	0	0	0	0	0	0	0	0	0	0	0	0	0	0	0	0	0	0	0	0	0	0	0	0	0	0	0	0	0	0	0	0	0	0	0	0	0	0	0	0	0	0	0	0	0	0	0	0	0	0	0	0	531	531	531	532	532	532	532	532	532	531	531	531	532	532	532	532	532	532	532	532	532	532	532	532	532	532	532	532	533	533	534	534	533	532	532	532	530	530	530	532	532	534	535	535	535	533	533	533	532	532	532	532	532	533	533	533	535	535	535	534	534	534	533	533	534	534	534	535	536	536	536	536	536	537	538	538	539	540	542	542	543	544	545	545	554	555	555	555	558	559	562	562	0	0	0	0	0	0	698	698	698	698	698	698	698	700	700	700	700	700	701	701	701	701	701	701	703	703	701	701	701	701	701	700	700	698	698	698	700	700	700	700	700	700	700	700	700	700	698	698	698	698	698	698	698	698	698	698	698	700	701	703	703	703	701	700	700	700	700	700	698	698	700	700	713	717	717	717	719	720	720	720	720	720	720	720	720	720	722	720	720	720	720	720	720	719	719	717	717	717	717	717	717	717	716	716	716	0	0	0	0	0	0	748	747	747	747	747	747	747	750	750	0	0	0	0	0	0	0	0	0	0	0	0	0	0	0	0	0	0	0	0	0	0	0	0	0	0	1150	1150	1150	1150	1146	1146	1146	1146	1146	0	0	0	0	0	0	0	0	0	0	0	0	0	0	0	0	0	0	0
0	0	0	0	0	0	0	0	0	0	0	0	0	0	0	0	0	0	0	0	0	0	0	0	0	0	0	0	0	0	0	0	0	0	0	0	0	691	690	690	690	689	689	689	689	690	690	690	690	693	694	695	695	695	0	0	0	0	0	0	0	0	0	539	539	535	533	532	532	531	530	530	529	528	527	526	525	523	523	524	525	525	525	526	526	527	527	527	527	527	527	527	527	527	527	527	527	526	526	527	528	528	527	527	527	527	527	527	527	527	527	527	527	527	527	527	527	528	528	528	528	528	528	527	527	527	527	526	526	526	526	526	527	528	528	528	529	529	529	529	529	529	529	530	530	530	530	532	532	532	531	530	530	531	531	531	530	530	530	530	529	528	528	528	528	529	529	529	529	529	528	527	527	528	529	529	530	531	531	530	530	528	528	528	528	529	529	530	530	530	529	529	529	529	528	528	528	529	528	528	529	529	529	529	510	511	511	511	512	512	512	513	513	513	511	511	511	511	513	513	514	515	515	515	515	516	516	516	516	517	517	517	516	516	516	516	516	0	0	0	0	0	0	0	0	0	514	514	514	514	514	513	513	513	0	0	0	507	507	507	507	507	507	507	0	0	0	0	0	0	0	0	0	0	0	0	0	0	0	0	0	0	532	530	529	529	529	529	529	528	527	527	527	527	527	526	526	527	527	527	527	527	527	528	528	528	528	524	523	523	523	523	523	524	524	523	523	523	523	523	523	0	0	0	0	0	0	0	0	0	0	0	0	0	0	0	0	0	0	0	0	0	0	0	0	0	0	0	0	0	0	0	0	0	0	0	0	0	0	0	0	0	0	0	0	0	0	0	0	0	526	525	525	525	526	527	529	529	529	529	529	529	530	529	529	530	531	531	529	529	529	530	531	531	531	532	530	529	529	529	530	531	533	533	534	534	532	532	529	529	529	529	529	529	529	530	530	534	534	533	533	532	532	532	532	532	532	532	533	533	535	535	527	527	532	532	532	532	532	532	532	532	533	533	533	535	535	536	537	538	538	540	540	542	542	542	546	553	554	555	555	556	558	562	563	563	565	565	0	0	0	0	698	698	697	697	695	695	695	695	697	697	697	697	697	698	698	700	700	700	700	700	700	698	698	698	698	698	698	695	695	697	697	697	698	698	698	698	698	697	697	697	697	697	697	697	697	698	697	697	697	697	697	697	697	700	700	700	700	698	698	698	698	697	697	697	698	698	713	716	716	716	717	717	719	719	719	720	720	720	720	719	719	719	719	719	719	719	717	717	717	716	716	716	716	716	716	716	714	713	711	710	710	708	708	708	708	710	710	710	747	747	747	747	747	750	0	0	0	0	0	0	0	0	0	0	0	0	0	0	0	0	0	0	0	0	0	0	0	0	0	0	1150	1150	1150	1150	1146	1146	1146	1146	1146	0	0	0	0	0	0	0	0	0	0	0	0	0	0	0	0	0	0	0
0	0	0	0	0	0	0	0	0	0	0	0	0	0	0	0	0	0	0	0	0	0	0	0	0	0	0	0	0	0	0	0	0	0	0	0	0	691	690	690	690	689	689	689	689	690	690	690	691	694	694	695	695	695	695	695	695	0	0	0	0	0	539	539	539	537	537	532	532	530	530	529	527	527	526	525	523	523	523	523	524	524	524	524	524	525	525	527	527	527	527	527	525	523	523	523	523	524	524	525	525	526	526	526	527	527	526	526	526	526	526	526	526	525	525	526	527	527	527	527	527	527	527	527	526	526	527	526	525	525	525	525	527	527	527	527	528	528	529	529	529	528	528	529	529	529	529	530	530	529	529	529	529	530	530	530	529	528	527	527	527	527	527	527	527	526	526	526	526	526	526	525	525	526	526	526	527	527	527	526	526	526	527	526	526	526	527	527	527	527	527	527	527	526	526	527	527	528	528	528	529	529	529	529	510	510	510	511	512	512	512	512	513	513	511	511	511	512	513	514	515	515	515	515	515	0	0	0	0	517	517	517	0	0	0	0	0	0	0	0	0	0	0	0	0	0	0	0	0	0	0	0	0	0	0	0	0	0	0	0	0	0	0	0	0	0	0	0	0	0	0	0	0	0	0	0	0	0	0	0	0	0	0	530	529	529	528	528	528	527	527	527	527	527	527	526	526	526	527	527	527	527	527	528	527	527	527	524	523	523	523	523	523	523	523	523	523	523	523	523	523	523	0	0	0	0	0	0	0	0	0	0	0	0	0	0	0	0	0	0	0	0	0	0	0	0	0	0	0	0	0	0	0	0	0	0	0	0	0	0	0	0	0	0	0	0	0	0	0	0	525	525	525	525	526	526	527	527	527	527	527	528	528	528	529	530	530	527	527	528	528	528	528	528	531	526	526	527	527	527	526	526	526	526	526	526	526	527	527	527	527	528	528	528	528	528	528	529	529	529	529	529	528	532	532	532	532	532	532	527	527	527	527	527	529	529	529	531	532	532	532	532	532	532	533	535	535	536	537	538	538	540	542	542	544	546	547	553	554	555	556	556	558	562	563	563	565	565	0	0	0	0	687	687	689	689	691	693	693	693	693	694	694	694	694	694	694	695	695	695	695	697	697	697	695	695	695	695	695	694	694	694	695	695	695	695	695	695	695	694	694	694	695	695	695	695	697	697	695	695	695	697	697	695	695	697	697	698	697	697	697	697	697	697	697	697	697	698	713	716	716	716	716	716	716	717	717	717	719	719	719	717	717	717	717	716	716	716	716	714	714	716	714	714	714	714	714	714	713	711	710	708	708	708	708	707	707	708	708	707	707	707	707	698	698	0	0	0	0	0	0	0	0	0	0	0	0	0	0	0	0	0	0	0	0	0	0	0	0	0	0	0	1150	1150	1150	1150	1146	1146	1146	1146	1146	0	0	0	0	0	0	0	0	0	0	0	0	0	0	0	0	0	0	0
0	0	0	0	0	0	0	0	0	0	0	0	0	0	0	0	0	0	0	0	0	0	0	0	0	0	0	0	0	0	0	0	0	0	804	804	0	0	691	690	690	689	689	689	689	689	690	690	691	694	694	695	695	695	695	695	695	0	0	0	541	540	539	539	539	537	537	537	532	530	529	528	527	526	525	524	523	522	522	523	523	523	523	523	523	523	523	523	523	527	527	527	521	521	521	521	522	523	523	523	524	525	525	525	525	525	525	524	524	525	525	525	525	524	524	524	525	524	524	525	526	527	527	525	525	525	526	524	524	524	524	524	525	526	526	527	527	527	527	527	527	527	527	527	525	525	523	523	523	523	522	522	523	523	524	524	524	525	525	525	525	525	525	525	525	526	525	525	525	525	525	524	524	525	525	525	525	525	525	525	525	525	526	525	525	525	525	526	525	525	525	525	525	525	525	526	527	527	527	527	529	529	529	505	510	510	510	511	512	512	512	512	513	513	512	512	512	512	513	514	514	515	515	0	0	0	0	0	0	0	0	0	0	0	0	0	0	0	0	0	0	0	0	0	0	0	0	0	0	0	0	0	0	0	0	0	0	0	0	0	0	0	0	0	0	0	0	0	0	0	0	0	0	0	0	0	0	0	0	0	0	0	0	0	529	529	528	528	528	527	527	527	527	527	527	526	526	526	525	525	526	526	526	527	526	526	526	524	523	523	523	523	523	523	523	523	523	523	523	522	522	522	0	0	0	0	0	0	0	0	0	0	0	0	0	0	0	0	0	0	0	0	0	0	0	0	0	0	0	0	0	0	0	0	0	0	0	0	0	0	0	0	0	0	0	0	0	0	0	0	525	524	524	524	525	526	526	526	527	527	527	527	527	526	526	526	527	527	527	528	528	527	527	526	525	525	525	526	526	527	526	526	527	527	526	526	526	526	526	527	527	527	527	527	527	527	527	527	528	528	527	527	527	528	528	527	527	527	527	527	526	526	527	527	527	527	528	530	530	530	530	531	531	531	532	533	535	536	537	538	539	541	542	542	545	547	548	553	554	555	555	556	559	559	563	563	0	0	0	682	682	683	684	686	686	687	690	691	691	691	693	693	693	693	693	693	693	694	694	694	693	693	693	691	691	691	691	691	691	691	691	691	691	691	691	691	691	691	691	691	691	691	691	691	694	694	694	695	695	694	694	695	695	695	695	694	694	695	694	694	694	695	695	695	695	695	695	697	697	714	714	714	714	714	716	716	716	716	716	716	717	716	716	716	716	716	716	714	714	714	714	714	713	713	714	714	714	713	711	710	708	708	707	707	708	707	707	708	708	707	707	707	698	698	698	0	0	0	0	0	0	0	0	0	0	0	0	0	0	0	0	0	0	0	0	0	0	0	0	0	0	0	0	0	0	0	0	0	0	0	0	0	0	0	0	0	0	0	0	0	0	0	0	0	0	0	0	0	0	0
0	0	0	0	0	0	0	0	0	0	0	0	0	0	0	0	0	0	0	0	0	0	0	0	0	0	0	0	0	0	0	0	0	0	804	804	0	0	691	690	689	689	689	689	689	689	689	689	691	693	694	694	695	695	695	695	0	0	0	0	541	540	540	540	539	539	538	538	532	530	529	528	527	525	525	524	523	522	522	522	523	522	522	522	522	522	522	521	521	521	520	520	519	519	519	520	521	522	522	521	520	520	521	522	522	521	522	523	523	524	524	524	524	523	523	523	522	522	523	523	524	525	525	524	523	523	523	522	522	521	521	521	521	521	521	521	521	521	523	523	523	523	525	525	522	522	521	521	520	520	520	521	522	522	522	523	522	522	522	522	523	523	523	523	523	523	523	524	524	524	524	523	523	524	523	523	523	523	523	523	523	524	524	524	524	524	524	523	523	523	523	523	524	524	524	525	526	526	505	505	505	505	505	505	506	507	507	510	510	511	512	512	512	512	511	511	511	512	513	514	514	0	0	0	0	0	0	0	0	0	0	0	0	0	0	0	0	0	0	0	0	0	0	0	0	0	0	0	0	0	0	0	0	0	0	0	0	0	0	0	0	0	0	0	0	0	0	0	0	0	0	0	0	0	0	0	0	0	0	0	0	0	0	0	0	0	528	528	528	527	527	527	527	527	527	526	526	526	525	525	526	526	526	527	526	526	526	524	523	523	523	523	523	523	521	521	522	523	522	522	522	522	0	0	0	0	0	516	516	516	516	516	517	517	0	0	0	0	0	0	0	0	0	0	0	0	0	0	0	0	0	0	0	0	0	0	0	0	0	0	519	519	519	519	519	520	520	0	0	0	524	524	523	523	525	525	525	525	526	527	527	527	525	523	523	523	523	519	519	519	527	527	527	526	525	525	525	525	526	527	527	527	527	527	525	525	525	526	526	526	527	527	527	527	527	527	527	527	527	527	527	527	527	525	526	526	526	526	526	526	525	525	525	527	527	527	527	528	529	529	529	530	530	530	531	532	533	535	537	538	539	541	542	543	545	547	548	552	553	555	555	555	559	559	0	0	0	0	0	680	680	682	682	683	684	684	689	690	690	690	691	691	691	691	691	691	691	691	691	691	690	690	690	689	689	689	689	690	690	690	690	689	689	689	689	689	690	690	690	690	691	691	690	690	689	687	687	686	686	687	687	689	689	689	689	689	690	690	689	687	687	690	690	693	693	693	695	697	697	711	711	713	713	713	713	713	713	713	714	714	716	714	714	714	714	716	714	714	714	713	713	714	713	713	713	713	713	711	710	708	708	707	707	707	707	707	707	707	707	705	704	703	698	698	698	0	0	0	0	0	0	0	0	0	0	0	0	0	0	0	0	0	0	0	0	0	0	0	0	0	0	0	0	0	0	0	0	0	0	0	0	0	0	0	0	0	0	0	0	0	0	0	0	0	0	0	0	0	0	0
0	0	0	0	0	0	0	0	0	0	0	0	0	0	0	0	0	0	0	0	0	0	0	0	0	0	0	0	0	0	0	0	0	0	804	804	0	0	691	690	689	689	689	689	689	689	689	689	690	691	693	694	694	695	695	695	0	0	0	0	543	543	542	542	542	539	539	539	533	530	530	529	527	525	525	524	523	522	522	522	522	521	520	520	521	521	520	519	519	519	519	519	519	519	519	519	521	521	522	521	520	520	520	521	521	520	521	520	521	519	519	521	521	520	520	520	520	520	521	521	521	522	522	521	522	521	521	520	520	519	519	519	519	519	519	520	520	520	521	521	522	522	522	521	521	521	520	520	519	519	520	521	521	521	521	522	522	521	521	521	522	522	522	523	522	522	522	523	523	523	523	523	523	523	523	523	522	522	522	522	522	522	522	522	522	523	523	521	521	523	523	523	523	523	523	524	524	504	504	504	505	505	505	505	506	506	507	509	510	510	511	511	512	512	511	511	511	512	512	514	514	0	0	0	0	0	0	0	0	0	0	0	0	0	0	0	0	0	0	0	0	0	0	0	0	0	0	0	0	0	0	0	0	0	0	0	0	0	0	0	0	0	0	0	0	0	0	0	0	0	0	0	0	0	0	0	0	0	0	0	0	0	0	0	0	0	0	0	0	0	0	527	527	527	527	526	526	526	525	525	526	526	526	527	526	526	526	524	523	523	523	522	520	520	519	519	519	520	520	520	521	518	518	518	0	0	0	516	516	516	516	516	517	516	516	516	0	0	0	0	0	0	0	0	0	0	0	0	0	0	0	0	0	0	0	0	0	0	0	519	519	519	519	519	519	519	519	519	0	0	524	524	521	521	524	524	525	523	523	526	526	526	525	523	523	523	519	519	519	519	519	526	526	526	525	525	525	525	526	527	526	523	523	523	523	523	523	524	525	526	526	526	526	526	526	526	526	526	527	527	526	525	524	524	525	524	524	524	524	524	524	523	523	523	523	523	523	524	527	527	527	528	528	529	530	532	532	535	537	538	539	541	543	543	545	547	548	552	552	552	555	555	0	0	0	0	0	0	679	679	679	680	682	682	682	683	683	687	687	687	691	689	689	690	690	690	691	690	689	689	687	687	687	687	687	687	687	689	689	689	687	687	687	686	686	686	687	687	687	687	689	690	689	687	687	687	686	686	684	684	686	687	687	686	686	687	687	686	684	683	683	683	683	683	683	683	683	682	705	705	705	705	705	707	705	705	705	707	707	707	713	711	711	713	713	713	713	713	713	711	711	711	710	710	710	710	710	707	707	707	707	707	707	707	707	707	707	705	705	705	704	703	700	700	700	700	0	0	0	0	0	0	0	0	0	0	0	0	0	0	0	0	0	0	0	0	0	0	0	0	0	0	0	0	1138	1138	1142	1138	1138	1138	0	0	0	0	0	0	0	0	0	0	0	0	0	0	0	0	0	0	0	0
0	0	0	0	0	0	0	0	0	0	0	0	0	0	0	0	0	0	0	0	0	0	0	0	0	0	0	0	0	0	0	0	0	0	804	804	804	0	691	690	689	689	689	689	687	687	689	689	690	690	691	693	694	694	695	695	0	0	0	0	543	543	542	542	542	541	540	540	535	532	530	529	528	526	525	524	523	522	521	521	520	519	519	519	519	519	519	518	518	518	518	518	516	517	517	518	518	517	517	517	517	518	518	519	518	518	518	519	520	519	519	519	519	519	519	519	519	519	520	520	521	520	520	519	519	519	519	519	519	519	519	519	519	519	519	519	519	519	520	520	521	522	521	520	520	520	520	519	519	519	519	520	519	519	519	519	520	520	520	520	520	520	521	521	521	521	521	521	521	520	520	521	521	520	519	518	518	519	519	519	519	520	520	520	521	521	521	520	520	523	523	523	523	523	523	523	523	504	504	504	505	505	505	505	506	506	507	509	510	510	511	511	512	512	512	511	511	511	512	0	0	0	0	0	0	0	0	0	0	0	0	0	0	0	0	0	0	0	0	0	0	0	0	0	0	0	0	0	0	0	0	0	0	0	0	0	0	0	0	0	0	0	0	0	0	0	0	0	0	0	0	0	0	0	0	0	0	0	0	0	0	0	0	0	0	0	0	0	0	0	0	0	0	0	0	0	0	0	0	0	0	0	0	0	0	0	0	0	523	523	523	522	518	518	519	519	517	517	517	518	517	517	518	518	0	0	516	516	516	516	516	516	516	516	516	516	516	516	0	0	0	0	0	0	0	0	0	0	0	0	0	0	0	0	0	0	0	0	0	519	519	519	519	519	519	519	519	519	520	520	520	519	519	519	519	517	517	519	519	522	522	522	521	521	521	520	519	519	519	519	519	520	526	526	525	524	524	525	525	525	522	522	523	523	523	523	523	523	523	524	525	525	525	525	525	526	525	525	527	526	526	525	524	524	524	524	524	524	524	524	523	523	523	523	523	523	523	524	525	526	527	527	528	528	530	532	532	536	537	538	539	541	541	548	548	548	549	551	552	552	0	0	0	0	0	0	678	678	678	678	679	679	680	680	680	680	680	680	680	680	680	682	683	686	689	689	689	689	689	686	684	684	684	684	684	684	686	687	687	687	686	686	686	684	684	684	686	686	686	686	687	687	686	686	686	684	684	683	683	683	684	684	683	683	683	683	683	682	682	682	682	682	682	682	682	682	682	682	705	705	704	704	704	705	705	705	705	705	705	707	707	704	705	705	707	707	708	708	710	708	708	707	707	707	705	705	707	705	705	705	705	707	705	705	707	705	705	704	704	703	701	700	700	700	700	700	0	0	0	0	0	0	0	0	0	0	0	0	0	0	0	0	0	0	0	0	0	0	0	0	0	1272	1272	1272	1138	1138	1138	1134	1134	1134	0	0	0	0	0	0	0	0	0	0	0	0	0	0	0	0	0	0	0	0
0	0	0	0	0	0	0	0	0	0	0	0	0	0	0	0	0	0	0	0	0	0	0	0	0	0	0	0	0	0	0	0	0	0	802	802	804	804	0	690	689	689	689	687	687	687	687	689	689	690	690	691	693	694	695	695	695	0	0	0	543	543	543	542	542	541	540	536	536	533	532	530	529	526	525	524	523	522	521	520	516	516	516	516	516	516	515	515	515	515	516	516	516	516	516	516	516	516	516	516	516	516	516	518	517	516	516	517	517	518	518	518	517	516	516	518	517	517	516	516	519	519	519	519	519	519	519	519	519	519	519	519	519	519	519	519	518	518	519	519	519	519	521	520	520	520	519	518	518	519	519	519	519	519	519	519	519	519	519	519	519	519	519	519	519	519	519	519	519	518	518	519	518	518	518	517	517	518	518	519	519	520	518	518	519	517	517	517	519	521	521	523	523	523	523	523	523	504	504	504	505	505	505	506	506	506	507	507	509	510	510	511	511	512	512	511	511	511	0	0	0	0	0	0	0	0	0	0	0	0	0	0	0	0	0	0	0	0	0	0	0	0	0	0	0	0	0	0	0	0	0	0	0	0	0	0	0	0	0	0	0	0	0	0	0	0	0	0	0	0	0	0	0	0	0	0	0	0	0	0	0	0	0	0	0	0	0	0	0	0	0	0	0	0	0	0	0	0	0	0	0	0	0	0	0	0	0	0	0	0	0	522	516	516	516	516	516	516	516	516	516	516	516	516	516	0	516	515	515	515	516	516	516	516	516	516	516	516	0	0	0	0	0	0	0	0	0	0	0	0	0	0	0	0	0	0	0	0	0	518	518	518	518	518	518	518	518	519	519	519	519	519	519	519	518	517	517	519	519	521	521	521	521	521	520	519	519	519	519	519	519	520	520	526	525	524	524	524	524	523	522	522	523	523	523	523	523	523	523	523	523	523	524	524	524	525	525	525	525	526	526	526	524	524	523	523	523	523	523	523	523	523	522	522	522	522	522	523	525	525	526	526	527	528	529	529	536	536	538	539	539	542	543	543	548	548	548	551	552	552	0	0	0	0	0	674	674	674	678	678	678	678	678	679	679	679	679	678	678	678	678	680	679	679	682	686	684	684	684	683	683	683	683	683	683	683	684	684	686	686	684	684	684	683	682	682	683	683	683	683	683	684	684	684	683	683	684	683	682	682	683	682	682	682	680	680	682	680	680	680	680	680	680	680	680	680	680	680	680	704	704	704	704	704	704	704	704	704	704	704	704	703	703	704	704	704	708	710	710	708	707	705	705	704	704	703	703	701	701	701	703	703	703	704	704	703	703	700	700	700	700	700	698	698	700	700	700	0	0	0	0	0	716	716	716	0	0	0	0	0	0	0	0	0	0	0	0	0	0	0	0	1272	1272	1272	1272	1138	1134	1134	1134	1134	1134	0	0	0	0	0	0	0	0	0	0	0	0	0	0	0	0	0	0	0
0	0	0	0	0	0	0	0	0	0	0	0	0	0	0	0	0	0	0	0	0	0	0	0	0	0	0	0	0	0	0	0	0	0	802	802	804	804	0	0	689	689	687	687	687	687	687	687	689	689	690	691	693	693	694	695	695	0	0	0	0	543	543	543	542	541	541	539	535	534	534	529	529	527	525	524	523	522	518	516	516	516	516	516	516	515	514	514	514	515	515	515	515	515	516	515	515	515	515	515	514	514	514	514	514	514	514	514	517	517	517	517	516	516	516	516	516	516	516	516	519	519	518	518	518	518	518	518	518	517	517	518	518	518	518	517	517	517	517	516	516	516	521	520	520	520	517	516	516	517	518	519	518	518	519	519	519	519	518	518	518	518	518	517	517	517	517	517	518	518	518	518	517	516	516	516	516	516	516	516	517	515	515	516	516	516	516	516	516	516	521	521	521	501	500	500	504	504	504	505	505	505	505	505	505	506	506	507	509	510	510	511	511	511	512	0	0	0	0	0	0	0	0	0	0	0	0	0	0	0	0	0	0	0	0	0	0	0	0	0	0	0	0	0	0	0	0	0	0	0	0	0	0	0	0	0	0	0	0	0	0	0	0	0	0	0	0	0	0	0	0	0	0	0	0	0	0	0	0	0	0	0	0	0	0	0	0	0	0	0	0	0	0	0	0	0	0	0	0	0	0	0	0	0	0	0	0	0	0	0	0	0	516	515	515	515	515	515	516	516	516	516	516	516	516	514	514	514	514	514	515	515	516	516	516	516	516	516	0	0	0	0	513	513	513	513	513	513	513	0	0	0	0	0	0	0	0	0	516	516	516	516	516	517	517	517	517	518	519	519	519	519	519	519	517	517	517	518	519	521	521	519	519	519	519	519	519	519	519	519	519	519	520	0	0	524	524	524	524	523	520	520	521	521	521	522	522	522	523	523	523	523	522	522	524	525	525	525	525	514	523	523	523	523	523	522	522	523	522	522	521	521	521	521	521	521	522	522	524	525	526	526	527	527	529	529	536	537	538	539	540	542	543	543	548	548	548	548	552	552	0	0	0	0	672	672	672	674	674	675	676	676	676	676	678	676	676	676	676	676	676	678	676	676	678	678	678	678	678	678	680	680	682	682	682	682	683	683	683	683	682	682	683	682	682	682	682	682	682	682	682	682	683	682	682	682	682	683	680	680	680	680	679	679	679	679	679	679	679	679	679	679	679	679	679	679	679	679	680	703	703	703	703	703	703	703	703	703	703	703	703	703	703	703	703	703	703	703	704	704	704	704	704	703	703	701	701	700	700	700	701	701	701	703	703	701	700	698	698	698	698	698	698	698	698	698	698	698	0	714	714	714	714	716	717	717	717	0	0	0	0	0	0	0	0	0	0	0	0	0	0	1272	1272	1272	1272	1138	1134	1134	1134	1134	1134	0	0	0	0	0	0	0	0	0	0	0	0	0	0	0	0	0	0	0
0	0	0	0	0	0	0	0	0	0	0	0	0	0	0	0	0	0	0	0	0	0	0	0	0	0	0	0	0	0	0	0	0	0	802	802	804	804	804	0	689	689	687	687	687	687	687	687	687	687	689	689	690	691	693	693	694	694	694	695	695	543	543	543	542	542	541	537	536	535	535	530	530	528	527	527	525	525	518	516	516	516	516	516	515	515	514	513	513	514	513	513	513	513	513	513	513	513	514	513	513	513	513	513	513	513	514	514	515	515	515	515	515	515	515	515	515	515	515	515	515	514	514	518	516	516	517	517	517	517	517	517	517	517	517	516	516	516	514	514	514	514	514	514	514	513	515	515	515	516	516	516	516	516	516	517	517	517	518	517	517	517	517	516	515	515	515	516	517	517	517	516	516	516	516	515	515	516	516	516	516	514	514	516	515	515	515	516	516	516	516	500	500	501	500	500	501	503	503	504	505	505	505	505	505	505	506	506	506	510	510	511	511	511	0	0	0	0	0	0	0	0	0	0	0	0	0	0	0	0	0	0	0	0	0	0	0	0	0	0	0	0	0	0	0	0	0	0	0	0	0	0	0	0	0	0	0	0	0	0	0	0	0	0	0	0	0	0	0	0	0	0	0	0	0	0	0	0	0	0	0	0	0	0	0	0	0	0	0	0	0	0	0	0	0	0	0	0	0	0	0	0	0	0	0	0	0	0	0	0	0	0	515	514	514	514	514	514	516	516	513	513	513	514	514	513	513	514	514	514	514	514	514	515	515	515	515	516	0	0	0	0	513	513	513	513	513	513	513	513	513	513	0	0	0	515	515	515	515	515	516	516	516	516	516	516	516	516	515	515	515	515	516	519	515	515	516	516	518	519	519	518	518	519	519	519	519	519	519	518	518	518	0	0	0	0	524	524	520	520	520	520	521	521	518	518	520	521	521	521	521	522	522	522	523	523	525	514	514	514	523	523	523	522	522	522	522	523	522	519	519	519	519	519	520	521	521	522	523	524	525	526	527	527	529	532	536	537	538	539	540	542	544	544	548	548	548	548	0	0	0	0	0	670	670	671	671	672	674	675	675	675	675	675	675	675	675	675	675	675	675	675	675	675	674	674	674	675	678	678	678	679	679	680	680	680	680	680	680	680	678	678	680	679	679	679	679	679	680	680	680	680	680	680	680	680	680	680	679	679	679	678	678	678	678	678	678	678	678	678	678	678	678	679	679	678	678	679	680	703	701	701	701	701	701	701	701	701	701	701	700	700	701	701	701	701	701	701	700	700	701	703	703	701	701	700	700	700	700	700	700	700	700	700	700	698	698	698	698	697	697	697	697	697	697	698	697	697	697	713	713	713	713	714	716	716	717	0	0	0	0	0	0	0	0	0	0	0	0	0	0	1272	1272	1277	1277	1277	1134	1131	1123	1123	1123	0	0	0	0	0	0	0	0	0	0	0	0	0	0	0	0	0	0	0
0	0	0	0	0	0	0	0	0	0	0	0	0	0	0	0	0	0	0	0	0	0	0	0	0	0	0	0	0	0	0	0	0	0	802	802	804	804	804	804	689	689	687	687	686	686	686	687	687	687	689	689	690	690	691	691	693	694	694	694	694	695	695	543	542	542	541	537	536	535	533	533	530	530	530	528	525	525	525	516	516	516	516	515	515	514	513	513	513	513	510	510	510	510	511	511	512	512	513	513	513	513	513	513	513	513	513	513	512	512	513	513	513	513	513	513	513	513	513	513	513	513	513	513	513	514	515	515	516	516	513	517	517	517	510	510	510	511	511	512	513	513	513	513	513	513	513	513	513	514	514	513	513	513	513	513	515	517	518	517	517	517	517	512	512	512	513	514	517	515	515	515	514	514	514	514	514	513	513	513	513	513	513	513	513	513	514	515	515	515	516	500	500	501	500	500	501	501	502	504	504	504	505	505	505	505	506	506	506	0	0	0	0	0	0	0	0	0	0	0	0	0	0	0	0	0	0	0	0	0	0	0	0	0	0	0	0	0	0	0	0	0	0	0	0	0	0	0	0	0	0	0	0	0	0	0	0	0	0	0	0	0	0	0	0	0	0	0	0	0	0	0	0	0	0	0	0	0	0	0	0	0	0	0	0	0	0	0	0	0	0	0	0	0	0	0	0	0	0	0	0	0	0	0	0	0	0	0	0	0	0	0	515	514	514	510	510	510	511	511	511	511	511	511	511	511	511	511	513	513	513	513	513	513	513	513	513	513	513	513	0	0	512	512	511	511	512	512	512	512	512	512	512	0	0	515	513	513	513	513	513	513	513	513	514	514	514	514	515	515	515	515	515	513	513	513	515	515	516	513	513	514	517	517	516	516	516	517	517	518	518	518	0	0	0	0	0	0	513	512	512	512	513	513	513	515	516	519	521	521	521	521	513	513	523	523	0	514	514	514	514	0	0	522	514	514	514	517	517	518	518	518	519	519	519	519	520	521	523	524	525	526	527	529	531	532	536	537	538	539	540	542	544	544	548	548	548	0	0	0	0	0	667	667	669	669	670	671	672	672	672	674	674	674	672	672	672	674	674	674	674	674	672	672	672	672	672	672	674	675	676	676	678	679	679	679	676	676	676	676	675	675	676	676	676	676	676	676	679	679	678	678	679	679	679	679	679	679	678	678	678	676	676	676	676	676	676	676	676	676	676	676	676	678	678	676	676	678	680	703	701	701	701	700	700	700	700	700	698	698	698	698	700	700	700	700	700	700	700	700	700	700	700	700	700	700	698	698	698	698	698	698	698	698	698	698	697	697	697	697	697	697	697	697	697	698	697	697	700	711	711	711	711	713	716	716	717	0	0	0	0	0	0	0	0	0	0	0	0	0	0	1268	1268	1272	1272	1277	1277	1127	1120	1120	1120	0	0	0	0	0	0	0	0	0	0	0	0	0	0	0	0	0	0	0
0	0	0	0	0	0	0	0	0	0	0	0	0	0	0	0	0	0	0	0	0	0	0	0	0	0	0	0	0	0	0	0	0	0	804	804	804	804	804	804	804	0	689	687	687	687	687	687	687	687	689	689	689	690	690	691	693	693	694	694	694	695	695	0	0	0	0	537	536	536	536	533	532	530	530	528	526	526	526	516	516	516	516	515	515	513	513	512	512	511	510	510	510	509	509	509	509	511	511	511	512	512	512	512	512	512	513	511	510	510	512	512	512	511	511	511	512	512	512	512	513	513	513	513	513	513	514	514	516	516	512	512	509	508	508	509	510	510	510	510	511	512	512	512	512	512	512	512	513	513	512	512	512	512	512	512	512	512	512	512	512	512	512	511	510	510	511	511	512	514	514	513	513	513	513	512	512	512	512	511	511	512	512	512	512	513	513	513	514	515	500	500	500	501	500	500	501	501	501	502	503	504	505	505	505	505	506	506	506	0	0	0	0	0	0	0	0	0	0	0	0	0	0	0	0	0	0	0	0	0	0	0	0	0	0	0	0	0	0	0	0	0	0	0	0	0	0	0	0	0	0	0	0	0	0	0	0	0	0	0	0	0	0	0	0	0	0	0	0	0	0	0	0	0	0	0	0	0	0	0	0	0	0	0	0	0	0	0	0	0	0	0	0	0	0	0	0	0	0	0	0	0	0	0	0	0	0	0	0	0	0	0	515	514	514	510	510	510	510	510	510	510	510	510	510	510	510	510	510	511	512	511	511	511	511	512	512	512	513	513	0	0	512	511	510	510	510	510	511	511	511	511	511	511	514	514	512	512	513	513	513	513	513	513	513	513	513	513	513	513	513	513	512	511	511	512	512	512	512	513	513	513	514	513	513	513	515	515	515	513	513	513	0	0	0	0	0	0	511	511	512	512	512	513	513	513	513	513	513	511	512	512	512	512	513	513	513	513	513	513	513	513	513	513	513	514	514	514	517	517	518	518	519	519	519	519	520	521	522	524	525	527	528	530	531	532	536	537	538	539	540	542	542	544	0	0	0	0	0	0	0	0	666	666	667	669	669	669	670	670	670	671	671	671	671	671	671	672	672	672	671	669	669	669	669	670	670	671	671	672	672	672	674	676	676	674	674	674	675	675	675	675	675	675	675	675	675	674	674	674	674	675	676	676	676	676	675	674	674	675	675	674	674	674	674	674	674	674	674	675	675	675	676	676	676	676	676	678	680	680	693	693	697	697	697	698	697	697	697	697	697	697	697	697	698	698	698	700	698	698	698	698	700	698	698	698	698	698	698	698	698	698	698	698	697	697	697	695	695	695	695	695	695	695	697	697	697	697	698	704	708	710	710	711	711	716	0	0	0	0	0	0	0	0	0	0	0	0	0	1268	1268	1268	1268	1268	1272	1272	1272	1123	1120	1120	1120	0	0	0	0	0	0	0	0	0	0	0	0	0	0	0	0	0	0	0
0	0	0	0	0	0	0	0	0	0	0	0	0	0	0	0	0	0	0	0	0	0	0	0	0	0	0	0	0	0	0	0	0	0	804	804	804	804	804	804	804	0	689	689	687	687	687	687	687	687	687	689	689	689	690	690	691	693	694	694	694	694	695	695	0	0	0	0	536	536	536	535	532	530	530	528	527	527	527	518	518	516	514	513	513	512	511	511	511	510	509	508	508	507	507	507	507	509	510	510	511	512	512	511	511	511	512	511	509	509	510	510	512	510	510	510	510	509	510	510	510	513	513	512	512	513	514	514	514	509	509	510	509	508	508	509	510	510	510	510	510	511	511	511	510	510	510	510	511	511	510	510	511	511	510	510	510	510	510	510	510	510	510	510	510	510	510	510	510	510	510	510	510	510	510	510	510	510	510	510	510	510	511	511	511	512	513	513	514	515	500	500	500	500	500	500	500	500	500	501	501	504	505	505	505	505	505	506	0	0	0	0	0	0	0	0	0	0	0	0	0	0	0	0	0	0	0	0	0	0	0	0	0	0	0	0	0	0	0	0	0	0	0	0	0	0	0	0	0	0	0	0	0	0	0	0	0	0	0	0	0	0	0	0	0	0	0	0	0	0	0	0	0	0	0	0	0	0	0	0	0	0	0	0	0	0	0	0	0	0	0	0	0	0	0	0	0	0	0	0	0	0	0	0	0	0	0	0	0	0	0	0	0	0	507	507	509	509	510	510	510	510	510	510	509	509	509	509	509	509	510	510	510	510	510	511	510	510	510	504	504	504	511	511	510	510	510	510	510	510	510	510	510	510	510	511	511	511	512	512	512	512	512	512	510	509	509	510	510	513	512	512	510	510	510	510	510	510	508	508	513	513	514	513	513	513	514	514	510	510	510	510	510	0	0	510	510	510	510	510	511	512	512	512	512	513	512	512	511	511	512	512	512	512	513	513	513	513	513	513	513	513	513	513	513	513	513	514	514	515	516	516	517	518	518	519	520	521	523	524	524	527	530	530	534	534	536	536	538	539	540	540	542	0	0	0	0	0	0	0	0	666	665	665	666	666	667	667	666	665	665	669	670	670	669	669	670	671	670	670	670	667	667	667	662	662	667	667	667	667	667	670	671	671	671	672	671	672	672	674	674	672	672	672	672	672	672	672	671	671	671	672	672	672	672	672	667	667	669	671	672	672	672	672	672	672	672	672	672	674	674	674	674	674	674	674	674	676	680	691	691	691	694	694	695	695	695	695	695	695	695	695	695	695	697	697	697	697	698	698	697	697	698	698	697	697	698	698	698	698	698	697	697	697	695	695	695	695	695	695	695	695	695	695	697	697	697	697	698	703	707	707	707	708	708	0	0	0	0	0	0	0	0	0	0	0	0	0	1268	1268	1268	1272	1272	1272	1272	1272	1272	1120	1120	1120	1120	0	0	0	0	0	0	0	0	0	0	0	0	0	0	0	0	0	0	0
0	0	0	0	0	0	0	0	0	0	0	0	0	0	0	0	0	0	0	0	0	0	0	0	0	0	0	0	0	0	0	0	0	0	804	804	806	806	806	806	806	806	689	690	689	687	687	687	687	687	687	689	689	689	690	690	690	691	693	693	694	694	695	695	695	695	0	0	0	536	536	535	535	531	531	531	527	527	527	518	518	516	514	513	513	512	510	510	510	508	508	507	507	506	506	507	507	507	507	508	509	509	509	511	510	510	512	512	509	509	508	508	508	508	507	507	507	507	507	507	507	507	512	507	507	513	513	513	507	507	507	508	508	508	508	509	509	510	510	510	510	510	510	510	510	510	510	510	510	510	510	510	510	510	510	510	510	510	510	510	510	510	510	510	510	510	510	510	509	509	509	509	509	509	509	509	509	510	510	510	510	510	510	510	510	510	511	513	513	500	500	500	499	499	499	499	499	499	499	499	499	500	505	505	505	505	505	0	0	0	0	0	0	0	0	0	0	0	0	0	0	0	0	0	0	0	0	0	0	0	0	0	0	0	0	0	0	0	0	0	0	0	0	0	0	0	0	0	0	0	0	0	0	0	0	0	0	0	0	0	0	0	0	0	0	0	0	0	0	0	0	0	0	0	0	0	0	0	0	0	0	0	0	0	0	0	0	0	0	0	0	0	0	0	0	0	0	0	0	0	0	0	0	0	0	0	0	0	0	0	0	0	0	0	507	507	507	507	508	508	509	509	508	508	508	508	508	508	508	508	508	508	510	510	510	510	504	504	504	504	504	504	504	504	507	508	509	509	510	510	510	510	509	509	509	510	510	510	510	510	510	512	510	510	510	509	509	510	510	512	512	511	510	510	510	510	509	508	507	507	507	506	506	507	507	507	508	508	509	510	510	510	510	0	0	510	510	510	510	510	510	510	510	510	511	512	510	510	510	510	510	510	510	510	511	512	512	512	512	513	512	512	511	511	511	512	513	513	513	514	515	516	517	518	518	519	520	523	524	524	524	527	533	533	536	536	536	538	539	539	542	542	542	0	0	0	0	0	0	658	658	661	661	662	662	662	662	662	662	662	662	662	662	662	661	666	667	667	662	662	665	663	663	662	662	662	663	663	663	663	665	667	667	667	667	667	669	670	670	671	671	670	670	670	670	670	670	670	669	669	670	670	670	670	669	669	667	667	667	667	667	670	670	670	672	671	671	671	671	671	671	670	670	670	670	671	671	671	682	690	690	690	691	691	693	693	693	694	694	694	694	694	694	694	694	694	694	694	695	695	694	694	695	695	695	695	697	697	697	697	697	697	695	695	694	694	694	694	694	695	694	694	695	695	697	697	697	697	698	703	704	704	705	708	708	0	0	0	0	0	0	0	0	0	0	0	0	0	1268	1268	1268	1272	1272	1272	1272	1272	1272	1272	1120	1120	1120	0	0	0	0	0	0	0	0	0	0	0	0	0	0	0	0	0	0	0
0	0	0	0	0	0	0	0	0	0	0	0	0	0	0	0	0	0	0	0	0	0	0	0	0	0	0	0	0	0	0	0	0	0	806	806	806	806	806	806	806	806	0	690	690	689	687	686	686	686	687	687	687	689	689	690	690	691	693	693	694	694	694	695	695	697	700	700	700	0	0	535	535	531	531	527	527	527	527	521	519	519	516	513	513	511	510	510	507	507	507	507	506	505	505	506	506	507	507	507	508	508	508	508	510	510	510	510	510	507	507	507	507	507	507	507	507	506	506	506	506	506	507	507	507	507	506	506	507	507	507	507	507	507	507	508	508	508	509	509	509	509	509	510	509	509	509	509	509	509	508	508	508	508	508	509	509	509	509	509	509	510	509	509	509	509	509	508	508	508	508	508	508	508	508	507	507	507	507	507	507	508	509	509	509	509	510	509	509	509	499	499	499	498	498	498	498	498	498	499	499	500	0	0	0	0	0	0	0	0	0	0	0	0	0	0	0	0	0	0	0	0	0	0	0	0	0	0	0	0	0	0	0	0	0	0	0	0	0	0	0	0	0	0	0	0	0	0	0	0	0	0	0	0	0	0	0	0	0	0	0	0	0	0	0	0	0	0	0	0	0	0	0	0	0	0	0	0	0	0	0	0	0	0	0	0	0	0	0	0	0	0	0	0	0	0	0	0	0	0	0	0	0	0	0	0	0	0	0	0	0	0	0	0	507	507	507	507	507	507	507	507	507	507	507	507	507	507	507	507	507	507	507	507	505	505	504	504	504	504	504	504	504	504	505	507	508	508	508	509	509	508	508	508	507	507	510	509	509	510	505	505	507	507	508	506	506	510	512	512	512	511	510	509	509	507	507	507	506	505	505	505	505	507	507	507	508	508	508	508	510	510	510	0	0	510	510	510	510	509	508	508	508	508	509	507	507	508	508	508	508	508	510	510	510	510	510	510	510	510	510	510	510	510	510	511	512	512	512	513	514	515	517	518	518	519	519	523	524	524	0	0	533	533	536	537	537	538	538	539	539	542	0	0	0	0	0	657	657	658	658	658	660	661	661	661	661	660	660	661	661	661	662	661	661	661	661	658	658	658	658	660	660	660	660	661	661	661	662	662	662	665	665	665	665	665	666	666	666	666	667	667	667	667	667	669	667	667	667	667	669	669	669	667	666	666	666	666	666	666	667	669	669	669	670	670	670	669	669	669	669	669	669	669	669	669	669	669	687	687	689	689	690	690	691	693	693	693	693	693	693	693	693	693	693	693	693	693	693	693	693	693	693	693	694	694	695	695	695	695	695	695	694	694	693	693	693	694	694	694	694	694	695	695	697	697	697	697	698	701	704	704	705	705	708	0	0	0	0	0	0	0	0	0	0	0	0	1277	1268	1268	1272	1272	1272	1268	1268	1272	1272	1272	1272	1272	1120	0	0	0	0	0	0	0	0	0	0	0	0	0	0	0	0	0	0	0
0	0	0	0	0	0	0	0	0	0	0	0	0	0	0	0	0	0	0	0	0	0	0	0	0	0	0	0	0	0	0	0	0	0	806	806	806	808	806	806	808	808	0	690	689	689	687	686	686	686	687	687	687	687	689	689	690	690	691	691	693	694	694	695	695	697	700	701	701	701	0	0	0	0	0	527	527	527	527	521	519	519	518	516	514	511	511	511	507	507	507	506	505	504	504	505	505	504	504	506	507	507	507	507	507	507	507	507	510	506	506	506	506	507	507	507	507	506	505	505	505	505	504	504	505	506	506	506	506	506	506	507	506	506	506	506	506	506	507	507	507	507	507	508	509	508	508	508	508	508	508	508	507	507	507	508	508	508	506	506	506	506	507	507	507	507	507	507	507	507	507	506	506	506	506	506	506	506	505	505	507	507	509	509	509	510	510	509	509	509	509	499	499	498	498	498	498	498	498	499	499	0	0	0	0	0	0	0	0	0	0	0	0	0	0	0	0	0	0	0	0	0	0	0	0	0	0	0	0	0	0	0	0	0	0	0	0	0	0	0	0	0	0	0	0	0	0	0	0	0	0	0	0	0	0	0	0	0	0	0	0	0	0	0	0	0	0	0	0	0	0	0	0	0	0	0	0	0	0	0	0	0	0	0	0	0	0	0	0	0	0	0	0	0	0	0	0	0	0	0	0	0	0	0	0	0	0	0	0	0	0	0	0	0	0	503	503	505	505	505	505	505	505	503	503	505	505	504	504	503	503	504	504	504	504	504	504	504	504	504	504	504	504	504	504	507	507	508	508	508	508	508	507	507	504	504	504	504	509	504	504	505	505	506	505	505	505	505	513	513	513	513	510	508	508	507	507	507	506	504	504	504	504	505	507	507	507	507	507	507	509	509	509	0	0	510	510	509	508	508	507	507	507	507	507	507	507	508	508	508	508	508	508	507	507	508	508	509	510	510	510	509	509	509	510	511	512	512	512	513	514	515	516	517	517	519	519	0	0	0	0	0	0	0	0	537	537	538	538	538	539	0	0	0	656	656	656	657	657	657	657	658	658	658	658	658	658	658	658	658	660	661	661	660	660	658	658	657	657	657	657	658	658	658	660	660	660	660	660	661	661	658	658	661	661	662	663	663	665	663	663	665	665	665	665	665	665	665	665	663	663	662	661	661	661	661	662	662	662	665	666	666	667	667	669	669	669	669	667	667	666	666	665	661	661	665	669	669	669	686	687	687	689	689	689	690	690	691	691	691	691	691	691	691	691	691	691	691	691	691	691	691	691	691	691	693	694	694	695	693	693	693	693	693	693	693	693	693	693	693	693	693	694	694	695	697	697	697	697	701	704	704	704	705	0	0	0	0	0	0	0	0	0	0	0	0	0	1277	1272	1272	1272	1272	1272	1268	1268	1272	1272	1272	1272	1272	0	0	0	0	0	0	0	0	0	0	0	0	0	0	0	0	0	0	0	0
0	0	0	0	0	0	0	0	0	0	0	0	0	0	0	0	0	0	0	0	0	0	0	0	0	0	0	0	0	0	0	0	0	0	806	806	808	808	808	808	808	812	812	0	689	687	687	687	687	687	687	687	687	687	689	689	689	690	690	691	691	693	694	695	695	697	700	701	701	701	701	0	0	0	0	0	527	521	521	521	521	520	519	517	516	514	512	511	511	507	507	505	505	504	504	504	504	504	504	504	506	507	507	507	507	507	507	507	0	506	506	506	505	505	506	506	506	506	504	504	504	504	504	504	504	504	504	504	504	504	504	504	504	504	504	504	504	504	505	506	506	504	504	507	507	507	507	507	507	507	507	503	503	504	504	506	506	506	505	504	504	504	504	504	504	504	504	505	506	506	505	505	505	504	504	504	504	504	504	504	504	506	508	509	509	509	509	509	509	509	509	0	0	0	498	498	498	498	498	499	499	0	0	0	0	0	0	0	0	0	0	0	0	0	0	0	0	0	0	0	0	0	0	0	0	0	0	0	0	0	0	0	0	0	0	0	0	0	0	0	0	0	0	0	0	0	0	0	0	0	0	0	0	0	0	0	0	0	0	0	0	0	0	0	0	0	0	0	0	0	0	0	0	0	0	0	0	0	0	0	0	0	0	0	0	0	0	0	0	0	0	0	0	0	0	0	0	0	0	0	0	0	0	0	0	0	0	0	0	0	0	0	0	0	0	502	502	504	505	505	505	505	503	503	502	504	503	502	502	502	502	503	503	503	503	503	503	503	503	503	503	503	503	503	504	507	507	507	508	508	507	507	507	507	503	503	503	503	503	504	504	504	504	504	504	504	504	504	504	504	513	513	510	506	505	505	505	505	504	503	503	503	504	504	505	507	507	507	507	507	508	508	508	0	0	0	0	509	507	507	507	507	507	507	507	507	507	507	507	507	507	507	507	507	507	507	507	508	508	509	508	508	509	508	508	511	512	513	513	513	514	515	516	517	517	0	0	0	0	0	0	0	0	0	0	0	0	538	538	538	0	0	656	655	655	655	655	656	656	656	656	657	657	657	657	657	657	657	657	657	658	658	660	657	657	657	656	656	656	656	656	657	657	657	658	658	658	658	658	660	658	657	657	658	660	660	661	661	662	662	661	661	661	662	663	661	661	663	662	661	661	661	660	660	660	661	661	661	661	662	663	663	665	665	665	665	665	663	662	661	661	661	661	660	660	662	662	661	684	684	686	686	687	687	687	687	687	689	690	689	689	689	689	689	689	689	690	689	689	689	690	690	689	689	689	690	691	690	689	689	689	691	691	691	691	691	691	693	693	693	693	693	693	694	694	695	695	695	697	698	698	704	704	0	0	0	0	0	0	0	0	0	0	0	0	0	0	1277	1272	1272	1272	1272	1272	1268	1268	1272	1272	1272	1272	1272	0	0	0	0	0	0	0	0	0	0	0	0	0	0	0	0	0	0	0	0
0	0	0	0	0	0	0	0	0	0	0	0	0	0	0	0	0	0	0	0	0	0	0	0	0	0	0	0	0	0	0	0	0	0	806	806	808	808	808	808	812	812	812	0	0	689	689	687	687	686	686	686	686	687	687	689	689	690	690	690	691	693	694	694	695	695	697	700	700	700	701	0	0	0	0	0	0	521	521	521	521	520	519	518	516	514	513	512	512	507	507	504	504	504	504	504	504	503	503	501	501	501	500	500	500	500	500	0	501	501	502	502	502	503	503	503	504	504	504	504	504	504	504	504	504	504	504	501	501	501	502	501	501	501	501	503	503	503	503	503	503	503	503	506	506	501	501	501	501	501	501	501	501	502	502	504	504	504	504	504	504	503	503	503	503	503	503	503	504	504	504	504	504	503	503	503	503	503	503	503	503	506	508	509	509	509	509	509	509	509	509	0	0	0	0	0	0	0	0	0	0	0	0	0	0	0	0	0	0	0	0	0	0	0	0	0	0	0	0	0	0	0	0	0	0	0	0	0	0	0	0	0	0	0	0	0	0	0	0	0	0	0	0	0	0	0	0	0	0	0	0	0	0	0	0	0	0	0	0	0	0	0	0	0	0	0	0	0	0	0	0	0	0	0	0	0	0	0	0	0	0	0	0	0	0	0	0	0	0	0	0	0	0	0	0	0	0	0	0	0	0	0	0	0	0	0	0	0	0	0	0	0	0	0	0	502	502	504	504	504	504	501	501	501	501	501	501	501	502	501	501	501	502	502	501	501	502	502	503	503	503	503	503	503	503	503	507	507	507	501	501	501	501	501	501	501	502	502	502	503	503	504	504	504	504	504	504	504	504	504	0	0	0	506	504	504	504	504	503	503	503	501	501	504	505	507	507	507	507	507	507	507	507	0	0	504	504	509	506	505	505	506	506	506	506	507	507	507	507	507	507	507	507	507	507	507	507	508	508	508	508	507	507	507	507	510	511	511	512	513	514	515	516	518	518	0	0	0	0	0	0	0	0	0	0	0	0	0	0	0	0	656	656	655	655	655	655	655	656	656	656	656	656	656	656	655	655	655	655	655	656	656	655	655	655	656	656	655	656	656	656	656	656	656	656	657	657	657	657	657	657	656	656	657	657	657	658	658	660	660	660	658	657	656	656	657	658	660	658	658	658	658	658	658	658	658	660	660	660	661	661	663	663	663	662	662	663	663	660	660	660	658	658	658	658	658	658	658	682	682	682	682	683	683	684	684	684	684	689	687	687	687	687	687	687	687	687	687	687	687	687	687	687	687	687	689	686	686	686	686	687	689	689	690	690	691	691	691	691	691	691	693	693	694	694	695	695	695	697	698	698	0	0	0	0	0	0	0	0	0	0	0	0	0	0	0	1282	1277	1272	1272	1272	1272	1272	1268	1268	1272	1272	1272	1272	1272	0	0	0	0	0	0	0	0	0	0	0	0	0	0	0	0	0	0	0	0
0	0	0	0	0	0	0	0	0	0	0	0	0	0	0	0	0	0	0	0	0	0	0	0	0	0	0	0	0	0	0	0	0	0	806	806	808	810	810	810	812	814	814	814	0	689	687	687	687	686	686	686	686	686	687	687	689	689	690	690	691	693	694	694	695	695	697	698	698	698	698	0	0	0	0	0	0	0	521	522	521	521	519	519	516	516	513	512	512	507	507	504	504	504	504	504	504	502	502	501	501	500	499	499	500	500	499	499	499	501	501	501	501	501	498	499	501	501	502	502	502	502	503	503	500	500	498	498	499	501	500	500	500	500	501	501	501	501	501	501	501	501	501	501	501	501	501	501	501	501	501	501	501	501	502	504	504	504	501	501	501	502	502	502	502	502	502	502	503	502	502	502	502	502	502	502	502	502	502	502	503	503	508	509	509	509	510	510	510	510	509	0	0	0	0	0	0	0	0	0	0	0	0	0	0	0	0	0	0	0	0	0	0	0	0	0	0	0	0	0	0	0	0	0	0	0	0	0	0	0	0	0	0	0	0	0	0	0	0	0	0	0	0	0	0	0	0	0	0	0	0	0	0	0	0	0	0	0	0	0	0	0	0	0	0	0	0	0	0	0	0	0	0	0	0	0	0	0	0	0	0	0	0	0	0	0	0	0	0	0	0	0	0	0	0	0	0	0	0	0	0	0	0	0	0	0	0	0	0	0	498	498	499	498	498	497	498	500	499	499	501	501	501	501	501	501	501	500	499	499	499	501	502	501	501	501	501	501	501	501	501	501	501	501	501	501	502	502	502	502	501	501	501	501	501	501	501	502	501	501	502	502	503	503	503	503	501	501	504	504	0	0	0	506	503	503	504	502	502	502	502	501	501	501	507	507	507	507	506	506	507	507	507	0	0	504	504	504	503	503	504	504	504	505	505	505	507	507	507	506	506	506	507	507	507	507	507	507	507	507	508	507	507	507	507	509	510	511	512	513	515	515	516	518	518	0	0	0	0	0	0	0	0	0	0	0	0	0	0	0	0	652	652	653	653	653	653	655	655	655	655	655	655	655	653	653	653	652	652	652	653	653	652	652	652	653	653	655	655	655	655	656	656	655	655	656	656	656	656	655	655	655	653	653	653	652	652	655	655	652	652	655	653	653	653	655	655	656	656	656	657	657	657	657	658	658	660	660	660	660	660	661	663	660	660	660	660	660	658	658	658	658	657	657	658	657	657	657	682	680	680	680	682	682	682	683	683	683	684	683	683	683	684	684	684	684	686	686	686	686	686	686	686	686	686	684	683	683	683	684	686	687	687	687	690	690	690	691	691	691	691	691	693	693	694	695	695	695	697	697	698	0	0	0	0	0	0	0	0	0	0	0	0	0	0	0	1282	1277	1272	1272	1272	1272	1272	1272	1272	1272	1272	1272	1272	1272	0	0	0	0	0	0	0	0	0	0	0	0	0	0	0	0	0	0	0	0
