0	0	0	0	0	0	0	0	0	0	0	0	0	0	0	0	0	0	0	0	0	0	0	0	0	0	0	0	0	0	0	0	867	867	867	867	867	867	812	812	812	810	810	869	869	869	0	804	804	804	808	810	810	810	812	812	814	815	815	817	817	819	819	821	821	823	823	825	825	825	825	825	825	827	827	827	827	827	827	829	829	829	829	829	831	831	833	833	833	833	833	833	833	835	835	835	835	837	837	837	837	837	837	837	837	839	839	841	841	841	841	843	843	843	843	843	843	843	843	843	843	845	845	845	845	848	848	848	848	848	848	848	848	848	848	850	850	850	850	850	850	850	850	850	850	850	850	850	850	850	850	852	852	854	854	856	856	856	856	856	854	852	850	848	848	848	894	896	896	898	901	901	901	901	901	901	903	903	903	903	903	903	903	905	905	908	908	908	908	908	910	910	910	910	910	913	913	913	856	856	910	910	910	910	910	910	910	910	913	913	913	913	913	913	915	915	917	920	920	922	922	922	922	925	927	930	930	930	932	935	935	940	942	945	948	950	953	955	955	958	961	1173	1177	1177	1181	1181	1181	1181	1185	1185	1185	1185	1185	1185	1189	1193	1193	1193	1193	1197	1197	1197	1197	1197	1202	1202	1202	1202	1202	1202	1202	1202	1206	1206	1210	1210	1214	1214	1214	1219	1219	1219	1219	1219	1219	1219	1219	1223	1223	1223	1227	1227	1232	1232	1232	1236	1236	1236	1236	1236	1236	1236	0	0	0	0	0	0	0	0	0	0	0	558	559	558	558	558	558	557	557	556	556	556	556	556	555	555	555	555	555	555	555	555	553	552	552	553	553	552	552	552	552	553	553	542	542	542	539	539	539	539	0	0	0	0	0	0	0	0	0	0	0	0	0	0	0	0	0	0	0	0	0	0	0	0	0	0	0	0	0	0	0	0	0	0	0	0	0	0	0	0	0	0	0	0	0	0	0	0	0	0	0	0	0	0	0	0	0	0	0	0	0	0	0	0	0	0	0	0	0	0	0	0	0	527	527	527	527	522	522	522	522	522	522	523	523	523	523	523	523	522	522	522	522	519	519	519	519	519	519	519	519	519	520	521	547	546	546	545	545	544	544	544	543	542	542	542	542	542	543	543	543	544	544	544	544	543	542	542	541	540	539	539	540	539	538	538	538	539	538	538	537	537	537	537	537	537	536	536	520	519	519	519	519	519	518	518	518	518	518	518	518	518	518	518	517	517	516	515	515	515	515	515	515	515	516	516	516	516	517	517	517	518	518	518	0	534	534	535	536	536	536	536	536	534	534	537	536	536	536	536	536	536	536	536	536	537	536	536	535	535	534	534	534	534	535	535	535	535	535	535	535	535	535	535	535	536	536	536	536	536	536	536	536	535	535	535	535	535	534	534	534	533	533	533	533	533	533	534	534	534	536	536	536	536	536	536	536	536	537	537	536	536	537	537	538	538	538	0	0	0	0	0	0	0	0	0	0	0	0	0	0	0	0	0	0	0	0	0
0	0	0	0	0	0	0	0	0	0	0	0	0	0	0	0	0	0	0	0	0	0	0	0	0	0	0	0	0	0	0	0	869	869	871	871	869	869	812	812	812	810	810	869	869	869	806	804	804	806	808	808	810	810	812	814	814	815	815	817	817	819	819	821	821	823	823	825	825	825	825	827	827	827	827	827	827	827	829	829	829	829	831	831	831	833	833	833	833	835	835	835	835	835	835	835	835	837	837	837	837	837	837	841	841	841	841	841	843	843	843	843	843	843	843	843	843	843	843	843	843	845	845	845	848	848	848	848	848	848	848	848	848	850	850	850	850	850	850	850	850	850	850	850	850	850	850	850	850	850	852	854	854	854	854	856	856	856	856	856	856	854	850	848	848	848	894	896	896	898	901	901	901	901	901	901	903	903	903	903	903	903	903	905	905	905	905	908	908	908	908	910	910	910	913	913	913	913	913	913	910	910	910	910	910	910	910	910	913	913	913	913	913	913	915	917	920	920	920	922	922	922	922	925	927	930	930	930	932	935	937	940	942	945	950	953	953	958	958	958	1173	1177	1177	1181	1181	1181	1181	1181	1185	1185	1189	1189	1189	1193	1193	1197	1197	1197	1197	1197	1197	1197	1202	1202	1202	1202	1202	1202	1202	1202	1206	1206	1206	1206	1210	1214	1214	1214	1219	1219	1219	1223	1223	1223	1223	1223	1223	1223	1227	1227	1227	1227	1232	1232	1236	1236	1236	1240	1240	1240	1245	1245	0	0	0	0	0	0	0	0	0	0	0	0	559	558	557	557	556	556	555	555	555	555	555	555	555	555	555	554	554	554	554	554	552	551	551	551	552	551	551	551	551	552	552	542	542	542	539	539	539	539	0	0	0	0	0	0	0	0	0	0	0	0	0	0	0	0	0	0	0	0	0	0	0	0	0	0	0	0	0	0	0	0	0	0	0	0	0	0	0	0	0	0	0	0	0	0	0	0	0	0	0	0	0	0	0	0	0	0	0	0	0	0	0	0	0	0	0	0	0	0	0	0	0	527	527	522	522	521	521	521	522	522	522	522	522	522	522	523	522	521	521	521	519	519	519	519	519	519	519	519	519	519	519	521	542	542	542	543	543	543	542	542	542	542	542	542	542	542	542	542	542	542	543	543	542	542	542	542	541	540	539	539	540	539	538	538	538	538	537	537	537	537	536	536	536	536	536	535	535	535	519	519	519	519	518	518	518	518	518	518	518	518	518	518	518	517	516	516	516	516	515	515	515	515	516	516	516	516	517	517	517	517	518	0	534	534	534	534	534	536	536	535	535	534	534	534	534	534	534	534	535	535	535	535	535	536	534	534	533	533	533	532	532	532	533	534	534	534	535	535	534	534	535	535	535	536	536	536	536	536	534	534	534	534	534	534	534	534	534	533	533	533	533	533	533	533	533	533	533	534	534	535	535	535	534	534	534	534	536	536	536	536	536	537	537	537	537	0	0	0	0	0	0	0	0	0	0	0	0	0	0	0	0	0	0	0	0	0
0	0	0	0	0	0	0	0	0	0	0	0	0	0	0	0	0	0	0	0	0	0	0	0	0	0	0	0	0	0	0	0	871	871	871	871	869	869	812	812	812	810	810	871	871	0	806	804	804	806	808	808	810	810	812	814	814	815	815	817	817	819	821	821	823	823	825	825	825	827	827	827	827	827	827	827	829	829	829	831	831	831	831	831	833	833	833	833	835	835	835	835	835	837	837	837	837	837	839	839	841	841	841	841	841	841	843	843	843	843	843	843	843	843	843	843	843	845	845	845	845	848	848	848	848	850	850	850	850	848	848	850	850	850	850	850	850	850	850	852	850	850	850	850	850	850	850	850	852	852	852	854	854	854	856	856	856	856	856	856	856	856	850	845	845	894	894	896	896	898	901	901	901	901	901	903	903	903	903	903	903	903	903	903	905	908	908	908	910	910	910	910	910	910	913	913	913	913	913	913	913	910	910	910	910	913	913	913	913	913	913	913	913	915	915	917	920	920	920	922	922	925	925	927	930	930	930	932	932	937	937	940	945	948	950	955	955	958	958	961	1177	1177	1181	1181	1181	1185	1185	1185	1185	1189	1193	1193	1197	1197	1197	1197	1197	1197	1197	1197	1197	1202	1202	1202	1202	1202	1206	1206	1206	1206	1206	1206	1210	1210	1210	1214	1214	1214	1219	1219	1219	1223	1223	1223	1223	1223	1227	1227	1227	1227	1232	1232	1232	1232	1236	1236	1240	1240	1245	1245	1245	1249	1249	1249	0	0	0	0	0	0	0	0	0	0	559	558	557	556	555	555	555	554	554	555	554	554	554	554	554	553	553	553	553	553	551	551	550	550	551	551	550	550	550	551	551	551	551	551	535	535	535	534	533	533	534	534	0	0	0	0	0	0	0	0	0	0	0	0	0	0	0	0	0	0	0	0	0	0	0	0	0	0	0	0	0	0	0	0	0	0	0	0	0	0	0	0	0	0	0	0	0	0	0	0	0	0	0	0	0	0	0	0	0	0	0	0	0	0	0	0	0	0	0	0	0	527	527	521	521	521	521	521	522	522	522	522	522	522	522	522	522	521	521	521	519	519	519	519	519	519	519	519	519	519	519	519	541	542	542	542	542	542	542	542	542	542	542	542	542	542	542	542	541	541	542	542	541	541	541	541	540	539	539	539	539	538	538	538	538	537	537	537	537	537	536	536	536	536	535	535	535	535	534	534	518	518	518	518	518	519	518	518	518	518	518	518	518	518	517	516	516	516	516	515	515	516	516	516	517	517	517	517	517	517	0	0	534	534	534	534	534	535	535	534	534	533	533	533	533	533	533	533	533	533	534	534	534	534	533	533	532	532	532	532	532	532	532	532	533	534	534	534	534	534	534	533	533	534	534	535	535	534	533	533	533	532	532	532	533	533	532	532	532	533	532	532	533	532	532	532	532	532	532	533	533	533	533	533	533	534	535	535	535	535	536	536	536	536	536	536	0	0	0	0	0	0	0	0	0	0	0	0	0	0	0	0	0	0	0	0
0	0	0	0	0	0	0	0	0	0	0	0	0	0	0	0	0	0	0	0	0	0	0	0	0	0	0	0	0	0	0	0	871	871	871	871	871	871	812	812	810	810	810	871	871	871	806	804	804	806	808	810	810	812	812	814	815	815	817	817	819	819	821	823	823	825	825	827	827	827	827	827	827	827	827	829	829	829	829	831	831	831	831	833	833	833	833	835	835	835	835	835	835	837	839	839	839	839	841	841	841	841	841	841	843	843	843	843	843	843	843	843	843	843	843	845	845	845	845	848	848	848	848	848	848	850	850	850	850	850	850	850	850	850	850	850	852	852	852	852	850	850	850	850	850	850	850	850	852	852	852	854	854	854	856	856	856	856	856	856	858	856	852	845	845	894	894	896	896	898	901	901	901	901	901	901	903	903	903	903	903	903	905	905	905	908	908	908	910	910	910	910	910	910	913	913	915	915	915	913	913	910	910	910	910	913	913	913	913	913	913	913	913	915	917	917	920	920	920	922	925	925	927	927	930	930	932	932	935	937	940	942	945	948	953	955	955	958	961	1177	1181	1181	1181	1181	1185	1185	1185	1185	1189	1189	1193	1197	1197	1197	1197	1197	1197	1197	1197	1197	1197	1202	1202	1202	1202	1206	1206	1206	1206	1206	1210	1210	1210	1214	1214	1214	1219	1219	1219	1219	1223	1223	1223	1227	1227	1227	1227	1227	1232	1232	1232	1232	1236	1236	1240	1240	1240	1245	1249	1249	1249	1249	1249	1249	0	0	0	0	0	0	0	0	0	0	0	0	557	554	554	554	553	553	553	553	553	553	552	552	553	553	552	552	552	552	550	550	550	550	550	550	550	550	550	551	551	551	551	551	535	535	535	533	532	532	533	533	533	0	0	0	0	0	0	0	0	0	0	0	0	0	0	0	0	0	0	0	0	0	0	0	0	0	0	0	0	0	0	0	0	0	0	0	0	0	0	0	0	0	0	0	0	0	0	0	0	0	0	0	0	0	0	0	0	0	0	0	0	0	0	0	0	0	0	0	0	0	0	521	520	520	521	521	521	521	521	521	521	521	521	522	521	521	520	521	519	519	519	519	518	518	518	518	518	518	519	541	541	541	541	541	541	541	541	541	541	541	541	541	541	540	540	540	540	540	540	539	539	540	540	540	539	539	538	538	538	537	537	537	537	536	536	536	536	536	536	536	536	536	535	535	535	534	534	534	518	518	533	533	533	518	518	518	518	518	518	518	518	517	517	517	517	517	517	517	515	516	516	516	517	517	517	517	0	533	533	533	533	533	533	534	534	534	534	533	533	532	532	532	532	532	532	532	532	532	532	532	532	532	532	532	531	531	531	531	531	531	532	532	532	533	533	533	533	533	533	532	531	531	532	532	532	532	532	532	532	532	532	532	532	532	532	532	532	532	532	532	532	532	532	531	531	531	531	531	531	532	532	533	533	533	533	534	534	533	533	533	533	533	536	536	0	0	0	0	0	0	0	0	0	0	0	0	0	0	0	0	0	0	0	0
0	0	0	0	0	0	0	0	0	0	0	0	0	0	0	0	0	0	0	0	0	0	0	0	0	0	0	0	0	0	0	0	873	873	873	873	871	871	871	812	810	810	810	871	871	871	0	804	804	806	808	808	810	812	812	814	815	815	817	817	819	819	821	823	823	825	825	827	827	827	827	827	827	827	827	829	829	829	831	831	831	833	833	833	833	835	835	835	835	837	837	837	839	839	839	841	841	841	841	841	841	841	841	843	843	843	843	843	843	843	843	843	843	845	845	845	845	848	848	848	848	848	848	848	850	850	850	850	850	850	850	852	852	852	852	852	852	852	852	852	850	850	850	850	852	852	852	852	852	854	854	854	854	856	856	856	858	858	858	858	858	858	858	845	845	894	894	896	896	898	901	901	901	903	903	903	903	903	903	903	903	903	905	905	905	908	908	910	910	910	910	910	910	913	913	915	915	915	915	913	910	910	910	910	910	913	913	913	913	913	913	915	915	915	917	920	920	920	922	925	925	927	927	930	930	932	932	932	935	940	942	945	948	950	953	955	955	958	961	1181	1181	1181	1181	1185	1185	1185	1185	1185	1189	1193	1197	1197	1197	1197	1197	1197	1202	1202	1202	1202	1202	1202	1206	1206	1206	1210	1210	1210	1210	1210	1210	1214	1214	1214	1214	1214	1219	1219	1219	1223	1223	1227	1227	1227	1227	1232	1232	1232	1232	1232	1236	1236	1236	1236	1240	1240	1245	1245	1249	1249	1249	1249	1249	1249	0	0	0	0	0	0	0	0	0	0	0	0	0	553	553	552	552	552	552	552	551	551	551	551	551	551	551	551	552	551	550	549	549	549	550	550	549	549	549	549	549	0	0	0	0	535	533	532	532	532	532	532	532	532	532	532	0	0	0	0	0	0	0	0	0	0	0	0	0	0	0	0	0	0	0	0	0	0	0	0	0	0	0	0	0	0	0	0	0	0	0	0	0	0	0	0	0	0	0	0	0	0	0	0	0	0	0	0	0	0	0	0	0	0	0	0	0	0	0	0	0	0	0	521	520	520	520	521	521	521	520	520	520	520	520	520	519	519	519	519	518	517	517	517	517	517	517	517	518	518	518	518	541	541	541	540	540	540	540	540	540	540	540	540	540	539	539	539	539	539	539	538	538	538	539	538	538	538	538	538	537	537	537	536	536	536	536	536	536	536	536	536	536	535	534	534	534	534	534	534	533	533	533	533	533	518	528	528	527	527	527	528	528	530	530	529	529	517	517	517	0	0	0	0	0	0	0	0	532	532	533	533	533	533	533	533	533	532	532	532	532	531	531	531	531	531	531	532	531	531	532	532	532	532	531	531	530	530	530	531	531	531	531	532	532	532	533	533	533	532	532	532	530	528	528	531	531	531	531	532	532	531	531	531	531	531	531	531	532	532	532	532	532	532	531	531	531	530	530	530	530	530	530	531	532	532	532	533	533	533	532	532	532	532	536	536	0	0	0	0	0	0	0	0	0	0	0	0	0	0	0	0	0	0	0	0
0	0	0	0	0	0	0	0	0	0	0	0	0	0	0	0	0	0	0	0	0	0	0	0	0	0	0	0	0	0	0	0	873	873	873	873	871	871	871	812	812	869	869	871	871	869	869	869	804	806	808	808	810	810	812	814	815	815	817	817	819	819	821	821	823	825	825	827	827	827	827	827	827	827	829	829	831	831	831	833	833	833	833	833	835	835	835	837	837	839	839	839	839	839	841	841	841	841	841	841	841	843	843	843	843	843	843	843	845	843	843	845	845	845	845	848	848	848	848	848	850	850	850	850	850	850	850	850	850	850	850	852	852	852	852	854	854	854	854	852	852	852	852	852	852	852	852	852	854	854	854	856	856	856	856	856	858	858	858	858	858	860	862	862	894	894	894	896	898	898	901	901	901	903	903	903	903	903	903	903	903	903	905	905	905	908	908	910	910	910	910	910	910	913	913	915	915	915	915	913	910	910	910	910	910	913	913	913	913	915	915	915	915	917	920	920	920	920	922	925	927	927	930	930	932	932	932	935	937	940	942	945	950	953	955	958	958	961	1177	1181	1181	1185	1185	1185	1185	1189	1189	1189	1193	1193	1197	1202	1202	1202	1202	1202	1202	1202	1202	1202	1206	1206	1210	1210	1210	1210	1210	1214	1210	1210	1214	1214	1214	1219	1219	1219	1223	1223	1223	1227	1227	1227	1227	1232	1232	1232	1232	1232	1232	1236	1236	1236	1236	1240	1245	1245	1245	1245	1249	1249	1249	1254	1254	1254	0	0	0	0	0	0	0	0	0	0	0	0	0	550	550	550	550	550	550	550	550	550	549	549	550	550	550	550	550	550	548	548	548	548	548	548	548	548	548	548	547	547	547	545	545	0	533	532	531	531	531	530	530	531	531	529	529	529	0	0	0	0	0	0	0	0	0	0	0	0	0	0	0	0	0	0	0	0	0	0	0	0	0	0	0	0	0	0	0	0	0	0	0	0	0	0	0	0	0	0	0	0	0	0	0	0	0	0	0	0	0	0	0	0	0	0	0	0	0	0	0	0	519	519	519	519	520	520	521	520	519	519	519	519	519	519	519	519	519	519	519	517	516	516	516	516	516	517	518	518	518	540	540	541	541	540	540	539	539	539	539	539	539	539	539	538	538	538	538	538	538	538	538	538	538	537	536	536	536	536	536	536	536	536	536	535	535	535	535	535	535	535	535	535	534	534	534	533	533	533	533	533	533	533	531	528	528	528	527	527	527	527	527	529	529	529	528	528	0	0	0	0	0	0	0	0	0	0	532	532	532	532	532	533	533	532	532	532	532	532	532	530	530	530	531	531	531	531	531	531	531	532	531	531	530	530	530	529	529	530	530	530	531	531	531	532	532	532	532	530	530	528	528	527	527	530	530	530	530	530	530	531	530	530	530	530	530	530	531	531	531	531	531	531	531	531	531	530	530	529	529	529	529	530	531	531	532	532	532	532	532	532	532	532	0	0	0	0	0	0	0	0	0	0	0	0	0	0	0	0	0	0	0	0	0	0
0	0	0	0	0	0	0	0	0	0	0	0	0	0	0	0	0	0	0	0	0	0	0	0	0	0	0	0	0	0	0	0	873	873	875	873	873	871	871	871	871	871	871	871	871	869	869	869	869	808	808	808	808	810	810	812	814	815	817	817	819	819	821	821	823	825	825	827	827	827	827	827	829	829	829	829	831	831	833	833	833	833	835	835	835	835	837	837	837	839	839	839	839	841	841	841	841	841	841	841	843	843	843	843	843	843	845	845	845	845	845	845	845	848	848	848	848	850	850	850	850	850	852	850	850	852	852	852	852	852	852	852	852	854	854	856	856	856	854	854	852	852	852	852	854	854	854	854	854	854	854	856	856	856	856	858	858	858	858	860	862	862	862	865	896	896	896	896	898	898	901	901	901	903	903	903	903	903	903	905	905	905	905	905	908	908	910	910	910	910	910	913	913	913	915	915	915	915	915	913	913	910	910	910	910	913	913	913	915	915	915	917	917	917	920	920	920	920	922	925	927	930	930	930	932	932	932	935	940	942	942	948	953	955	955	958	958	961	1185	1185	1185	1185	1185	1185	1185	1189	1189	1189	1193	1197	1202	1202	1202	1202	1202	1202	1202	1202	1202	1202	1210	1210	1210	1210	1210	1210	1214	1214	1214	1214	1214	1214	1219	1219	1219	1223	1223	1227	1227	1227	1232	1232	1232	1232	1232	1232	1236	1236	1236	1236	1236	1240	1240	1240	1245	1245	1249	1249	1249	1249	1254	1259	1259	1254	0	0	0	0	0	0	0	0	0	0	0	0	0	549	550	550	550	549	549	549	549	549	549	549	549	549	549	549	549	549	548	548	548	548	548	548	548	548	547	546	546	545	545	545	545	545	532	531	531	531	530	529	529	529	527	527	527	527	527	527	527	0	0	0	0	0	0	0	0	0	0	0	0	0	0	0	0	0	0	0	0	0	0	0	0	0	0	0	0	0	0	0	0	0	0	0	0	0	0	0	0	0	0	0	0	0	0	0	0	0	0	0	0	0	0	0	0	0	0	0	516	516	517	517	518	518	519	520	520	518	517	517	518	518	518	519	518	518	519	519	519	517	516	516	515	515	515	515	535	535	518	540	540	540	540	538	538	538	538	538	537	537	538	538	538	537	537	537	537	537	537	537	537	537	537	536	536	536	536	536	536	535	535	535	535	535	535	535	535	535	535	535	535	534	533	533	533	532	531	531	530	530	530	531	531	528	528	528	527	527	527	527	527	529	528	528	528	529	529	529	529	0	0	0	0	0	0	528	529	531	531	531	532	532	532	531	531	531	531	531	530	530	530	530	530	530	529	529	529	530	530	529	529	530	530	530	529	529	529	530	530	530	530	530	530	531	530	530	530	527	527	527	527	527	527	528	529	530	530	530	530	530	529	529	528	528	529	529	529	530	530	530	531	531	530	530	530	529	529	529	529	529	529	529	530	530	531	532	532	530	530	532	532	532	0	0	0	0	0	0	0	0	0	0	0	0	0	0	0	0	0	0	0	0	0	0
0	0	0	0	0	0	0	0	0	0	0	0	0	0	0	0	0	0	0	0	0	0	0	0	0	0	0	0	0	0	0	0	873	873	875	873	873	871	871	871	871	871	871	871	871	869	869	869	869	808	808	808	808	810	810	812	814	815	817	817	819	819	821	821	823	825	825	827	827	827	827	827	829	829	829	831	831	833	833	833	833	835	835	835	835	837	837	837	839	839	841	841	841	841	841	843	843	841	841	841	843	843	843	843	845	845	845	845	845	845	845	848	848	848	848	850	850	850	850	850	852	852	852	852	852	852	852	852	852	852	852	852	854	856	856	856	856	856	856	856	854	854	854	854	854	854	854	854	856	856	856	856	858	858	858	858	860	860	862	862	865	865	865	865	898	898	898	898	901	901	901	901	901	903	903	903	903	903	905	905	905	905	905	905	908	908	910	910	910	910	910	913	913	913	915	915	917	915	915	913	913	910	910	910	910	913	913	915	915	915	917	917	917	917	920	920	920	922	925	927	930	930	930	932	932	932	935	937	940	942	945	950	955	955	958	958	958	961	1185	1185	1185	1185	1185	1189	1189	1189	1193	1193	1197	1202	1202	1202	1202	1202	1202	1202	1206	1206	1206	1206	1210	1210	1214	1214	1214	1214	1214	1214	1214	1214	1214	1214	1219	1223	1223	1223	1227	1227	1232	1232	1232	1236	1236	1236	1236	1236	1236	1236	1240	1240	1245	1245	1249	1249	1249	1249	1249	1254	1254	1254	1254	1259	1259	0	0	0	0	0	0	0	0	0	0	0	0	0	0	548	548	549	549	549	548	548	548	548	548	548	548	548	548	548	548	548	547	547	547	547	547	547	547	546	546	546	544	544	544	544	545	545	545	530	530	529	528	528	527	527	526	526	526	526	527	527	527	526	526	526	526	0	0	0	0	0	0	0	0	0	0	0	0	0	0	0	0	0	0	0	0	0	0	0	0	0	0	0	0	0	0	0	0	0	0	0	0	0	0	0	0	0	0	0	0	0	0	0	0	0	0	0	0	0	0	0	516	516	516	516	516	516	516	519	519	516	516	516	516	517	517	517	516	516	517	518	518	517	516	516	515	515	515	515	535	535	535	535	539	538	538	537	537	537	537	537	537	537	537	537	537	537	537	537	537	537	536	536	536	536	536	536	536	536	536	536	536	535	535	535	534	534	534	534	534	534	534	534	534	533	532	532	533	532	531	531	530	529	529	529	528	528	528	528	528	527	527	527	527	529	528	527	527	529	529	529	529	0	0	527	527	527	527	527	527	530	531	531	531	531	531	531	530	530	530	530	529	529	529	530	530	530	529	529	529	529	529	528	528	527	527	527	527	527	527	527	529	529	529	529	529	529	528	528	527	527	527	527	527	527	527	527	529	529	530	529	529	528	527	527	527	527	527	527	527	527	528	529	529	530	530	530	530	529	528	528	528	528	528	528	529	529	530	530	530	529	529	529	532	532	0	0	0	0	0	0	0	0	0	0	0	0	0	0	0	0	0	0	0	0	0	0
0	0	0	0	0	0	0	0	0	0	0	0	0	0	0	0	0	0	0	0	0	0	0	0	0	0	0	0	0	0	0	0	873	873	875	873	873	871	871	871	871	871	871	871	871	869	869	869	871	871	873	875	875	875	812	812	814	815	817	817	817	819	821	821	823	825	825	827	827	827	827	829	829	829	831	831	833	833	833	833	833	835	835	837	837	837	837	839	839	839	841	841	841	841	843	843	843	843	843	843	843	843	843	843	845	845	845	845	845	845	848	848	848	850	850	850	850	850	852	852	852	852	852	852	852	852	852	852	852	854	854	854	856	856	856	856	856	856	856	856	854	854	854	854	854	856	856	856	856	856	856	858	858	858	858	860	862	862	862	865	865	865	865	865	865	901	901	901	901	901	901	901	901	903	903	903	903	905	905	905	905	905	905	908	908	910	910	910	910	910	910	913	913	913	915	917	917	917	917	913	913	910	910	910	910	913	913	915	915	917	917	917	917	917	920	920	922	922	925	927	930	930	930	932	932	935	935	937	940	942	948	953	955	955	958	958	958	1185	1185	1185	1185	1189	1189	1189	1189	1193	1197	1197	1197	1202	1202	1206	1206	1206	1206	1206	1210	1210	1210	1214	1214	1214	1214	1214	1214	1214	1214	1219	1219	1219	1219	1223	1227	1227	1232	1232	1232	1232	1232	1232	1236	1236	1236	1236	1236	1240	1240	1245	1245	1245	1249	1249	1249	1249	1249	1254	1254	1254	1254	1259	1259	1268	1268	0	0	0	0	0	0	0	0	0	0	0	0	0	0	548	548	548	548	548	548	548	548	548	548	548	548	548	548	548	547	547	546	545	545	546	546	545	545	545	544	544	543	543	544	544	544	544	544	530	529	529	528	527	527	527	526	526	526	526	526	526	525	525	525	525	525	525	525	0	0	0	0	0	0	0	0	0	0	0	0	0	0	0	0	0	519	519	519	0	0	0	0	0	0	0	0	0	0	0	0	0	0	0	0	0	0	0	0	0	0	0	0	0	0	0	0	0	0	0	0	516	516	516	516	516	516	516	516	516	516	513	513	515	516	516	516	516	516	516	517	515	515	515	515	515	515	519	515	515	535	535	535	535	535	535	535	536	536	536	536	536	536	536	536	536	536	536	536	536	536	536	536	536	536	536	536	535	535	535	535	536	535	534	534	534	534	534	534	534	533	533	534	534	533	532	532	532	532	532	531	531	530	529	529	529	528	528	528	528	527	527	527	527	527	527	527	527	527	527	527	528	529	527	527	527	527	527	527	527	527	529	530	530	531	531	531	530	530	529	529	528	528	528	528	529	529	528	527	527	527	528	527	527	527	527	527	527	527	527	527	527	528	528	528	528	528	527	527	527	526	525	525	526	527	527	527	527	528	528	527	527	527	527	527	527	527	527	527	527	527	527	528	528	529	530	530	529	529	529	528	528	528	527	527	528	528	528	529	530	530	529	529	529	527	527	527	0	0	0	0	0	0	0	0	0	0	0	0	0	0	0	0	0	0	0	0	0
0	0	0	0	0	0	0	0	0	0	0	0	0	0	0	0	0	0	0	0	0	0	0	0	0	0	0	0	0	0	0	0	873	873	875	875	875	871	871	871	871	871	871	871	871	869	869	869	871	871	873	875	875	875	812	812	814	814	817	817	817	819	821	821	821	825	825	825	827	827	827	827	829	831	831	831	833	833	833	835	835	835	837	837	837	837	837	839	839	841	841	841	841	841	843	843	843	843	843	843	843	843	845	845	845	845	848	848	848	848	848	848	848	850	850	850	852	852	852	852	852	852	852	852	852	854	854	854	854	854	854	854	856	856	858	858	858	858	858	858	856	856	856	856	856	856	856	856	856	858	858	858	858	858	860	860	862	862	865	865	865	865	865	865	865	901	901	901	901	901	901	901	901	903	903	903	903	905	905	908	908	908	908	908	908	910	910	910	910	910	913	913	913	915	915	917	917	917	917	913	913	913	913	913	913	915	915	917	917	917	917	917	920	920	920	922	922	922	927	930	930	932	932	932	935	935	937	942	942	945	950	955	955	955	958	961	961	1185	1189	1189	1189	1189	1189	1193	1193	1193	1197	1197	1197	1206	1206	1210	1210	1210	1214	1214	1214	1214	1219	1219	1219	1219	1219	1219	1219	1219	1219	1219	1219	1223	1223	1223	1227	1232	1232	1232	1232	1232	1236	1236	1236	1236	1236	1240	1240	1240	1245	1249	1249	1249	1249	1249	1249	1249	1254	1254	1254	1254	1259	1263	1263	1268	1268	0	0	0	0	0	0	0	0	0	0	0	0	0	0	549	548	548	548	548	547	547	547	547	547	547	547	547	546	547	546	546	545	545	545	545	545	544	544	544	543	543	543	543	543	543	542	542	542	530	527	527	527	527	527	526	525	525	525	525	524	524	524	524	524	524	523	522	521	521	519	519	519	519	0	0	0	0	0	0	0	0	0	0	0	0	519	518	518	519	519	0	0	0	0	0	0	0	0	0	0	0	0	0	0	513	513	514	514	514	0	0	0	0	0	0	0	0	0	0	516	516	516	516	516	516	516	516	515	515	515	513	513	514	514	513	513	516	516	516	517	515	515	515	515	515	515	519	0	534	534	534	534	534	534	534	534	534	535	535	535	535	535	535	535	535	535	535	535	535	536	536	535	535	535	535	535	534	534	534	534	535	534	533	532	532	533	533	533	532	532	532	533	532	532	532	532	532	532	531	531	530	529	529	528	528	528	527	527	527	527	527	527	527	527	527	527	527	527	527	527	527	527	527	527	527	527	527	527	527	527	528	528	529	530	530	530	528	528	528	528	528	527	527	527	529	528	528	527	527	527	527	527	527	527	527	527	527	527	527	527	527	527	528	528	528	528	526	526	526	526	525	525	526	526	526	526	527	527	527	527	527	527	526	526	525	525	527	527	527	527	527	527	527	528	528	528	528	528	528	528	527	527	527	527	527	527	527	527	529	529	527	527	527	527	527	527	0	0	0	0	0	0	0	0	0	0	0	0	0	0	0	0	0	0	0	0	0
0	0	0	0	0	0	0	0	0	0	0	0	0	0	0	0	0	0	0	0	0	0	0	0	0	0	0	0	0	0	0	0	875	875	875	875	875	873	871	871	871	871	871	871	871	869	869	869	871	871	873	875	875	875	875	814	814	814	815	817	817	819	819	819	821	825	825	825	827	827	827	827	829	831	831	831	833	833	833	835	835	835	837	837	837	839	839	839	839	841	841	841	841	843	843	843	843	845	843	843	845	845	845	845	848	848	848	848	848	848	850	850	850	850	850	852	852	852	852	852	852	854	854	854	854	854	854	854	854	856	856	856	856	858	858	858	858	858	858	858	856	856	856	856	856	856	858	858	858	858	858	860	860	860	860	862	862	865	865	865	865	865	865	865	901	901	901	901	901	901	901	901	901	903	903	903	903	905	905	908	908	908	908	908	908	910	910	910	910	910	913	913	913	915	917	917	920	920	917	915	913	913	913	913	913	915	915	917	917	917	920	920	920	920	920	922	925	927	930	930	932	932	932	935	935	937	940	942	945	950	953	953	955	955	955	1017	1017	1017	1017	1189	1189	1193	1193	1197	1197	1202	1197	1197	1206	1206	1206	1210	1214	1214	1214	1214	1219	1219	1219	1219	1219	1219	1219	1219	1219	1219	1219	1223	1223	1223	1227	1227	1232	1232	1232	1236	1236	1236	1236	1236	1236	1236	1236	1240	1240	1245	1245	1249	1249	1249	1254	1254	1254	1254	1254	1254	1259	1259	1259	1263	1263	1268	1272	1272	0	0	0	0	0	0	0	0	0	0	0	0	0	549	548	547	547	547	546	546	546	546	546	546	546	546	545	545	545	545	544	544	544	544	543	543	543	543	543	543	542	542	542	542	542	542	542	542	525	525	526	526	526	526	525	524	524	524	523	523	523	523	523	523	519	519	519	519	519	519	518	518	517	516	516	516	516	0	0	0	0	0	0	516	516	517	517	519	519	0	0	0	0	0	514	514	514	514	514	513	513	513	513	513	513	514	514	514	0	0	0	0	0	0	0	0	0	0	515	516	516	516	516	516	516	515	515	515	515	513	513	513	513	513	512	512	512	0	0	515	515	515	0	0	0	534	533	533	533	533	533	533	534	533	533	534	534	534	534	534	534	534	534	534	534	533	533	533	534	534	533	533	533	533	532	532	532	533	533	534	534	533	532	532	532	532	532	532	532	532	532	532	531	531	531	531	531	530	530	529	529	528	528	528	527	527	527	527	527	527	527	527	527	527	527	527	527	527	527	527	527	527	527	527	527	527	527	527	527	527	527	528	528	529	528	527	527	527	527	527	527	527	527	528	527	527	527	527	526	526	525	525	526	526	526	526	526	527	527	527	527	528	527	527	526	526	526	526	526	525	525	524	524	524	524	524	526	527	526	526	525	525	525	524	524	527	527	527	527	527	527	527	527	527	527	527	527	528	527	527	527	527	527	527	527	527	527	528	527	526	525	524	524	524	524	524	525	525	525	0	0	0	0	0	0	0	0	0	0	0	0	0	0	0	0	0
0	0	0	0	0	0	0	0	0	0	0	0	0	0	0	0	0	0	0	0	0	0	0	0	0	0	0	0	0	0	0	0	875	875	875	875	875	873	873	873	871	871	871	871	871	869	869	871	871	871	873	875	875	875	875	875	814	814	815	817	817	817	821	821	823	825	825	825	827	827	829	829	829	831	833	833	833	833	835	835	835	835	839	839	839	839	839	839	841	841	841	843	843	843	843	845	845	845	845	848	848	848	848	848	848	848	850	848	848	850	850	850	850	852	852	852	852	852	852	854	854	854	854	854	854	856	856	856	856	856	856	858	858	858	858	858	858	858	860	860	858	858	858	858	858	858	858	858	858	858	858	860	860	860	860	862	862	865	865	865	867	867	865	865	901	901	901	901	901	901	901	901	901	903	903	905	905	905	908	908	908	908	910	910	910	910	910	910	910	913	913	913	915	915	917	920	920	920	920	917	915	913	913	913	913	915	917	917	917	920	920	920	920	922	922	925	927	930	930	932	932	932	932	935	937	937	940	945	948	953	955	958	958	1017	1017	1017	1017	1017	1017	1193	1193	1193	1197	1197	1197	1202	1202	1202	1210	1210	1210	1214	1214	1214	1214	1214	1219	1219	1219	1219	1219	1223	1223	1223	1223	1223	1223	1223	1223	1227	1227	1227	1232	1232	1232	1236	1236	1236	1236	1236	1236	1240	1240	1245	1245	1245	1245	1249	1249	1254	1254	1254	1254	1254	1254	1254	1259	1259	1259	1268	1268	1272	1272	1272	0	0	0	0	0	0	0	0	0	0	0	0	0	0	547	546	546	546	545	545	545	545	545	545	545	544	544	544	544	544	542	542	543	543	543	543	543	543	543	542	542	542	542	542	542	542	541	541	525	523	523	524	525	525	523	523	523	523	523	523	523	522	522	521	519	519	519	519	519	518	518	517	517	516	516	516	516	514	514	514	514	0	516	516	516	516	516	516	516	516	516	0	0	0	513	513	514	514	514	513	513	513	513	513	513	513	513	513	513	0	0	0	0	0	513	513	513	513	513	515	515	516	516	515	515	514	514	515	514	513	513	513	510	510	512	512	512	0	0	0	0	0	0	0	534	533	533	533	533	533	533	533	533	532	532	533	533	533	533	533	533	533	533	533	533	532	532	532	533	532	532	532	532	532	532	532	532	532	532	532	531	531	531	531	530	530	532	532	532	532	531	531	530	530	530	530	530	529	529	528	528	528	527	527	527	527	527	527	527	527	527	527	527	527	527	527	527	527	527	527	526	526	526	526	526	526	526	527	527	527	527	527	528	529	528	526	526	527	527	527	527	527	527	527	527	525	525	525	525	525	524	524	524	525	525	525	525	525	525	525	524	524	525	526	525	525	525	526	525	524	524	523	523	523	523	523	524	524	524	524	524	524	524	524	524	525	526	527	527	527	526	526	527	527	527	527	527	527	527	527	527	527	527	527	526	526	527	527	527	525	525	523	523	523	523	524	525	525	525	0	0	0	0	0	0	0	0	0	0	0	0	0	0	0	0	0
0	0	0	0	0	0	0	0	0	0	0	0	0	0	0	0	0	0	0	0	0	0	0	0	0	0	0	0	0	0	0	0	875	821	821	878	878	875	873	873	873	871	871	871	871	869	869	871	871	871	873	875	875	875	875	875	878	817	817	817	817	819	821	823	823	825	825	825	827	827	829	829	831	831	833	833	833	835	835	835	835	837	839	839	839	839	841	841	841	843	843	843	843	843	845	845	845	845	845	848	848	850	850	850	850	850	850	850	850	850	852	852	852	852	852	852	852	852	854	854	854	854	856	856	856	856	858	858	858	858	858	858	858	860	860	860	860	860	860	860	858	858	858	858	858	858	858	858	860	860	860	862	862	862	862	865	865	865	865	867	867	867	865	865	865	901	901	901	901	901	901	901	903	903	903	905	905	905	908	910	910	910	910	910	910	910	910	910	913	913	913	913	915	917	917	920	920	920	920	920	915	913	913	913	913	915	917	917	917	920	920	922	922	922	925	925	927	930	930	932	935	935	937	940	940	942	948	950	953	955	955	958	958	1017	1017	1017	1017	1017	1020	1020	1193	1197	1197	1197	1202	1206	1206	1206	1210	1210	1210	1214	1214	1214	1219	1219	1219	1219	1223	1223	1223	1223	1223	1223	1227	1223	1223	1227	1227	1227	1232	1232	1232	1236	1236	1236	1236	1236	1236	1240	1240	1245	1245	1245	1245	1245	1249	1249	1249	1254	1254	1254	1259	1259	1259	1263	1263	1263	1263	1268	1268	1272	1272	1272	0	0	0	0	0	0	0	0	0	0	0	0	0	0	546	545	545	545	545	545	544	544	544	544	544	544	544	544	543	543	542	542	542	542	542	542	542	542	542	542	542	542	542	542	541	541	541	541	541	523	523	523	524	524	523	523	523	523	523	523	522	522	521	521	519	519	519	519	518	518	518	517	516	516	516	515	514	514	513	513	514	514	514	516	516	516	516	516	516	516	514	513	513	512	512	513	513	513	513	513	513	513	513	513	513	513	513	513	513	0	0	0	0	0	513	513	513	513	513	514	514	515	516	515	514	513	513	513	514	511	511	511	510	510	510	510	512	0	0	0	0	0	0	0	533	532	532	532	532	532	532	532	532	532	532	532	532	532	532	532	532	532	532	532	532	532	532	532	532	532	532	532	532	532	531	531	530	530	530	529	529	529	529	529	529	529	529	529	529	529	529	529	528	528	528	529	529	528	528	528	528	527	527	527	527	527	527	527	526	526	526	526	526	527	527	526	526	526	526	525	525	525	525	526	526	526	526	526	526	527	527	527	527	528	527	526	526	527	526	526	525	525	526	526	523	523	523	523	524	524	524	524	524	524	524	524	524	523	523	523	523	523	524	524	524	524	524	524	524	523	523	522	522	523	522	522	523	523	523	523	523	523	523	523	523	524	526	525	525	525	524	524	525	526	527	527	527	527	527	526	526	526	526	526	525	525	526	527	526	524	524	523	523	523	523	524	525	525	525	525	0	0	0	0	0	0	0	0	0	0	0	0	0	0	0	0
0	0	0	0	0	0	0	0	0	0	0	0	0	0	0	0	0	0	0	0	0	0	0	0	0	0	0	0	0	0	0	0	0	821	821	880	878	878	875	873	873	871	871	871	871	871	871	871	871	871	873	873	875	875	875	878	878	878	817	817	817	819	821	821	823	823	825	825	827	827	829	829	831	831	833	833	833	835	835	835	835	837	839	839	841	841	841	843	843	843	843	843	843	845	845	845	848	848	848	850	850	850	850	850	850	850	850	850	852	852	852	852	852	852	852	854	854	854	854	854	856	856	858	858	858	858	858	858	858	860	860	860	860	860	860	860	860	860	860	860	858	858	858	858	858	858	858	860	860	860	862	862	862	865	865	865	865	867	867	867	867	867	867	865	865	901	901	901	901	901	901	903	903	903	903	905	905	908	908	910	910	910	910	910	910	910	910	910	913	913	913	913	915	917	917	920	920	920	920	920	917	915	913	913	915	915	917	920	920	920	920	922	922	927	927	930	932	932	932	935	937	937	940	940	940	942	950	953	955	955	958	958	958	1017	1017	1017	1020	1020	1020	1020	1023	1197	1197	1202	1202	1206	1206	1210	1210	1214	1214	1214	1214	1214	1219	1219	1219	1223	1223	1223	1223	1223	1223	1223	1227	1227	1227	1227	1227	1232	1232	1232	1232	1236	1236	1236	1236	1240	1240	1240	1245	1245	1245	1249	1249	1249	1249	1254	1254	1254	1259	1259	1263	1263	1263	1268	1268	1268	1268	1272	1272	1277	1277	1277	0	0	0	0	0	0	0	0	0	0	0	0	0	0	546	546	544	544	544	544	543	543	543	543	543	543	543	543	543	542	542	542	542	542	542	542	542	542	542	542	541	541	541	541	541	540	540	540	540	523	523	523	524	524	523	523	523	523	522	522	522	521	520	520	519	519	519	519	518	517	517	516	516	516	516	515	514	514	513	513	513	513	513	513	514	515	515	515	514	513	513	512	512	511	511	513	513	513	513	513	513	513	513	513	513	512	512	513	513	513	0	0	513	513	513	513	513	513	513	513	514	514	514	514	513	512	512	513	510	510	510	510	510	510	510	510	510	0	0	0	0	0	0	532	532	532	532	532	532	532	532	532	532	532	532	532	532	532	532	532	532	532	532	532	532	532	532	532	532	532	531	531	531	531	531	529	529	529	529	528	528	529	529	529	529	528	529	528	528	528	528	528	528	528	527	527	527	527	527	527	527	527	527	527	527	527	527	527	526	526	526	526	526	526	526	526	526	525	525	524	524	524	525	525	525	525	525	525	525	525	525	526	526	527	527	525	525	526	526	525	525	525	524	524	523	523	523	523	523	523	523	523	523	523	523	523	523	523	523	523	523	523	523	523	523	523	523	523	523	523	523	522	522	522	521	521	522	522	523	523	523	523	523	523	523	523	523	523	523	523	523	523	524	525	525	525	525	526	525	524	524	524	525	524	524	524	525	526	524	524	524	524	524	524	524	524	525	525	525	525	0	0	0	0	0	0	0	0	0	0	0	0	0	0	0	0
0	0	0	0	0	0	0	0	0	0	0	0	0	0	0	0	0	0	0	0	0	0	0	0	0	0	0	0	0	0	0	0	825	825	823	823	878	878	875	873	873	871	871	871	871	871	871	871	871	871	873	875	875	875	875	878	878	878	817	817	817	819	821	821	823	823	825	825	827	827	827	827	829	831	833	833	835	835	835	837	839	839	841	841	841	841	841	843	843	843	843	843	845	845	845	848	848	848	850	850	850	850	850	850	852	852	852	852	852	852	852	854	854	854	856	856	858	858	858	858	858	858	858	858	858	858	858	860	860	860	860	860	860	860	860	860	860	860	860	860	858	858	858	858	858	858	860	860	862	862	862	865	865	865	865	865	865	867	867	867	869	867	867	867	867	898	901	901	901	903	903	903	903	905	905	905	908	908	910	910	910	910	910	910	910	910	910	913	913	913	913	913	915	917	920	920	920	920	920	920	920	915	915	915	917	920	920	920	920	922	922	925	925	927	930	930	932	935	935	937	937	940	942	942	942	950	955	955	958	958	958	958	1017	1017	1017	1017	1020	1020	1023	1023	1023	1202	1202	1202	1202	1206	1206	1210	1214	1214	1214	1214	1219	1219	1219	1219	1223	1223	1223	1227	1227	1227	1227	1227	1232	1232	1232	1232	1232	1232	1232	1232	1236	1236	1236	1240	1245	1240	1240	1245	1249	1249	1249	1249	1249	1254	1254	1254	1259	1259	1263	1263	1263	1263	1263	1268	1268	1268	1268	1272	1272	1282	1282	1287	1287	1287	0	0	0	0	0	0	0	0	0	0	0	0	546	546	543	543	543	543	542	542	542	542	542	542	542	542	542	542	541	541	541	542	541	541	541	541	541	540	540	540	540	540	540	540	539	539	539	539	523	523	524	524	523	523	523	523	522	522	521	520	519	519	519	519	518	518	518	517	516	516	516	516	516	515	514	514	513	513	513	513	513	513	514	514	514	513	513	511	511	511	510	510	510	511	512	513	513	513	513	513	513	512	512	511	511	512	511	511	511	0	513	513	513	513	512	512	513	513	513	513	513	512	511	511	511	510	510	510	510	510	510	510	510	510	510	0	0	0	0	0	530	530	531	532	532	532	532	532	532	532	531	531	531	531	531	531	531	531	531	531	531	532	531	531	531	531	531	531	530	530	530	530	529	529	528	528	528	528	528	528	528	528	528	528	528	528	528	528	528	528	527	527	527	527	527	526	526	527	527	527	527	527	527	526	526	526	526	526	526	526	526	526	525	524	524	523	523	523	523	524	523	523	524	524	524	524	524	523	523	524	524	524	524	524	524	524	524	523	523	524	523	523	522	522	522	522	523	523	523	523	523	523	523	523	522	521	521	521	521	520	520	521	521	522	522	523	523	522	522	522	522	522	521	521	522	522	522	522	523	523	523	523	523	523	523	523	522	522	522	523	523	523	523	524	524	525	525	524	524	524	524	524	524	524	525	525	524	524	524	524	524	524	524	524	525	525	525	525	0	0	0	0	0	0	0	0	0	0	0	0	0	0	0	0
0	0	0	0	0	0	0	0	0	0	0	0	0	0	0	0	0	0	0	0	0	0	0	0	0	0	0	0	0	0	0	0	825	825	823	823	823	878	878	873	873	873	873	871	871	871	871	873	873	873	875	875	875	878	878	878	880	880	882	882	817	821	821	823	823	825	825	827	827	827	827	827	829	831	833	833	835	835	837	839	839	839	841	841	841	841	841	843	843	843	843	843	845	848	848	848	848	850	850	850	850	850	852	852	852	852	852	852	852	852	854	854	856	858	858	858	858	858	858	858	858	858	858	858	858	860	860	860	860	860	860	860	860	860	860	860	862	862	862	862	860	860	860	860	860	860	860	862	862	862	865	865	865	865	865	867	867	867	867	867	869	869	869	869	869	898	898	901	901	903	903	903	903	905	905	905	908	908	910	910	910	910	910	910	910	913	913	913	913	913	913	913	915	917	917	920	920	920	920	920	920	920	917	917	917	920	920	920	922	922	922	925	927	930	930	932	932	935	935	937	940	940	942	945	945	953	958	958	958	958	958	1017	1017	1017	1017	1017	1020	1023	1023	1023	1023	1026	1202	1202	1202	1210	1210	1210	1214	1214	1214	1219	1219	1219	1219	1219	1223	1227	1227	1227	1232	1232	1232	1232	1232	1232	1232	1232	1232	1236	1236	1236	1236	1240	1245	1249	1249	1249	1245	1245	1249	1249	1249	1249	1254	1254	1259	1259	1259	1259	1263	1263	1268	1268	1268	1268	1268	1268	1268	1272	1282	1282	1282	1287	1287	1287	0	0	0	0	0	0	0	0	0	0	0	0	0	0	543	543	542	542	542	542	542	542	542	542	542	541	541	541	540	540	540	540	540	540	540	540	540	539	539	539	539	539	539	539	539	539	538	537	537	537	536	536	536	523	523	522	522	521	521	519	519	519	518	518	517	517	517	516	516	516	515	515	515	514	514	514	513	513	513	513	513	513	513	513	513	513	511	511	511	510	510	510	510	511	511	512	512	512	512	512	512	511	511	511	511	511	511	511	511	512	512	512	512	512	512	512	512	512	513	512	512	510	510	510	510	509	509	509	509	510	510	510	509	509	510	510	0	0	0	529	529	530	531	531	531	531	531	531	531	531	530	530	530	530	530	530	530	530	530	530	530	530	529	529	528	528	528	528	528	528	528	528	528	528	528	528	528	528	528	528	528	528	528	528	527	527	527	527	527	527	527	527	527	526	526	526	526	526	526	527	526	526	526	525	525	525	525	525	525	525	525	525	525	523	523	523	523	523	523	523	523	523	523	523	523	523	523	523	523	523	523	523	523	523	523	523	523	523	523	523	522	521	521	521	521	521	522	522	523	523	523	522	522	521	520	520	520	520	520	520	520	521	521	521	521	521	521	521	521	521	521	521	520	520	521	521	521	522	522	523	523	523	522	522	522	519	519	520	521	519	519	520	520	520	521	523	523	523	523	523	523	523	523	523	524	524	524	523	523	523	523	524	524	526	526	526	525	525	0	0	0	0	0	0	0	0	0	0	0	0	0	0	0	0
0	0	0	0	0	0	0	0	0	0	0	0	0	0	0	0	0	0	0	0	0	0	0	0	0	0	0	0	0	0	0	0	825	825	825	823	823	823	823	823	821	821	821	873	873	873	873	873	873	875	875	875	875	878	878	878	880	880	882	884	884	884	825	825	825	825	825	827	827	827	829	829	831	833	833	835	835	837	837	839	841	841	841	841	841	843	843	843	845	845	845	845	848	848	848	848	850	850	850	850	852	852	852	852	852	854	854	854	856	856	856	856	858	858	858	858	858	858	858	858	858	858	860	860	860	860	860	860	860	860	860	860	860	860	860	862	862	862	862	862	862	862	860	860	860	860	862	862	862	865	865	865	865	867	867	867	867	867	867	869	869	869	869	871	871	898	898	901	901	903	903	903	905	908	908	908	908	910	910	910	910	910	910	910	910	913	913	913	913	913	913	915	917	920	920	920	920	920	920	920	920	920	917	917	917	920	920	920	922	922	925	927	927	930	930	932	935	935	937	940	942	942	945	948	953	955	958	958	955	955	1020	1017	1017	1017	1017	1017	1020	1023	1023	1023	1023	1026	1026	1210	1210	1210	1210	1214	1214	1214	1214	1219	1219	1219	1219	1223	1227	1227	1227	1232	1232	1232	1232	1232	1232	1232	1232	1232	1236	1236	1240	1240	1245	1245	1245	1249	1249	1249	1249	1249	1249	1254	1254	1254	1254	1254	1259	1263	1263	1263	1268	1268	1268	1268	1268	1272	1272	1272	1272	1277	1282	1287	1287	1287	1287	1291	1291	0	0	0	0	0	0	0	0	0	0	0	0	0	543	542	541	541	541	541	541	541	541	541	541	540	540	540	539	539	539	538	538	538	538	538	538	538	538	538	539	539	539	539	539	538	537	536	536	536	536	536	536	536	523	522	522	521	519	519	519	518	517	517	517	516	516	516	515	515	514	514	514	513	513	513	513	513	513	512	512	512	512	512	512	511	510	510	510	510	510	510	510	510	510	511	511	511	511	511	511	511	511	510	510	511	510	510	510	511	511	512	512	512	511	511	511	511	510	510	510	509	509	509	509	508	508	507	507	509	509	509	509	509	510	510	0	529	528	528	529	529	530	530	530	530	530	530	530	529	528	528	528	528	528	528	528	528	528	528	528	528	528	527	527	527	527	527	527	527	527	527	527	527	527	527	527	527	527	527	527	527	527	527	527	527	527	527	527	526	526	526	526	525	525	525	525	526	526	526	525	525	525	524	524	525	524	524	524	523	523	524	523	523	523	523	523	523	523	523	523	523	523	523	523	523	523	523	523	523	523	522	522	522	522	523	523	522	522	522	521	520	520	520	520	520	521	521	522	522	521	521	520	519	519	519	519	519	519	519	519	520	521	521	521	521	521	521	521	520	520	520	520	520	520	520	521	521	521	522	522	522	521	521	519	519	519	519	520	519	519	520	520	520	521	523	522	522	522	522	522	521	521	521	523	523	523	523	523	523	523	523	523	523	526	526	0	0	0	0	0	0	0	0	0	0	0	0	0	0	0	0	0	0
0	0	0	0	0	0	0	0	0	0	0	0	0	0	0	0	0	0	0	0	0	0	0	0	0	0	0	0	0	0	0	0	825	825	825	825	823	823	823	823	821	823	873	873	873	873	873	873	873	875	875	875	875	878	878	878	880	880	882	884	884	884	825	825	825	825	827	827	827	827	829	829	831	833	833	835	835	837	839	839	841	841	843	843	843	843	843	845	845	845	845	845	848	848	848	848	850	850	852	852	852	852	852	854	854	854	856	856	856	856	858	858	858	858	858	858	860	860	860	860	860	860	860	860	860	860	860	860	860	860	860	860	860	862	862	862	865	865	865	865	862	862	862	862	862	862	862	865	865	865	865	865	867	867	867	867	867	869	869	869	871	871	871	873	871	871	901	901	903	903	903	903	905	908	908	908	910	910	910	910	910	910	913	913	913	913	913	913	913	915	915	915	917	920	920	920	920	920	920	920	920	920	917	917	917	920	920	922	922	922	925	927	930	930	932	935	935	937	940	940	942	945	948	950	955	958	961	961	955	955	1020	1017	1017	1017	1017	1020	1023	1023	1026	1026	1026	1026	1026	1214	1214	1214	1214	1214	1214	1214	1214	1219	1219	1219	1223	1223	1227	1232	1232	1232	1236	1236	1236	1236	1236	1236	1236	1236	1236	1236	1240	1240	1245	1245	1249	1249	1249	1249	1249	1249	1254	1254	1254	1254	1259	1259	1263	1263	1263	1268	1268	1268	1268	1268	1272	1272	1272	1272	1272	1277	1287	1287	1287	1291	1291	1291	1291	0	0	0	0	0	0	0	0	0	0	0	0	0	0	542	541	541	540	540	541	540	540	540	540	540	540	539	539	538	538	537	536	536	537	537	537	537	538	538	538	538	538	538	538	537	536	536	536	536	535	535	535	535	535	535	535	535	519	518	518	517	517	517	516	516	516	514	514	515	514	514	513	513	513	513	513	512	512	511	511	511	511	511	511	511	510	510	510	510	510	510	510	510	510	510	510	511	511	511	511	511	511	510	510	511	510	510	510	511	511	511	511	511	510	510	510	510	510	510	510	509	507	507	507	507	507	507	507	508	508	509	509	509	509	510	528	528	528	528	528	528	529	529	529	529	529	529	528	527	527	527	527	527	527	527	527	527	527	527	527	527	527	527	527	526	526	526	526	526	526	526	527	527	527	527	527	527	527	527	527	527	527	527	526	525	525	526	525	525	525	524	524	524	524	524	525	525	524	524	524	524	524	523	523	524	523	523	523	523	523	523	523	522	522	522	522	522	522	523	523	523	522	522	522	522	522	522	522	522	522	522	521	521	521	522	522	520	520	521	520	519	519	519	520	520	520	520	521	521	520	520	519	519	519	519	519	519	519	519	519	520	520	520	520	520	520	520	520	520	519	519	519	519	519	520	520	520	521	521	521	521	521	520	519	519	519	519	520	520	520	521	521	521	521	523	522	522	522	521	521	521	521	521	521	522	523	522	522	522	523	523	523	523	0	0	0	0	0	0	0	0	0	0	0	0	0	0	0	0	0	0	0	0
0	0	0	0	0	0	0	0	0	0	0	0	0	0	0	0	0	0	0	0	0	0	0	0	0	0	0	0	0	0	0	0	825	825	825	825	825	825	827	827	827	827	873	873	873	873	873	873	873	875	875	875	875	878	878	878	880	880	884	884	884	884	884	825	825	825	827	827	827	827	829	831	831	833	835	835	837	837	839	841	841	841	843	843	843	843	845	848	848	848	848	848	848	850	850	850	850	850	850	852	852	852	854	854	854	856	856	858	858	858	858	858	858	860	860	860	860	860	860	860	860	860	860	860	860	862	862	862	862	862	862	860	860	862	862	865	865	865	865	865	862	862	862	862	862	862	862	865	865	865	867	867	867	867	867	867	867	869	871	871	871	873	873	873	871	871	901	901	903	903	903	903	905	905	908	908	910	910	910	910	913	913	913	913	913	913	913	913	915	915	915	917	920	920	920	920	920	922	922	922	920	920	920	920	920	920	920	922	922	922	925	927	930	930	932	935	937	940	942	942	945	945	950	955	958	958	961	955	955	955	1020	1017	1017	1017	1017	1020	1023	1026	1026	1026	1026	1030	1030	1033	1214	1214	1214	1214	1214	1219	1219	1219	1219	1219	1223	1227	1227	1232	1232	1232	1236	1236	1236	1236	1236	1236	1236	1236	1236	1240	1245	1245	1249	1249	1249	1249	1249	1249	1249	1254	1254	1254	1259	1259	1263	1263	1268	1268	1268	1268	1268	1268	1272	1272	1272	1272	1272	1277	1277	1282	1287	1287	1287	1291	1291	1291	1291	0	0	0	0	0	0	0	0	0	0	0	0	0	0	542	541	540	540	540	540	539	539	539	539	539	539	538	538	537	536	536	536	536	536	536	536	536	536	536	537	537	537	537	536	535	535	534	534	533	533	533	533	533	532	532	533	533	519	517	517	515	515	515	514	513	513	513	513	513	513	513	513	513	513	513	511	511	511	511	510	510	510	510	510	510	510	510	510	510	510	510	509	509	510	510	510	510	510	511	511	511	511	510	510	511	511	510	510	511	511	511	511	511	510	510	510	510	508	508	509	507	506	506	506	507	507	507	507	507	507	509	509	509	527	527	527	528	528	528	528	528	528	528	528	528	527	527	527	527	527	527	527	527	527	527	527	527	527	526	526	526	526	525	525	525	525	525	525	525	525	526	526	526	526	526	526	527	527	526	526	525	525	525	524	524	524	525	525	524	524	524	524	523	523	523	524	523	523	523	523	523	523	523	523	523	523	523	523	523	523	523	522	521	521	521	520	520	521	521	521	521	519	519	520	520	520	520	520	520	520	520	519	519	519	519	519	519	519	520	519	519	519	519	519	519	519	519	519	520	519	519	519	519	519	519	519	519	519	519	519	519	519	520	520	520	520	520	520	519	519	519	519	519	519	519	519	520	520	520	521	521	520	520	519	519	519	519	519	519	519	519	521	521	521	523	521	521	521	521	520	520	520	520	520	521	521	521	522	522	523	522	522	522	0	0	0	0	0	0	0	0	0	0	0	0	0	0	0	0	0	0	0	0
0	0	0	0	0	0	0	0	0	0	0	0	0	0	0	0	0	0	0	0	0	0	0	0	0	0	0	0	0	0	0	0	827	827	827	827	827	827	827	827	827	827	827	873	873	873	873	873	873	875	875	875	875	878	878	878	880	882	884	884	884	884	884	884	825	825	827	827	827	829	829	831	833	833	835	835	837	837	841	841	841	841	843	843	843	845	845	848	848	850	848	848	850	850	850	852	852	852	852	852	854	854	854	856	856	856	856	858	858	858	858	858	860	860	860	860	860	860	860	860	860	860	860	860	860	862	862	862	862	865	865	862	862	865	865	865	865	865	867	867	865	865	865	865	865	865	865	865	865	865	867	867	867	867	867	867	869	869	871	871	871	873	873	873	871	873	873	901	903	903	905	908	908	910	910	910	910	910	913	913	913	913	913	913	913	913	913	915	915	915	917	917	920	920	920	920	922	922	922	922	922	922	920	920	920	920	922	922	925	925	927	927	930	930	935	937	940	942	942	945	948	950	953	955	958	958	961	955	955	955	1020	1017	1017	1017	1017	1020	1026	1026	1030	1030	1030	1030	1030	1030	1214	1219	1214	1214	1219	1219	1219	1219	1223	1223	1223	1232	1232	1232	1232	1236	1236	1236	1236	1236	1236	1240	1240	1240	1245	1249	1249	1249	1249	1249	1249	1249	1249	1249	1254	1254	1259	1259	1259	1263	1263	1263	1268	1268	1268	1268	1272	1272	1272	1272	1272	1272	1277	1282	1282	1282	1287	1291	1291	1291	1291	1291	1291	1291	0	0	0	0	0	0	0	0	0	0	0	0	0	542	541	540	539	539	539	538	538	538	537	536	536	536	536	536	535	535	535	535	535	535	535	536	536	536	536	536	536	536	535	534	534	533	533	533	532	532	533	532	532	532	532	532	532	517	516	513	513	513	513	513	513	513	513	513	512	512	512	511	511	510	510	510	510	510	510	510	510	510	510	510	510	510	510	510	510	510	509	509	509	510	510	510	510	510	510	510	510	510	510	510	511	0	0	0	511	511	510	510	510	509	509	508	507	507	508	507	504	504	505	506	506	506	507	507	507	507	507	526	526	527	527	527	527	527	527	527	528	527	527	527	527	527	527	526	526	526	526	526	526	526	526	526	526	526	526	526	525	525	525	524	524	525	525	525	525	525	525	525	525	525	525	526	525	525	525	524	524	524	523	523	523	524	523	523	523	523	523	523	523	523	523	523	523	523	523	523	522	522	522	522	522	522	522	522	522	522	521	520	520	520	520	520	520	520	519	519	519	519	519	519	519	519	519	519	519	519	519	518	518	518	517	517	517	518	518	519	519	519	519	519	519	519	519	519	519	519	519	518	518	518	518	518	518	518	518	519	519	519	519	519	519	519	519	519	519	519	519	519	519	519	519	519	519	519	520	520	519	519	519	519	519	519	519	519	519	519	520	521	520	520	520	520	520	519	519	519	520	519	519	519	520	521	521	521	521	521	521	521	0	0	0	0	0	0	0	0	0	0	0	0	0	0	0	0	0	0	0	0
0	0	0	0	0	0	0	0	0	0	0	0	0	0	0	0	0	0	0	0	0	0	0	0	0	0	0	0	0	0	0	0	827	827	827	827	827	829	827	827	827	827	827	873	873	873	873	873	873	875	875	875	875	878	878	880	882	884	884	887	887	887	887	887	825	825	827	827	827	829	831	831	833	833	835	835	837	839	841	841	841	843	843	845	845	845	848	848	848	850	848	848	850	850	850	852	852	852	852	852	854	854	854	856	856	856	858	858	858	858	858	860	860	860	860	860	860	860	860	860	860	860	860	860	862	862	862	862	865	865	865	865	865	867	867	867	867	867	867	867	865	865	865	865	865	865	865	865	865	867	867	867	867	867	867	869	869	869	871	873	873	873	873	873	873	875	901	903	905	905	905	908	908	910	910	910	910	910	913	913	913	913	913	913	913	915	915	915	917	917	917	920	920	920	920	920	922	922	922	922	922	922	922	920	920	920	922	922	925	927	927	930	932	932	937	940	940	942	945	948	950	953	955	958	961	961	955	953	953	955	1020	1017	1017	1020	1020	1020	1026	1026	1030	1030	1030	1030	1030	1030	1033	1039	1219	1219	1219	1219	1219	1223	1223	1227	1227	1232	1232	1232	1236	1236	1236	1236	1236	1236	1240	1240	1245	1245	1245	1249	1249	1249	1249	1249	1254	1254	1254	1254	1254	1259	1259	1259	1263	1263	1268	1268	1268	1268	1268	1272	1272	1272	1272	1277	1277	1277	1282	1282	1287	1291	1291	1291	1291	1291	1296	1296	1296	1296	0	0	0	0	0	0	0	0	0	0	0	0	0	0	539	539	538	537	536	536	536	536	536	536	536	536	536	535	535	535	534	534	534	533	533	534	534	535	535	534	533	533	533	533	533	532	532	532	532	532	532	532	532	532	532	532	532	531	531	513	513	513	513	513	512	512	512	513	512	511	511	511	510	510	510	510	510	509	509	509	509	509	510	510	510	510	509	509	509	509	509	509	509	509	510	510	510	510	510	510	511	511	510	510	511	0	0	0	0	0	509	509	508	508	508	507	507	507	507	505	504	504	504	506	505	505	506	507	507	507	525	525	525	527	527	527	527	527	527	527	527	527	527	527	527	526	526	526	526	526	525	525	525	525	525	525	525	525	525	525	525	524	524	523	523	524	524	524	524	524	524	524	524	524	524	524	524	523	523	523	523	523	523	523	523	523	523	523	523	522	522	522	522	523	523	523	522	522	522	522	521	521	520	520	520	520	521	520	520	520	520	519	519	519	519	519	520	520	519	519	518	518	518	518	519	518	518	518	519	519	518	518	518	518	517	517	517	517	517	516	516	517	517	517	517	517	518	518	517	517	517	517	517	517	517	517	517	517	517	518	518	519	519	519	519	519	519	518	518	518	518	518	518	518	519	519	519	519	519	520	519	519	519	518	518	518	518	518	518	518	519	519	519	519	519	519	519	519	519	519	519	519	519	519	519	519	519	519	520	520	521	521	0	0	0	0	0	0	0	0	0	0	0	0	0	0	0	0	0	0	0	0
0	0	0	0	0	0	0	0	0	0	0	0	0	0	0	0	0	0	0	0	0	0	0	0	0	0	0	0	0	0	0	0	827	827	827	827	827	827	827	827	827	827	827	873	875	873	873	873	875	875	875	875	875	878	878	880	882	884	884	887	887	887	887	887	887	827	827	829	829	829	831	831	833	835	835	837	837	839	841	841	843	843	845	845	848	848	848	850	850	850	850	850	850	850	852	852	852	852	854	854	856	856	856	856	856	858	858	858	858	858	860	860	860	860	860	860	860	860	862	860	860	862	862	862	862	865	865	867	867	867	867	867	867	867	867	867	867	867	867	867	865	865	865	865	865	865	865	867	867	867	867	867	867	867	867	869	869	871	871	873	873	875	875	875	875	878	901	903	905	905	905	908	908	910	910	910	913	913	913	913	913	913	913	913	913	915	915	917	917	917	920	920	920	920	922	922	922	922	922	922	922	922	922	920	920	922	922	925	927	927	930	930	932	932	937	940	942	945	948	950	950	953	955	958	961	961	955	953	953	1017	1020	1017	1017	1020	1020	1020	1030	1030	1033	1033	1033	1033	1033	1033	1033	1036	1219	1219	1223	1223	1223	1227	1227	1227	1232	1232	1236	1236	1236	1236	1236	1236	1240	1240	1240	1245	1245	1245	1249	1249	1249	1249	1254	1254	1254	1254	1259	1259	1259	1263	1268	1268	1268	1268	1268	1268	1268	1272	1272	1272	1272	1277	1277	1277	1282	1282	1282	1287	1287	1291	1291	1291	1296	1296	1296	1301	1301	1301	0	0	0	0	0	0	0	0	0	0	0	0	0	0	539	538	538	536	536	536	536	536	536	535	535	534	534	534	533	533	533	533	533	533	533	533	534	533	533	532	532	532	532	532	532	532	532	532	532	532	532	532	532	532	532	531	530	530	530	530	513	512	512	512	512	512	512	512	511	510	510	510	510	510	510	510	510	509	509	509	509	509	509	509	509	509	509	509	509	509	508	508	509	509	510	510	510	510	510	510	510	511	0	0	0	0	0	0	0	0	509	509	508	507	507	505	504	504	504	504	503	503	504	505	505	505	506	506	506	506	524	524	524	525	525	526	526	526	527	527	527	527	527	526	526	525	525	525	525	525	525	525	525	524	524	524	524	524	524	524	524	523	523	523	523	523	523	523	523	523	524	523	523	523	523	523	523	523	523	523	523	522	522	522	522	522	522	522	522	521	521	521	521	522	522	521	521	521	521	521	520	520	520	520	520	519	519	519	519	519	519	519	519	519	519	519	519	519	519	516	516	517	517	517	517	517	517	517	517	517	516	516	517	517	516	516	516	516	516	516	516	516	516	516	516	516	516	515	515	515	515	516	516	516	516	516	517	517	517	517	518	519	518	518	518	518	518	517	516	516	516	516	517	517	517	517	518	518	518	519	518	518	518	517	517	518	518	518	518	518	518	518	518	518	518	518	518	519	519	519	519	519	519	518	519	519	519	519	519	519	520	520	0	0	0	0	0	0	0	0	0	0	0	0	0	0	0	0	0	0	0	0
0	0	0	0	0	0	0	0	0	0	0	0	0	0	0	0	0	0	0	0	0	0	0	0	0	0	0	0	0	0	0	0	825	825	827	827	827	827	827	827	829	827	827	873	875	873	873	875	875	875	875	875	875	878	878	880	882	884	884	887	887	887	887	887	887	829	829	829	829	829	831	833	833	835	835	837	837	839	841	843	843	843	843	845	848	850	850	850	850	850	850	850	850	850	852	852	854	854	854	854	856	856	856	858	858	858	858	858	858	860	860	860	860	860	860	862	862	862	862	862	862	862	865	865	865	865	865	867	867	867	867	867	867	867	867	867	867	867	867	867	865	865	865	865	867	867	867	867	867	867	867	867	869	869	869	871	873	873	873	873	875	875	875	875	875	878	878	903	905	905	905	908	908	910	910	910	913	913	913	913	915	915	915	915	915	915	915	917	917	920	920	920	920	922	922	922	922	922	925	925	925	922	922	920	922	922	925	925	927	930	930	932	932	932	940	940	942	948	950	950	953	955	961	961	961	961	961	1017	1017	1017	1020	1020	1020	1020	1020	1026	1030	1030	1033	1033	1033	1033	1033	1033	1033	1036	1223	1223	1223	1227	1227	1227	1227	1232	1232	1232	1236	1236	1236	1236	1240	1240	1245	1245	1245	1249	1249	1254	1254	1254	1254	1254	1254	1254	1259	1259	1259	1263	1263	1268	1268	1268	1268	1268	1268	1268	1272	1272	1272	1272	1277	1277	1277	1282	1282	1282	1287	1287	1287	1291	1291	1291	1296	1296	1301	1301	1301	1301	0	0	0	0	0	0	0	0	0	0	0	0	0	0	539	538	537	536	535	535	535	535	534	534	534	534	534	533	533	533	532	532	533	532	532	532	532	532	532	530	530	531	531	532	532	532	532	532	532	532	531	531	531	531	530	530	530	530	530	529	529	512	511	511	511	511	511	511	510	510	510	510	510	510	510	510	510	509	509	509	509	509	509	509	509	509	509	509	509	509	508	508	509	509	510	510	510	510	510	510	510	0	0	0	0	0	0	0	0	0	509	509	508	507	504	504	503	503	504	504	502	502	503	505	506	506	506	506	524	524	524	524	524	525	525	525	525	526	526	526	524	524	524	525	525	524	524	524	525	524	524	524	524	523	523	523	523	523	523	523	523	523	523	523	523	523	523	523	523	523	523	522	522	522	522	521	521	521	522	522	522	521	521	521	521	521	521	521	521	520	520	520	520	521	521	520	520	520	520	520	519	519	519	519	519	519	519	519	519	519	518	518	517	517	517	517	517	517	515	515	516	516	516	516	516	516	516	516	516	516	516	516	516	516	516	516	516	516	516	516	516	516	516	516	516	516	516	515	515	515	515	515	515	515	515	516	516	516	516	516	517	518	518	517	517	517	517	517	516	515	515	516	516	516	516	516	516	516	517	516	516	517	517	517	517	517	517	517	517	517	517	517	517	516	516	517	518	518	518	518	518	518	518	518	518	518	518	518	519	519	520	520	0	0	0	0	0	0	0	0	0	0	0	0	0	0	0	0	0	0	0	0
0	0	0	0	0	0	0	0	0	0	0	0	0	0	0	0	0	0	0	0	0	0	0	0	0	0	0	0	0	0	0	0	825	825	827	827	827	827	827	827	829	829	829	875	875	873	873	875	875	875	875	875	878	878	880	880	884	884	884	887	887	887	887	887	887	887	827	827	829	831	831	833	833	835	835	837	837	841	841	841	843	843	845	848	848	850	850	850	850	850	850	850	852	852	852	854	854	854	854	856	856	858	858	858	858	858	858	860	860	860	860	860	860	860	860	862	862	862	862	865	865	865	865	865	865	865	867	867	867	867	867	867	867	867	867	867	867	867	867	867	867	867	867	867	867	867	867	867	869	871	871	871	871	871	871	873	873	873	875	875	875	875	878	878	878	878	878	905	908	908	908	910	910	910	910	910	913	913	915	915	917	917	917	917	917	917	917	917	920	920	920	920	922	922	922	922	925	925	925	925	925	925	922	922	922	922	925	927	927	930	930	932	932	935	940	942	945	950	953	953	955	958	961	961	961	961	961	1017	1017	1017	1020	1020	1020	1020	1020	1030	1033	1036	1036	1036	1033	1033	1033	1033	1033	1033	1036	1223	1227	1227	1232	1232	1232	1236	1236	1236	1236	1236	1240	1240	1245	1249	1249	1249	1249	1249	1254	1254	1254	1254	1259	1259	1259	1259	1259	1259	1263	1268	1268	1268	1272	1272	1272	1272	1272	1272	1272	1272	1272	1272	1277	1277	1277	1282	1287	1287	1287	1291	1291	1291	1296	1296	1296	1296	1301	1306	1306	1306	0	0	0	0	0	0	0	0	0	0	0	0	0	0	539	538	536	535	534	534	534	534	533	533	533	533	533	532	532	532	532	532	532	532	532	532	532	531	531	530	530	531	531	531	531	531	531	531	531	531	531	531	531	530	529	529	529	529	529	529	528	528	511	511	511	511	511	511	510	510	510	510	510	510	510	510	510	510	510	510	510	509	509	509	510	509	509	509	509	509	509	509	509	509	510	510	510	510	510	510	510	0	0	0	0	0	0	0	0	0	0	0	508	507	503	502	502	502	504	504	502	502	503	505	505	505	523	524	524	524	523	523	524	524	524	524	524	525	524	524	524	524	524	524	523	523	524	524	523	523	523	523	522	522	522	521	521	521	521	521	522	522	522	522	522	522	522	522	522	523	521	521	521	521	521	520	520	520	521	521	521	521	521	521	521	520	520	520	520	519	519	519	519	519	519	519	519	519	519	519	519	519	519	519	519	519	519	519	518	517	517	517	517	517	516	516	516	516	515	515	515	515	516	516	516	516	516	516	516	516	516	516	516	516	516	516	516	515	515	515	515	516	516	516	516	516	515	515	514	514	515	515	514	514	514	515	514	514	514	514	516	516	516	516	516	516	516	516	515	515	515	515	515	516	515	515	516	516	516	516	516	516	516	516	516	516	517	516	516	516	516	516	516	516	516	516	517	517	517	517	517	517	517	517	517	517	516	516	518	519	520	520	0	0	0	0	0	0	0	0	0	0	0	0	0	0	0	0	0	0	0	0
0	0	0	0	0	0	0	0	0	0	0	0	0	0	0	0	0	0	0	0	0	0	0	0	0	0	0	0	0	0	0	0	827	827	827	827	827	829	827	827	829	829	829	875	878	875	875	875	875	875	875	878	878	878	880	880	884	884	884	884	887	887	887	887	887	887	827	827	829	831	831	833	833	835	835	837	837	841	841	843	843	845	848	848	850	850	850	850	850	852	852	852	852	852	854	856	856	856	856	856	856	858	858	858	858	858	858	860	860	860	860	860	862	862	862	862	862	865	865	865	865	865	865	865	865	867	867	867	867	867	867	867	867	867	867	867	867	869	869	867	867	867	867	867	869	869	869	871	871	871	871	871	871	871	873	873	873	873	875	875	875	875	878	878	878	878	878	882	908	908	908	910	910	910	910	910	913	913	915	915	917	917	917	917	920	917	917	920	920	920	920	922	922	922	922	922	925	925	927	927	927	925	922	922	925	925	927	927	930	930	932	932	935	937	942	942	948	950	955	958	958	963	963	963	963	963	991	994	1017	1017	1020	1020	1020	1020	1227	1227	1232	1232	1232	1036	1033	1033	1033	1033	1033	1036	1232	1232	1232	1232	1232	1232	1236	1236	1236	1236	1240	1240	1240	1245	1249	1249	1249	1249	1249	1254	1254	1259	1259	1259	1259	1263	1263	1263	1263	1263	1263	1268	1268	1272	1272	1272	1272	1272	1272	1272	1277	1277	1277	1277	1277	1282	1282	1282	1287	1287	1287	1291	1291	1296	1296	1301	1301	1301	1306	1306	1306	1306	1311	1311	0	0	0	0	0	0	0	0	0	0	0	0	539	538	535	533	533	533	533	532	532	532	532	532	532	532	531	531	531	531	531	530	530	530	530	530	530	529	529	530	530	530	530	530	530	531	531	530	530	530	530	529	529	528	528	528	528	528	528	527	527	527	527	527	527	527	526	526	526	526	526	526	526	527	527	527	527	527	509	509	509	509	509	509	509	509	509	509	509	509	509	509	510	510	510	510	510	510	0	0	0	0	0	0	0	0	0	0	0	0	0	0	503	501	501	501	501	501	501	501	504	504	504	523	523	523	523	523	523	523	523	524	523	523	524	524	523	523	523	523	523	523	523	523	523	523	522	522	521	521	521	521	520	520	520	520	520	521	521	521	521	521	521	521	521	521	521	520	520	520	520	520	520	520	519	519	520	520	520	520	520	521	520	520	520	520	520	519	519	518	518	518	518	518	519	519	519	519	518	518	519	519	519	518	518	517	516	516	516	516	516	516	516	516	516	515	515	515	515	515	515	515	515	515	516	516	515	515	515	515	516	515	515	515	515	515	515	515	515	515	515	515	515	515	514	514	513	513	514	514	514	513	513	514	514	513	513	513	513	513	513	514	514	515	515	515	514	514	514	514	514	514	514	514	515	515	515	515	515	515	515	515	516	516	516	516	515	515	515	515	515	515	515	515	516	516	516	516	516	516	517	517	516	516	516	516	517	518	521	521	0	0	0	0	0	0	0	0	0	0	0	0	0	0	0	0	0	0	0	0
0	0	0	0	0	0	0	0	0	0	0	0	0	0	0	0	0	0	0	0	0	0	0	0	0	0	0	0	0	0	0	0	825	825	825	827	827	827	827	827	827	827	829	878	878	875	875	875	875	875	875	878	878	878	880	880	882	884	884	884	887	887	887	887	887	887	887	829	829	831	833	833	833	833	835	837	837	841	843	845	845	845	848	848	850	850	850	850	850	852	852	852	852	854	856	856	856	856	856	858	858	858	858	858	858	858	860	860	860	860	862	862	862	862	862	865	865	865	865	865	865	865	865	865	867	867	867	867	867	867	869	869	869	869	869	869	869	869	869	869	867	867	867	869	871	871	871	871	871	873	873	873	873	873	873	873	873	873	875	875	875	875	878	880	880	880	880	882	908	908	908	910	910	910	910	913	913	913	915	915	917	920	920	920	920	917	917	920	920	920	920	922	922	922	922	925	925	927	927	930	930	927	925	925	925	925	927	930	930	930	932	932	935	940	942	945	950	953	955	958	961	963	963	963	988	988	991	994	997	997	1219	1219	1227	1227	1232	1232	1232	1232	1236	1236	1236	1033	1036	1036	1036	1036	1039	1232	1232	1232	1232	1232	1236	1236	1236	1240	1240	1240	1245	1245	1249	1249	1249	1254	1254	1254	1259	1259	1259	1259	1263	1268	1268	1268	1268	1268	1268	1268	1268	1272	1272	1272	1277	1277	1277	1277	1277	1277	1277	1277	1282	1282	1287	1287	1287	1287	1291	1291	1291	1296	1301	1301	1301	1306	1306	1306	1306	1306	1306	1306	0	0	0	0	0	0	0	0	0	0	0	0	0	0	533	532	532	532	532	532	532	532	532	532	532	531	530	530	530	530	530	530	530	530	529	529	529	529	529	529	529	529	529	529	529	529	529	529	529	529	529	528	528	528	528	527	527	527	527	527	527	527	527	527	527	527	526	526	526	526	526	526	526	526	526	525	525	525	509	509	509	509	509	509	509	509	509	509	509	509	509	509	510	510	510	510	510	510	0	0	0	0	0	0	0	0	0	0	0	0	0	0	503	501	501	501	501	501	501	501	501	521	522	523	523	523	523	523	523	523	523	523	523	523	523	523	522	522	522	522	523	522	521	521	521	522	521	521	521	520	520	520	520	520	520	519	519	520	520	520	520	520	520	520	519	519	519	519	519	519	519	519	519	519	519	519	519	519	519	519	520	520	520	520	519	519	519	518	517	517	516	516	516	517	517	517	517	517	518	518	518	519	518	517	516	516	515	515	516	515	515	516	516	516	515	515	514	514	514	514	514	514	515	515	515	515	515	515	515	515	515	514	514	514	515	514	514	514	514	514	514	514	514	514	514	514	513	513	513	513	513	513	513	513	513	513	513	513	513	513	513	513	513	514	514	514	513	513	513	513	513	512	512	513	513	514	514	514	514	514	514	514	514	514	515	514	514	514	514	514	515	514	514	515	516	516	516	516	516	516	516	516	516	515	515	515	516	517	517	521	0	0	0	0	0	0	0	0	0	0	0	0	0	0	0	0	0	0	0	0
0	0	0	0	0	0	0	0	0	0	0	0	0	0	0	0	0	0	0	0	0	0	0	0	0	0	0	0	0	0	0	0	825	825	825	827	827	827	827	827	827	827	878	878	878	878	875	875	875	878	878	878	878	880	880	882	882	884	884	884	887	887	887	887	887	887	887	829	829	829	829	833	833	835	835	837	839	841	843	843	845	845	848	850	850	850	852	852	852	852	852	854	856	856	856	858	858	858	858	858	858	860	860	860	860	860	860	860	860	860	862	862	865	865	865	865	865	865	865	865	865	865	865	865	867	867	869	869	869	869	869	869	869	869	869	869	869	869	871	871	869	869	871	871	871	873	873	873	873	873	873	873	873	873	873	873	875	875	875	875	878	878	880	880	880	880	880	882	884	910	910	910	910	910	910	913	913	915	917	917	920	920	920	920	920	920	920	920	920	920	920	922	922	922	925	925	927	927	930	930	930	930	927	927	927	927	930	930	932	932	932	935	937	940	942	948	950	955	958	961	963	963	974	983	983	988	991	994	997	1219	1219	1219	1227	1227	1232	1232	1232	1236	1236	1236	1236	0	1036	1036	1036	1036	1039	1042	1042	1232	1236	1236	1236	1236	1240	1240	1245	1245	1245	1249	1249	1249	1254	1254	1254	1254	1259	1263	1263	1263	1268	1268	1268	1268	1268	1268	1268	1272	1272	1272	1277	1277	1277	1277	1277	1282	1282	1282	1282	1282	1287	1287	1287	1287	1291	1291	1291	1291	1296	1301	1301	1301	1301	1306	1306	1306	1306	1306	1306	1306	0	0	0	0	0	0	0	0	0	0	0	0	0	0	532	531	531	532	531	531	531	531	531	530	530	529	529	529	529	529	529	529	528	529	528	528	528	528	528	528	528	528	528	528	528	528	528	528	528	528	527	527	528	527	527	527	527	527	527	526	526	527	527	527	527	527	526	526	526	525	525	525	525	525	525	525	525	524	524	523	523	524	524	523	523	506	507	507	507	507	507	507	501	501	0	0	0	0	0	0	0	0	0	0	0	0	0	0	0	0	0	0	0	501	501	501	501	501	501	501	501	521	522	522	523	523	522	522	522	522	522	522	521	521	521	521	519	519	520	521	522	521	520	520	520	520	520	519	519	519	519	519	519	519	519	519	519	520	519	519	520	519	519	519	519	519	519	519	518	518	518	518	518	518	518	518	518	517	517	518	518	518	518	518	517	517	518	516	516	516	516	516	516	516	516	516	516	516	516	516	517	518	518	517	516	514	513	513	514	514	514	514	514	514	514	514	514	514	514	514	514	514	513	513	514	513	513	514	514	514	515	514	514	514	514	514	514	513	513	513	513	513	513	513	513	513	513	513	513	513	513	513	513	513	513	513	513	513	513	513	513	513	513	513	513	513	513	513	513	513	513	512	512	512	512	512	512	512	513	513	513	513	513	513	513	513	513	513	513	513	514	514	514	515	516	516	516	516	516	516	515	514	514	515	514	514	515	515	515	0	0	0	0	0	0	0	0	0	0	0	0	0	0	0	0	0	0	0	0	0
0	0	0	0	0	0	0	0	0	0	0	0	0	0	0	0	0	0	0	0	0	0	0	0	0	0	0	0	0	0	0	0	825	825	825	827	827	829	829	829	829	829	878	878	878	878	875	875	875	878	878	878	878	880	880	882	882	884	884	884	887	887	887	887	887	887	887	889	889	889	833	833	833	835	837	837	839	841	843	843	845	845	848	850	850	850	852	852	852	852	854	856	856	856	858	858	858	858	858	858	858	860	860	860	860	860	860	860	860	862	865	865	865	867	867	867	867	867	867	867	867	867	867	867	867	869	869	869	869	869	869	869	871	871	871	869	869	871	871	873	871	871	871	873	873	873	873	873	873	875	873	873	873	873	875	875	875	875	875	878	878	878	880	880	882	882	882	882	882	910	910	910	910	910	913	913	915	915	917	917	920	920	920	920	920	920	920	920	920	920	920	922	922	922	925	925	927	930	930	930	930	930	930	930	930	930	930	932	932	932	935	935	937	942	945	950	955	955	963	966	972	974	977	983	985	988	991	994	997	1219	1219	1223	1227	1227	1232	1232	1232	1236	1236	1236	1236	0	1039	1036	1036	1039	1039	1042	1042	1045	1236	1236	1240	1240	1240	1245	1245	1245	1249	1249	1254	1254	1254	1259	1259	1263	1263	1263	1268	1268	1268	1268	1268	1268	1268	1272	1272	1272	1272	1277	1277	1282	1282	1282	1282	1282	1287	1287	1287	1287	1287	1287	1291	1291	1291	1291	1296	1296	1296	1301	1301	1301	1306	1306	1306	1306	1311	1306	1306	1306	0	0	0	0	0	0	0	0	0	0	0	0	0	0	532	530	530	531	531	530	530	530	529	529	528	528	528	528	528	527	527	527	527	527	527	527	527	528	528	528	527	527	527	527	527	527	527	527	527	527	527	527	527	527	527	526	526	526	526	526	526	526	526	526	526	526	526	526	525	525	525	524	524	523	523	523	523	523	523	523	523	523	523	523	523	506	506	506	506	506	506	507	501	501	0	0	0	0	0	0	0	0	0	0	0	0	0	0	0	0	0	497	497	497	520	520	520	520	520	521	521	521	521	522	522	522	521	521	522	521	521	520	520	520	520	520	519	519	520	520	521	520	519	519	519	519	519	519	519	519	519	519	519	519	519	519	519	519	519	519	519	519	519	518	518	518	518	517	517	517	517	517	517	517	517	517	516	516	516	516	516	516	516	517	516	516	515	515	515	515	515	515	515	516	515	515	515	516	516	516	516	516	516	516	514	514	513	513	514	513	513	513	513	513	513	513	513	513	513	513	513	513	513	513	513	513	513	513	513	514	513	513	513	513	513	513	513	513	513	512	512	512	513	513	513	513	512	512	513	513	513	512	512	513	512	512	512	512	512	512	512	513	513	512	512	513	513	513	511	511	511	511	510	510	511	511	512	512	512	512	512	512	512	512	513	513	513	513	513	513	514	513	513	514	514	515	515	514	513	513	512	512	512	513	513	513	514	514	514	0	0	0	0	0	0	0	0	0	0	0	0	0	0	0	0	0	0	0	0	0
0	0	0	0	0	0	0	0	0	0	0	0	0	0	0	0	0	0	0	0	0	0	0	0	0	0	0	0	0	0	0	0	825	825	825	827	827	829	829	829	829	829	878	880	880	878	878	875	875	878	878	878	878	880	880	882	884	884	884	884	887	887	887	887	887	887	889	889	889	889	891	891	891	837	837	837	841	841	843	845	845	848	848	850	850	852	852	852	852	852	854	856	858	858	858	858	858	858	858	858	860	860	860	860	860	860	860	862	862	865	865	867	867	867	867	867	867	867	867	867	867	867	867	867	867	869	869	871	871	871	871	871	873	871	871	871	871	873	873	873	871	873	873	873	873	873	873	875	875	875	875	875	875	875	875	875	875	875	875	878	878	878	880	880	880	880	878	878	880	910	910	913	913	913	913	913	915	915	917	917	920	920	920	920	920	920	920	920	920	920	922	922	922	925	925	927	930	930	930	930	932	932	932	930	930	930	932	932	935	935	937	940	891	891	891	966	966	966	966	974	977	977	980	983	985	985	991	1223	1227	1223	1223	1227	1227	1227	1232	1232	1236	1236	1236	1240	1240	0	1036	1036	1036	1039	1039	1042	1042	1042	1045	1240	1240	1245	1245	1245	1249	1249	1249	1249	1254	1254	1259	1259	1259	1263	1263	1268	1268	1268	1268	1272	1272	1272	1272	1272	1272	1277	1277	1277	1282	1282	1287	1287	1287	1287	1287	1291	1287	1287	1291	1291	1291	1291	1296	1296	1296	1296	1301	1301	1306	1306	1306	1306	1306	1306	1306	1306	1306	1306	0	0	0	0	0	0	0	0	0	0	0	0	0	0	531	530	530	530	530	529	529	529	528	527	527	527	527	527	527	527	527	527	527	527	527	527	527	527	527	527	527	527	527	527	527	526	526	527	527	526	526	526	526	526	525	525	525	525	524	524	525	525	525	525	525	525	525	525	525	524	524	524	523	523	523	523	523	523	523	522	522	523	522	522	522	506	506	506	506	506	503	501	501	501	0	0	0	0	0	0	498	498	498	0	0	0	495	495	494	494	495	496	497	497	520	520	520	520	520	520	520	520	520	520	519	519	519	519	520	520	520	519	519	519	519	519	519	519	519	520	520	519	519	519	519	519	519	519	519	518	518	518	518	519	518	518	518	518	518	518	518	516	516	516	516	516	516	516	516	516	516	516	516	516	516	516	516	515	515	516	516	515	515	515	514	514	514	514	514	514	515	515	515	515	515	513	513	514	513	513	515	514	514	513	513	513	513	513	513	513	513	513	513	513	513	513	512	512	512	513	513	512	512	512	512	512	512	512	513	513	512	512	512	512	509	509	509	510	511	511	510	511	511	512	511	511	511	511	512	511	510	510	510	511	512	512	512	512	512	512	512	513	512	512	512	512	511	511	510	510	510	510	510	510	510	510	510	511	511	511	511	512	512	512	512	513	513	512	512	512	512	513	513	513	513	513	513	513	512	512	511	511	511	512	513	513	513	514	514	0	0	0	0	0	0	0	0	0	0	0	0	0	0	0	0	0	0	0	0	0
0	0	0	0	0	0	0	0	0	0	0	0	0	0	0	0	0	0	0	0	0	0	0	0	0	0	0	0	0	0	0	0	825	825	825	827	829	829	829	831	831	880	880	880	880	878	878	878	878	878	878	880	880	880	882	884	884	884	884	884	884	887	887	887	887	887	889	889	889	889	891	891	894	894	837	837	839	841	843	845	845	848	850	850	852	852	852	854	854	854	856	856	858	858	858	858	858	858	860	860	860	860	860	860	860	862	862	865	865	865	867	867	867	867	867	867	867	867	867	867	867	867	867	869	869	871	871	871	871	871	873	873	873	873	873	873	873	873	873	875	873	873	873	873	873	875	875	875	875	875	875	875	875	875	875	875	875	875	878	878	878	878	880	880	880	880	878	878	880	910	913	913	913	913	913	915	917	917	917	917	920	920	920	920	920	920	920	920	922	922	922	922	925	925	925	927	930	930	930	930	932	932	932	935	935	935	935	937	937	940	940	940	891	891	891	966	966	969	972	980	980	980	983	985	985	985	991	1223	1227	1223	1223	1227	1227	1227	1232	1232	1236	1236	1240	1240	1240	0	1036	1036	1036	1039	1039	1042	1042	1042	1045	1240	1245	1245	1249	1249	1249	1249	1249	1254	1259	1259	1259	1263	1263	1268	1268	1268	1268	1268	1268	1272	1272	1272	1272	1272	1277	1282	1282	1282	1282	1287	1287	1287	1287	1287	1287	1291	1291	1291	1291	1291	1291	1291	1296	1296	1296	1301	1301	1301	1306	1306	1306	1306	1306	1306	1306	1306	1306	1306	0	0	0	0	0	0	0	0	0	0	0	0	0	0	529	529	529	529	529	529	528	528	527	527	527	527	527	527	526	526	526	526	526	526	526	526	526	526	527	526	526	526	526	526	526	525	525	526	526	525	525	525	525	525	524	524	524	524	523	523	524	523	523	523	523	523	523	524	524	523	523	523	523	522	522	523	523	522	521	521	521	521	521	520	520	520	504	504	504	503	503	501	501	502	502	0	0	0	497	497	498	498	498	0	494	494	495	494	494	494	495	496	496	497	497	0	0	519	519	519	519	519	519	519	519	519	519	519	519	519	519	519	519	519	519	519	518	518	518	518	518	517	517	518	518	518	518	518	518	517	517	517	517	518	517	517	517	517	517	517	516	516	516	516	516	516	516	516	516	516	516	516	516	516	516	516	515	515	514	515	514	513	513	513	513	513	513	513	513	514	514	514	514	514	513	513	513	513	513	513	513	513	513	513	512	512	512	512	513	513	512	512	512	512	512	512	511	511	511	511	511	511	511	511	511	511	511	512	512	511	509	509	511	510	509	509	509	510	510	510	510	510	511	511	510	510	510	510	510	509	509	509	509	509	510	510	511	511	512	512	512	512	511	510	510	510	510	510	509	509	509	509	509	509	509	509	510	510	510	510	510	511	511	511	511	512	511	511	511	511	511	511	510	512	513	512	512	512	511	511	510	510	511	511	511	511	513	513	514	0	0	0	0	0	0	0	0	0	0	0	0	0	0	0	0	0	0	0	0	0
0	0	0	0	0	0	0	0	0	0	0	0	0	0	0	0	0	0	0	0	0	0	0	0	0	0	0	0	1074	1074	1074	0	825	825	829	829	829	831	831	833	880	880	880	880	880	878	878	878	878	878	880	880	880	880	882	884	884	884	884	884	887	887	887	887	887	887	889	889	889	889	891	894	894	894	837	839	839	841	843	845	845	848	850	852	852	852	854	854	854	854	858	858	858	858	858	858	860	860	860	860	862	862	862	862	862	865	865	865	867	867	867	867	867	869	869	869	869	869	869	869	869	869	869	869	871	871	873	873	873	873	873	873	875	875	875	875	875	875	875	875	873	875	875	875	875	875	875	875	875	875	875	875	875	875	875	875	878	878	878	880	880	880	882	880	880	880	875	875	913	913	913	913	913	913	913	915	917	917	920	920	920	920	920	920	920	920	920	922	922	922	922	925	925	925	927	930	930	932	932	932	935	935	937	937	937	937	937	937	940	940	940	896	894	894	896	969	969	972	977	980	980	983	983	985	985	988	994	1227	1227	1227	1227	1227	1232	1232	1232	1236	1236	1240	1240	1245	1249	1249	1249	1249	1036	1039	1039	1042	1042	1042	1045	1045	1245	1249	1249	1249	1254	1254	1254	1254	1259	1259	1263	1263	1268	1268	1268	1268	1268	1272	1272	1272	1272	1272	1272	1277	1282	1282	1282	1287	1287	1287	1287	1287	1287	1287	1287	1291	1291	1291	1291	1291	1291	1296	1296	1296	1296	1301	1301	1306	1306	1306	1306	1306	1306	1311	1311	1306	1306	1306	0	0	0	0	0	0	0	0	0	0	0	0	0	0	529	529	529	529	528	528	527	527	527	527	527	526	526	526	526	526	526	526	526	526	526	525	525	525	525	524	524	525	525	525	525	525	525	525	525	525	525	525	524	524	523	523	523	523	523	523	523	523	523	523	523	523	523	523	523	523	523	523	522	522	522	522	522	522	521	521	521	521	521	520	520	520	504	503	502	502	502	501	501	501	501	0	0	0	497	497	498	496	496	495	494	494	495	494	494	495	495	495	496	496	496	0	0	517	517	517	516	516	517	518	518	518	519	519	519	519	518	518	518	518	518	517	517	517	516	516	516	516	516	517	518	517	517	518	517	517	516	516	516	516	516	516	516	516	516	516	516	515	515	515	515	515	515	515	515	515	515	515	515	514	514	514	514	514	513	513	514	513	513	513	513	513	513	513	513	513	513	513	513	513	513	513	513	513	513	513	513	513	513	512	512	512	510	510	510	510	511	511	510	510	511	511	510	510	510	510	510	510	510	510	510	510	510	510	510	510	509	509	510	509	508	508	508	509	510	510	510	510	510	510	510	509	509	509	509	508	508	508	509	509	509	510	510	511	511	511	511	510	510	509	509	509	509	509	509	509	509	509	509	509	509	509	509	510	510	510	510	510	511	511	511	511	510	510	510	511	510	510	510	510	512	511	510	510	510	510	510	510	510	510	510	510	511	511	0	0	0	0	0	0	0	0	0	0	0	0	0	0	0	0	0	0	0	0	0	0
0	0	0	0	0	0	0	0	0	0	0	0	0	0	0	0	0	0	0	0	0	0	0	0	0	0	0	0	1074	1074	1074	0	0	0	829	829	831	831	833	833	835	835	835	880	880	878	878	878	878	880	880	880	880	882	882	884	884	884	884	884	887	887	887	887	887	889	891	891	891	891	891	894	896	896	837	839	841	841	843	845	845	848	850	852	852	852	854	854	854	856	858	858	858	858	860	860	860	860	860	862	862	865	865	865	865	867	867	867	867	867	867	867	869	869	869	869	869	871	871	871	871	871	871	873	873	873	873	873	875	875	875	875	875	875	875	875	875	875	875	875	875	875	875	875	875	875	875	875	875	875	875	875	875	875	875	875	878	878	878	882	882	882	882	880	880	880	875	875	913	913	913	913	913	915	915	915	917	920	920	920	920	920	920	920	920	922	922	922	922	922	922	927	927	930	930	930	932	932	935	935	935	937	937	937	937	937	937	940	940	940	942	896	896	896	896	972	972	977	980	980	980	980	983	985	985	988	1227	1227	1227	1227	1227	1232	1232	1232	1236	1236	1236	1240	1245	1249	1249	1254	1254	1249	1249	1039	1042	1042	1042	1042	1042	1045	1048	1249	1249	1254	1254	1254	1254	1259	1263	1263	1263	1268	1268	1268	1268	1268	1272	1272	1272	1272	1277	1277	1277	1282	1282	1287	1287	1287	1287	1291	1291	1291	1291	1291	1291	1291	1291	1291	1291	1291	1296	1296	1296	1296	1296	1301	1306	1306	1306	1306	1306	1311	1311	1311	1311	1306	1306	1306	0	0	0	0	0	0	0	0	0	0	0	0	0	0	529	529	529	528	527	527	527	527	526	526	526	526	526	526	526	525	525	525	525	525	525	524	524	524	524	523	523	524	524	525	525	525	525	525	525	524	524	524	523	523	523	523	523	523	523	523	522	522	522	522	522	522	522	523	522	522	522	522	521	520	520	521	521	520	520	520	520	520	520	520	520	520	502	501	501	501	501	501	501	500	498	497	497	497	496	496	496	496	496	495	494	494	495	494	494	494	494	494	495	496	496	0	517	516	516	516	516	516	516	516	516	516	518	518	517	517	517	518	517	516	516	516	516	516	516	516	516	516	516	516	516	516	516	517	516	516	516	516	516	516	516	516	516	516	515	515	515	514	514	514	514	514	514	514	514	514	514	514	514	514	514	514	513	513	513	513	513	513	511	511	511	512	512	512	513	513	513	513	513	513	513	513	513	513	512	512	512	512	512	511	510	510	510	510	510	510	510	510	510	510	510	510	509	508	508	509	509	509	509	509	509	509	509	510	510	509	509	509	509	509	508	508	508	509	509	509	509	509	510	510	509	508	508	509	509	508	508	508	509	509	509	509	510	510	511	511	511	510	509	508	508	508	508	509	509	509	509	509	509	509	508	508	509	509	509	510	510	510	510	510	510	510	510	510	510	510	510	510	510	510	510	510	510	510	510	510	510	510	510	510	510	509	509	510	510	0	0	0	0	0	0	0	0	0	0	0	0	0	0	0	0	0	0	0	0	0
0	0	0	0	0	0	0	0	0	0	0	0	0	0	0	0	0	0	0	0	0	0	0	0	0	0	0	0	1078	1078	1078	1078	0	0	829	831	831	833	833	835	835	835	835	880	880	878	878	880	880	880	880	882	882	884	884	884	884	884	884	884	887	887	887	887	887	889	891	891	891	891	894	894	894	896	839	841	841	841	843	845	845	848	850	852	852	852	854	856	856	856	858	858	860	860	860	860	862	862	862	862	865	865	865	865	865	867	867	867	867	867	867	869	869	869	869	871	871	871	873	873	873	873	873	873	873	873	873	873	875	875	875	875	875	875	875	875	875	875	875	875	875	875	875	875	875	875	875	875	875	875	875	875	878	878	878	878	878	878	880	882	882	882	882	882	880	880	878	878	913	913	913	915	915	915	917	917	920	920	920	920	922	922	922	922	922	922	922	922	925	925	927	930	930	930	932	932	932	935	937	937	937	937	937	937	937	940	940	940	891	891	896	896	896	896	974	972	972	974	977	980	980	980	980	983	985	994	997	1227	1227	1227	1227	1232	1232	1232	1236	1236	1236	1240	1249	1249	1249	1254	1254	1254	1254	0	1042	1042	1042	1042	1042	1045	1048	1254	1254	1254	1254	1254	1259	1259	1263	1263	1268	1268	1268	1272	1272	1272	1272	1272	1272	1277	1282	1282	1282	1287	1287	1287	1287	1287	1287	1291	1291	1291	1291	1291	1291	1296	1296	1296	1296	1296	1296	1296	1301	1296	1296	1301	1306	1306	1306	1306	1306	1311	1311	1311	1311	1306	1306	1306	0	0	0	0	0	0	0	0	0	0	0	0	0	0	0	529	529	527	527	527	526	525	525	525	525	524	524	524	525	525	524	524	524	524	524	523	523	523	523	523	523	523	524	524	524	524	523	523	523	523	523	523	523	523	522	522	522	522	522	521	521	521	521	521	521	520	520	522	520	520	521	520	520	520	520	521	520	519	519	519	519	519	519	519	519	519	519	501	501	501	501	501	501	499	498	497	497	496	496	496	496	496	496	496	495	495	495	494	494	494	494	494	495	496	496	0	517	516	516	516	516	516	516	516	516	516	516	516	516	516	516	517	516	516	516	516	516	516	515	515	515	515	515	516	516	516	516	516	516	516	516	516	516	515	515	515	515	515	514	514	513	513	513	513	513	513	513	513	513	513	513	513	513	513	513	513	513	513	513	513	512	512	510	510	510	510	511	512	512	512	512	513	513	512	512	512	512	512	512	511	511	511	511	511	510	510	510	510	510	510	510	509	509	509	509	509	508	508	508	508	508	508	507	507	507	509	509	510	509	509	509	509	508	508	508	508	508	508	509	508	508	508	508	508	507	507	507	508	508	508	508	508	508	508	508	509	509	509	509	509	509	508	508	508	508	508	508	508	508	508	508	508	508	507	507	507	508	507	508	509	509	509	510	509	509	510	509	509	510	510	510	510	509	509	509	509	509	509	509	509	509	509	509	509	509	509	509	510	510	0	0	0	0	0	0	0	0	0	0	0	0	0	0	0	0	0	0	0	0	0
0	0	0	0	0	0	0	0	0	0	0	0	0	0	0	0	0	0	0	0	0	0	0	0	0	0	0	0	1078	1078	1081	1081	0	0	0	833	833	833	835	835	835	835	835	837	880	878	878	880	880	880	882	882	882	882	882	884	884	884	884	884	887	887	887	887	887	889	891	891	891	894	894	894	896	896	896	841	841	843	843	845	845	848	850	852	852	852	854	856	856	856	858	858	860	860	860	862	862	862	862	862	865	865	865	865	867	867	867	869	869	869	869	869	869	871	871	871	871	873	873	873	873	873	873	875	873	873	875	875	875	875	875	878	878	878	878	878	878	878	878	875	875	875	875	875	875	878	878	878	878	878	875	875	878	878	878	880	880	880	882	884	884	884	882	882	880	878	878	878	915	913	913	915	915	917	917	920	920	920	920	922	922	922	922	922	922	925	925	925	927	927	927	930	930	932	932	932	935	935	937	937	937	937	940	940	940	940	891	891	891	891	896	896	898	898	898	972	972	974	974	977	980	977	977	983	985	994	997	1227	1232	1227	1232	1232	1232	1232	1236	1236	1240	1245	1249	1249	1254	1254	1254	1259	1259	0	1042	1042	1042	1042	1042	1045	1048	1052	1254	1254	1254	1259	1259	1263	1263	1263	1268	1268	1272	1272	1272	1272	1272	1277	1277	1282	1282	1282	1282	1287	1287	1287	1291	1291	1291	1291	1291	1291	1296	1296	1296	1301	1301	1301	1296	1296	1301	1301	1301	1296	1296	1301	1306	1306	1306	1306	1306	1306	1311	1311	1311	1311	1306	1316	1316	1321	0	0	0	0	0	0	0	0	0	0	0	0	0	529	529	526	525	525	524	524	524	523	523	523	523	523	523	523	523	523	523	523	523	522	522	522	522	522	522	522	523	523	523	523	523	523	523	523	522	522	522	522	522	522	521	521	521	520	520	520	519	519	519	519	519	519	519	519	519	519	519	519	519	519	519	519	518	518	518	518	518	519	519	519	519	500	500	500	500	500	500	499	498	497	496	496	496	496	496	496	496	496	496	496	496	495	495	494	494	494	495	495	495	516	516	516	516	516	515	515	516	516	516	516	516	516	516	516	516	516	516	516	516	515	515	515	515	515	514	514	514	515	515	515	515	514	514	514	514	514	514	514	514	514	514	513	513	513	513	513	513	513	513	513	513	513	513	513	513	513	513	513	512	512	512	512	511	511	510	510	510	510	510	510	510	511	512	511	511	511	511	510	510	510	510	511	511	511	511	511	510	510	510	510	509	509	509	510	509	509	508	508	509	509	508	507	507	507	508	507	507	507	507	507	507	507	507	507	508	508	508	508	507	507	507	508	508	507	507	508	508	507	506	506	507	508	507	507	507	507	507	508	507	507	507	507	507	507	506	506	506	507	507	507	507	507	507	507	507	507	507	507	507	507	507	507	507	507	507	508	508	507	507	509	509	509	509	509	509	509	508	508	509	509	508	508	508	508	509	509	509	509	509	509	509	509	509	0	0	0	0	0	0	0	0	0	0	0	0	0	0	0	0	0	0	0	0	0
0	0	0	0	0	0	0	0	0	0	0	0	0	0	0	0	0	0	0	0	0	0	0	0	0	0	0	0	1078	1078	1081	1081	0	0	0	833	833	835	835	835	837	835	835	837	837	880	880	882	882	882	882	882	882	882	882	884	884	884	884	884	887	887	887	887	889	889	891	894	894	894	894	894	896	896	896	896	843	843	843	845	845	848	850	852	852	852	854	856	856	856	858	858	860	860	862	865	865	865	865	865	867	867	865	865	867	869	869	869	869	869	869	871	871	871	871	873	873	873	873	873	875	875	875	875	875	875	875	875	875	875	878	878	878	878	878	878	878	878	878	875	875	878	878	878	878	878	878	878	878	878	880	880	880	880	880	882	882	882	882	884	884	884	882	882	880	878	878	878	915	915	915	915	917	917	920	920	920	922	922	922	922	922	925	925	925	925	925	927	927	927	930	930	932	932	932	935	935	937	940	940	940	940	940	940	940	891	891	891	891	894	896	896	898	898	898	901	969	972	974	974	977	963	963	963	994	994	997	997	1232	1232	1232	1232	1232	1236	1236	1240	1240	1245	1249	1249	1254	1259	1259	1259	1263	1263	1042	1042	1042	1042	1045	1045	1048	1052	1052	1052	1259	1259	1259	1263	1268	1268	1268	1268	1272	1272	1272	1277	1277	1282	1282	1282	1287	1287	1287	1287	1287	1291	1291	1291	1291	1291	1291	1296	1296	1296	1296	1301	1301	1301	1301	1301	1301	1301	1301	1301	1301	1301	1306	1306	1306	1306	1311	1311	1311	1311	1316	1316	1316	1321	1326	1331	1331	0	0	0	0	0	0	0	0	0	0	0	0	0	0	526	524	524	523	523	523	523	523	523	523	523	523	523	523	523	523	522	522	522	522	521	521	521	521	522	522	522	522	521	521	522	521	521	522	522	522	522	521	521	520	520	519	519	519	519	519	519	519	519	519	519	518	518	518	518	519	519	518	518	518	518	518	517	517	517	518	518	519	519	519	499	499	500	500	500	498	498	498	496	496	495	495	495	495	495	495	495	495	495	495	495	495	495	495	495	495	495	495	516	516	515	515	515	514	514	515	515	515	515	515	516	516	515	515	515	514	514	514	514	513	513	514	514	514	513	513	514	514	514	514	513	513	513	513	513	513	513	513	513	513	513	513	513	513	513	513	513	513	513	513	512	512	512	512	512	512	512	511	511	511	511	510	510	510	510	510	510	510	510	510	510	511	510	510	510	510	510	510	510	510	510	510	510	510	510	509	509	509	509	509	509	509	509	508	508	508	508	508	507	507	507	507	507	507	506	506	507	507	507	507	507	507	507	507	507	507	507	507	507	507	507	508	507	507	507	507	507	506	506	507	507	507	507	507	507	507	507	507	506	506	505	505	505	505	505	505	506	506	507	507	507	507	507	507	507	506	506	506	506	507	506	506	507	507	506	506	506	507	508	508	508	508	508	509	508	507	507	507	507	507	507	507	507	507	507	508	508	509	509	509	509	509	509	0	0	0	0	0	0	0	0	0	0	0	0	0	0	0	0	0	0	0	0
0	0	0	0	0	0	0	0	0	0	0	0	0	0	0	0	0	0	0	0	0	0	0	0	0	0	0	0	1081	1081	1081	1081	1081	0	0	833	835	835	835	837	837	837	837	837	837	837	835	835	882	882	882	884	884	884	884	884	884	884	884	887	887	887	887	887	889	889	891	894	894	894	894	894	896	896	896	896	896	843	843	845	845	850	850	852	852	854	856	856	858	858	858	860	860	862	862	865	865	865	865	865	867	867	867	867	869	869	871	871	871	871	871	873	873	873	873	873	873	873	875	875	875	875	875	875	875	875	875	875	878	878	878	878	878	878	878	878	878	878	878	878	878	878	878	878	878	878	878	878	880	880	882	882	882	882	882	882	884	884	884	884	884	884	882	882	880	878	878	878	878	915	917	917	920	920	920	922	922	922	922	925	925	925	925	927	927	927	927	927	930	930	930	932	932	935	935	935	937	940	940	940	940	940	940	894	894	891	891	891	891	894	896	901	901	901	901	901	903	903	969	966	966	961	961	961	997	997	997	997	997	1232	1232	1232	1232	1236	1236	1240	1245	1249	1249	1254	1254	1259	1259	1259	1263	1263	0	1042	1042	1045	1045	1048	1052	1055	1052	1052	1055	1061	1263	1263	1268	1268	1268	1268	1272	1277	1277	1277	1282	1282	1282	1287	1287	1287	1287	1287	1287	1287	1291	1291	1291	1291	1296	1296	1296	1301	1301	1301	1301	1301	1301	1301	1301	1301	1301	1301	1301	1306	1306	1306	1306	1311	1311	1311	1311	1316	1316	1316	1316	1321	1326	1331	1331	0	0	0	0	0	0	0	0	0	0	0	0	0	0	0	523	523	523	523	523	523	523	522	522	522	522	522	521	521	522	521	521	521	521	521	521	521	521	521	521	520	519	519	519	519	519	519	519	520	521	521	520	519	519	519	519	519	519	519	519	519	519	519	518	517	517	517	517	517	517	518	517	517	518	517	517	517	517	517	518	518	518	518	518	499	499	500	500	500	498	498	496	495	495	494	494	494	494	494	494	494	494	495	495	495	495	496	496	496	513	513	495	514	514	513	513	513	513	513	513	513	514	513	513	513	513	514	513	513	513	513	513	513	513	513	513	513	513	513	513	513	513	513	513	513	513	513	513	513	513	513	513	513	513	513	513	512	512	512	512	513	512	512	512	512	511	510	510	511	510	510	510	510	510	510	510	510	510	509	509	509	510	510	510	510	510	510	510	510	510	510	510	510	509	509	510	509	509	508	508	508	507	507	507	508	508	508	507	507	507	507	507	506	506	506	506	506	506	506	506	506	506	506	506	506	507	506	506	506	506	506	506	506	506	506	506	506	506	506	506	505	505	505	506	507	507	507	507	507	507	507	506	506	505	505	505	505	505	505	505	505	506	507	507	507	507	507	507	506	505	505	506	506	506	506	506	506	506	505	505	506	506	507	507	507	508	508	508	508	506	506	507	507	506	506	506	506	506	507	507	507	508	508	508	509	509	509	0	0	0	0	0	0	0	0	0	0	0	0	0	0	0	0	0	0	0	0
0	0	0	0	0	0	0	0	0	0	0	0	0	0	0	0	0	0	0	0	0	0	0	0	0	0	0	0	1081	1081	1081	1081	1081	0	0	0	835	835	837	837	837	837	837	837	837	839	835	835	882	884	884	884	884	884	884	884	884	884	884	887	887	887	889	889	889	891	894	894	894	894	894	894	896	896	896	896	896	896	848	848	848	850	852	852	852	854	856	856	858	858	860	860	860	862	865	865	865	865	867	867	867	869	869	869	869	871	873	873	873	873	873	873	873	873	873	875	873	873	875	875	875	875	875	875	878	878	878	878	878	878	878	878	878	878	878	880	880	880	880	878	878	878	878	878	878	880	880	880	882	882	882	882	882	882	882	882	884	884	884	884	884	884	882	882	880	880	878	878	920	920	920	920	920	920	922	922	922	922	922	925	925	927	927	927	927	927	930	930	930	930	932	932	932	935	937	937	940	942	942	942	942	942	894	894	894	894	891	891	894	894	898	901	901	901	901	901	903	903	903	966	958	955	955	955	997	997	997	997	997	1232	1232	1232	1236	1236	1240	1240	1245	1249	1254	1254	1254	1259	1259	1263	1263	1263	1263	1042	1048	1048	1048	1052	1052	1055	1055	1055	1055	1061	1263	1268	1268	1268	1272	1272	1277	1277	1282	1282	1282	1287	1287	1287	1287	1287	1287	1291	1291	1291	1291	1291	1291	1296	1296	1296	1301	1301	1301	1301	1306	1306	1306	1306	1306	1306	1306	1301	1301	1306	1306	1306	1311	1311	1311	1311	1311	1316	1321	1321	1321	1326	1326	1331	1331	0	0	0	0	0	0	0	0	0	0	0	0	0	0	0	523	523	523	523	523	522	522	520	520	520	520	520	519	519	520	519	519	519	519	520	520	520	520	521	520	519	519	519	519	518	518	518	518	517	517	517	518	517	517	517	518	518	518	518	518	518	518	518	517	517	517	517	517	517	517	517	516	516	516	516	516	516	516	516	516	516	516	517	517	498	498	498	499	498	498	496	496	495	495	494	494	494	494	494	494	494	494	495	495	495	496	496	513	513	513	513	513	513	513	513	513	513	513	513	513	513	513	513	513	513	512	512	512	512	512	513	513	513	513	512	512	512	512	512	512	513	513	513	513	512	512	512	512	512	512	512	512	512	512	512	512	512	512	512	512	512	512	512	512	511	510	510	510	510	510	510	510	510	510	509	509	509	509	509	507	507	508	509	509	509	509	509	508	508	508	508	509	508	508	508	509	508	507	507	507	507	507	507	507	507	507	508	507	507	507	507	507	506	506	504	504	504	504	504	504	505	505	505	505	505	505	505	505	505	506	506	505	505	505	506	506	504	504	504	504	504	504	504	506	506	506	506	506	506	507	505	505	505	505	505	505	505	505	505	505	505	506	507	507	507	506	506	506	506	505	505	505	505	505	505	505	505	505	505	505	505	505	506	506	504	504	507	507	507	506	506	506	506	506	506	506	506	506	506	507	507	507	507	507	508	508	510	0	0	0	0	0	0	0	0	0	0	0	0	0	0	0	0	0	0	0	0
0	0	0	0	0	0	0	0	0	0	0	0	0	0	0	0	0	0	0	0	0	0	0	0	0	0	0	0	1081	1081	1081	1085	1085	0	0	0	837	837	837	837	837	837	837	839	839	839	837	837	884	884	884	884	884	884	884	884	884	884	887	887	887	889	889	889	891	891	894	894	894	894	894	896	896	896	896	896	896	896	896	848	848	850	852	852	852	854	856	856	858	860	860	860	860	862	865	865	867	867	867	867	869	869	869	869	871	873	873	873	875	875	875	875	875	875	875	875	873	873	875	875	875	875	875	875	878	878	878	878	878	878	880	880	880	880	880	880	880	880	880	880	880	880	880	880	880	882	880	880	882	882	882	882	884	884	884	884	884	884	884	884	884	882	882	882	882	880	878	878	920	920	920	920	920	922	922	922	922	922	922	925	925	927	927	930	930	930	930	930	930	930	932	932	935	937	937	937	940	942	945	942	942	898	894	894	894	894	894	894	894	894	898	898	901	901	901	901	901	903	903	961	955	953	953	953	997	997	1000	1000	1000	1232	1236	1236	1236	1236	1240	1249	1249	1254	1254	1254	1254	1259	1259	1263	1263	1268	1268	1268	1268	1048	1052	1052	1052	1052	1052	1052	1055	1055	1055	1268	1272	1272	1272	1282	1282	1282	1287	1287	1287	1287	1287	1287	1287	1291	1291	1291	1291	1291	1291	1291	1296	1296	1296	1301	1301	1306	1306	1306	1306	1306	1306	1306	1306	1306	1306	1306	1306	1306	1311	1311	1311	1311	1311	1316	1316	1321	1321	1326	1326	1331	1331	1336	1336	0	0	0	0	0	0	0	0	0	0	0	0	0	0	0	522	522	522	522	522	522	521	521	519	519	519	519	519	519	519	519	519	519	519	519	519	519	519	520	519	519	519	519	518	518	518	517	517	517	516	516	517	516	516	516	517	517	518	518	518	518	517	516	516	516	516	516	516	516	516	516	516	516	516	515	515	516	516	516	516	516	516	516	516	498	498	498	498	498	498	496	496	495	494	494	494	494	494	494	494	493	493	493	493	513	513	513	513	513	513	513	513	513	513	512	512	512	512	512	512	512	512	511	511	512	511	511	511	511	511	512	512	512	512	512	512	512	512	512	511	511	510	510	510	510	510	510	510	510	511	511	511	511	511	511	511	511	511	512	512	511	511	511	510	510	510	510	510	510	510	510	510	510	509	508	508	508	508	507	507	507	507	508	508	507	507	507	507	507	507	507	507	507	507	507	507	507	507	507	506	506	506	506	506	507	507	507	507	506	506	506	506	506	504	504	504	504	504	504	504	504	504	504	504	504	504	504	504	504	504	504	504	504	504	504	504	503	503	503	503	503	503	504	504	504	504	505	505	505	505	504	504	505	505	505	505	505	504	504	504	504	504	505	504	504	505	505	505	505	504	504	504	505	505	505	505	505	505	505	504	504	505	504	504	503	503	504	504	504	504	504	505	505	506	506	506	506	506	506	507	507	507	507	507	508	508	510	0	0	0	0	0	0	0	0	0	0	0	0	0	0	0	0	0	0	0	0
