0	0	0	0	0	0	0	0	0	0	0	0	0	0	0	0	0	0	0	0	0	0	0	0	0	0	0	0	0	0	0	0	0	865	862	865	865	865	867	867	867	867	869	869	871	871	873	873	875	875	875	875	878	878	880	882	882	884	884	887	887	889	889	891	894	894	896	896	903	908	910	913	915	917	920	920	920	922	922	925	925	1033	1033	1033	1033	1033	1033	1036	1039	1039	1042	1042	1042	1045	1045	1045	1045	1045	1045	1045	1048	1048	1052	1052	1055	1055	1055	1055	1055	1055	1058	1058	1058	1058	1058	1058	1061	1061	1064	1068	1068	1068	1068	1068	1068	1068	1071	1078	1078	1078	1078	1081	1081	1081	1081	1085	1085	1085	1085	1085	0	0	0	0	0	711	710	708	708	707	705	703	703	703	703	703	703	703	703	703	703	703	703	703	689	687	687	686	686	686	686	686	686	686	686	686	686	0	0	0	536	536	537	537	537	538	537	537	537	537	537	537	537	538	538	538	538	539	539	540	540	540	540	540	541	542	542	542	542	543	543	544	544	545	546	546	547	547	547	547	547	548	548	548	548	549	549	549	549	550	550	551	551	553	554	554	554	554	555	555	556	556	557	557	557	557	557	557	641	641	641	642	641	641	642	642	644	645	646	647	648	648	648	648	648	650	650	650	650	650	651	652	652	651	651	651	652	652	652	652	652	653	653	653	653	652	651	651	652	652	652	651	656	657	658	658	657	657	657	657	657	656	656	657	657	657	658	657	657	657	657	657	657	658	660	660	662	661	661	661	661	660	660	660	660	660	660	658	658	660	658	658	658	658	660	660	661	661	661	662	661	661	661	661	661	661	661	717	716	711	710	708	708	708	708	710	707	707	705	704	703	703	704	704	704	704	704	704	704	703	703	704	704	703	703	703	703	701	701	700	698	698	697	697	697	697	695	695	695	694	691	691	691	690	689	689	687	687	686	686	686	687	687	687	689	689	0	0	0	739	740	737	736	736	736	734	734	734	732	732	731	731	729	729	729	728	728	728	728	728	728	726	726	728	728	728	726	726	726	726	726	725	725	725	726	726	726	725	725	725	726	726	726	726	726	726	726	726	726	726	726	728	728	728	728	731	732	734	734	734	732	732	731	731	732	736	734	734	736	736	740	740	742	742	743	743	745	745	742	742	745	745	747	747	747	747	745	745	745	745	745	745	747	747	747	747	747	747	745	745	745	745	743	743	747	748	748	748	750	750	750	750	750	750	752	752	752	753	755	755	756	767	768	770	770	772	772	772	772	772	772	770	770	772	772	772	772	770	770	770	768	768	768	768	768	768	772	772	773	773	773	773	772	772	772	772	772	777	777	810	800	800	800	800	802	804	802	802	802	802	802	0	0	0	0	0	0	0	0	0	0	0	0	0	1833	1824	1814	1814	1814	1804	1804	1814	1804	1804	1804	1804	1814	1814	1814	1814	1814	1814	1814	1824	1824	1824	0	0	0	0	0	0	0	0	0	0	0	0	0	0	0	0	0	0	0	0	0	0	0	0
0	0	0	0	0	0	0	0	0	0	0	0	0	0	0	0	0	0	0	0	0	0	0	0	0	0	0	0	0	0	0	0	0	862	862	865	865	865	867	867	867	867	869	869	871	871	873	873	873	875	875	875	878	878	880	882	882	884	884	884	887	889	889	891	894	894	896	896	903	905	908	913	915	917	920	920	922	922	922	925	927	1033	1033	1033	1033	1036	1036	1039	1039	1042	1042	1042	1042	1045	1045	1045	1045	1045	1048	1048	1048	1052	1052	1052	1055	1055	1055	1055	1055	1055	1058	1058	1058	1058	1064	1061	1061	1061	1068	1068	1068	1068	1068	1068	1071	1071	1071	1078	1078	1078	1078	1081	1081	1081	1081	1085	1085	1085	1088	1088	0	0	0	0	0	0	710	708	708	707	704	704	701	701	701	701	701	701	701	701	701	701	701	697	697	687	687	686	686	684	684	684	684	684	684	686	686	686	0	0	0	0	537	538	538	538	538	538	538	538	538	538	538	538	538	539	539	539	539	540	540	540	540	541	541	542	542	542	543	543	543	544	545	545	546	546	547	547	547	547	547	548	548	548	548	549	549	549	549	549	549	550	553	553	554	554	554	555	555	556	639	639	639	640	640	641	641	641	641	641	641	642	641	641	642	644	644	644	645	646	647	647	647	647	647	648	648	650	648	648	648	648	648	650	650	650	651	651	651	651	651	652	652	652	651	650	650	650	650	650	650	650	651	653	657	656	651	651	652	653	655	655	655	656	656	657	657	656	656	657	657	656	656	657	657	658	658	657	657	657	657	657	657	657	657	657	657	656	656	657	657	657	657	657	657	657	658	658	658	660	660	658	658	660	660	660	660	0	0	0	708	707	707	707	707	705	705	705	704	703	703	703	703	703	703	703	703	701	701	701	701	701	700	700	700	700	698	698	698	698	697	695	694	694	695	694	694	694	693	693	691	690	690	689	689	687	686	686	684	683	683	683	683	680	680	680	680	0	0	0	740	736	736	736	734	734	732	732	732	732	732	729	729	729	729	725	725	725	725	725	725	725	725	725	725	725	723	723	722	722	723	723	723	723	723	725	725	725	723	723	725	725	725	723	723	723	723	723	723	723	723	725	725	725	726	728	729	729	732	732	731	731	731	729	731	731	731	731	732	734	737	739	740	740	737	737	736	736	739	739	742	739	739	740	740	739	739	739	743	743	743	745	745	745	745	747	745	745	740	740	740	740	740	740	743	745	745	747	748	748	748	748	748	750	750	752	752	753	753	755	756	767	768	768	770	770	770	770	770	770	770	768	768	768	770	770	770	768	768	770	767	767	767	767	767	768	770	772	772	772	772	772	772	770	770	770	768	768	768	768	795	795	798	800	800	802	802	802	800	800	800	0	0	0	0	0	0	0	0	0	0	0	0	0	0	0	1804	1804	1804	1804	1804	1804	1804	1804	1804	1804	1814	1814	1814	1804	1804	1814	1814	1814	1814	1814	0	0	0	0	0	0	0	0	0	0	0	0	0	0	0	0	0	0	0	0	0	0	0	0
0	0	0	0	0	0	0	0	0	0	0	0	0	0	0	0	0	0	0	0	0	0	0	0	0	0	0	0	0	0	0	0	0	862	862	865	865	865	865	867	867	867	869	869	871	871	873	873	873	875	875	875	878	878	880	880	882	884	884	884	887	887	889	891	891	894	894	894	903	905	908	910	915	917	920	922	922	922	922	925	927	927	1033	1033	1033	1036	1039	1039	1039	1042	1042	1045	1045	1045	1045	1048	1045	1045	1045	1048	1048	1048	1052	1055	1055	1055	1055	1055	1055	1055	1058	1058	1058	1061	1064	1064	1064	1068	1068	1068	1068	1068	1068	1071	1071	1071	1071	1078	1078	1078	1081	1081	1081	1081	1085	1085	1085	1085	1088	1088	0	0	0	0	0	0	711	710	708	707	705	703	700	700	700	698	698	698	700	700	700	698	697	695	690	687	686	684	682	682	682	683	683	683	683	684	684	684	684	0	0	0	0	538	539	539	539	539	539	539	539	539	538	538	539	539	539	540	540	540	540	540	541	541	541	542	542	542	543	543	543	544	545	546	546	547	547	547	547	547	547	547	548	548	548	548	548	548	548	548	548	550	550	634	634	635	635	636	638	639	639	639	639	640	640	640	640	641	640	640	640	641	640	640	640	640	641	641	642	644	646	646	646	646	647	647	648	648	647	646	647	646	646	645	645	645	645	644	644	645	645	645	646	646	646	646	646	646	646	646	647	647	647	648	648	648	648	648	648	648	648	648	650	650	651	651	651	651	652	653	653	652	652	652	651	651	651	651	652	652	652	652	653	653	653	653	653	653	655	653	653	653	653	653	655	655	655	655	655	655	656	656	656	657	657	657	657	657	0	705	705	704	704	703	703	700	700	700	700	700	700	700	700	700	700	700	700	700	698	697	697	695	695	695	695	695	695	695	694	694	694	693	691	691	690	690	689	689	687	687	686	686	686	686	684	684	683	683	682	682	682	682	680	679	676	676	676	678	0	0	0	736	736	736	734	734	732	732	732	732	731	729	729	729	729	725	725	725	725	723	723	723	722	722	720	720	720	720	722	720	720	722	722	722	722	723	723	723	723	723	723	723	722	720	720	720	720	720	720	720	720	722	722	722	725	726	728	728	728	728	728	728	728	728	728	729	729	729	731	731	737	737	739	739	731	731	736	736	736	736	737	736	736	740	740	736	736	736	737	737	739	739	742	742	743	743	737	736	736	737	737	737	737	739	739	740	742	743	747	747	747	747	748	748	748	750	752	753	753	755	756	765	767	767	768	768	768	768	768	768	768	768	767	767	767	767	767	767	767	768	765	765	765	765	765	767	768	770	770	772	772	772	770	768	768	770	768	768	768	768	791	791	798	800	800	800	800	800	798	798	797	797	797	0	0	0	0	0	0	0	0	0	0	0	0	0	1804	1804	1804	1804	1804	1804	1804	1804	1804	1804	1804	1804	1804	1804	1804	1804	1804	1804	1804	1804	0	0	0	0	0	0	0	0	0	0	0	0	0	0	0	0	0	0	0	0	0	0	0	0
0	0	0	0	0	0	0	0	0	0	0	0	0	0	0	0	0	0	0	0	0	0	0	0	0	0	0	0	0	0	0	0	0	862	862	865	865	865	865	867	867	867	867	869	869	871	871	873	873	875	875	875	875	878	880	880	882	882	884	884	887	889	889	891	891	894	894	896	903	905	908	908	913	917	917	922	922	922	922	925	927	1036	1033	1033	1036	1036	1039	1042	1042	1042	1045	1045	1045	1045	1045	1048	1045	1045	1045	1048	1048	1048	1052	1055	1055	1055	1055	1055	1055	1058	1058	1058	1061	1061	1064	1064	1068	1068	1068	1071	1071	1071	1071	1071	1071	1071	1074	1081	1081	1081	1081	1081	1081	1081	1085	1085	1085	1085	1085	1085	0	0	0	0	0	0	711	710	708	707	705	703	700	698	698	697	697	697	698	698	698	697	697	695	690	687	686	682	680	680	682	682	682	682	682	682	683	683	683	683	0	0	0	0	539	539	539	539	539	539	539	539	539	539	539	539	539	539	540	540	540	540	541	541	541	542	543	543	543	543	543	544	545	546	546	547	547	547	547	547	547	547	548	548	548	548	548	548	548	548	548	548	548	633	633	634	634	635	636	636	638	638	638	638	639	639	640	640	640	639	639	639	639	638	638	639	639	639	639	639	639	639	639	640	640	640	640	640	642	644	642	642	642	644	642	642	642	642	642	642	644	644	644	644	644	645	645	645	645	645	646	646	647	647	646	646	647	647	647	646	646	646	647	647	647	648	648	650	651	651	651	650	650	651	650	648	648	650	650	650	650	650	651	652	652	652	652	653	653	653	652	652	652	652	653	653	653	653	653	653	653	653	655	655	655	653	653	653	0	705	705	704	704	700	697	697	697	697	697	697	698	698	698	698	698	698	697	697	697	695	695	694	694	694	694	694	694	694	693	693	691	690	690	690	687	687	687	686	686	686	686	684	684	683	683	682	682	682	680	680	680	679	678	675	675	675	674	672	672	672	672	736	736	736	734	734	732	732	732	732	731	729	729	729	725	725	725	723	723	722	722	722	722	720	719	719	719	719	719	719	719	720	720	720	722	722	722	722	722	722	722	720	719	717	717	717	717	717	717	717	717	717	719	719	719	720	720	722	723	719	719	723	725	725	726	726	726	726	728	728	734	723	723	723	723	725	729	732	732	734	734	734	734	734	734	732	732	734	736	737	737	737	739	739	740	739	736	736	736	736	736	736	736	736	736	736	737	737	737	737	740	743	747	747	748	750	750	752	753	753	756	761	763	763	765	767	767	767	768	768	768	767	765	765	765	765	765	765	765	763	761	761	761	761	761	763	765	767	767	770	770	770	768	767	767	768	767	767	767	767	788	791	795	795	797	797	798	798	798	797	795	795	797	797	0	0	0	0	0	0	0	0	0	0	0	0	1804	1804	1804	1804	1777	1777	1777	1777	1804	1804	1804	1804	1795	1795	1795	1786	1786	1795	1795	1795	1795	0	0	0	0	0	0	0	0	0	0	0	0	0	0	0	0	0	0	0	0	0	0	0
0	0	0	0	0	0	0	0	0	0	0	0	0	0	0	0	0	0	0	0	0	0	0	0	0	0	0	0	0	0	0	0	0	862	862	865	865	865	865	867	867	867	867	867	869	869	871	871	873	873	875	875	878	880	880	880	882	884	884	887	887	889	891	891	891	894	894	896	901	903	905	908	913	915	917	920	922	922	925	925	927	1036	1036	1036	1036	1036	1039	1042	1042	1042	1045	1045	1045	1045	1045	1048	1045	1045	1045	1048	1048	1048	1052	1052	1055	1055	1055	1055	1055	1058	1058	1061	1061	1064	1064	1068	1068	1068	1068	1071	1071	1071	1071	1071	1071	1071	1074	1078	1078	1081	1081	1085	1085	1085	1085	1085	1085	1085	1085	1085	0	0	0	0	0	710	710	708	707	707	707	703	700	697	697	695	695	695	695	697	697	694	694	694	691	687	684	679	679	679	679	680	679	679	679	680	682	682	682	682	0	0	0	0	0	539	539	539	539	539	539	539	539	539	539	539	539	539	540	540	540	540	541	541	541	542	543	543	543	543	543	543	545	546	546	547	547	547	547	547	547	547	680	680	548	548	548	548	548	548	548	548	633	632	632	633	633	633	634	635	635	635	636	636	636	638	638	639	638	638	638	638	636	636	636	636	636	638	638	639	639	636	636	638	638	638	638	638	639	639	639	639	640	641	640	640	640	640	640	641	641	641	641	642	642	642	642	642	642	642	642	644	644	644	642	642	644	645	645	645	645	645	647	647	646	646	647	648	648	648	648	648	648	648	648	648	648	648	650	648	648	648	650	650	651	651	651	652	653	652	651	651	652	652	652	652	652	652	652	652	652	652	652	652	652	652	652	651	651	651	0	704	704	698	695	695	695	695	695	697	697	697	697	697	697	697	694	694	695	694	694	694	694	694	694	694	693	693	691	691	691	690	689	689	686	686	686	686	686	684	684	683	683	682	682	680	680	680	679	679	679	678	676	675	675	675	674	672	672	672	672	0	736	734	734	731	731	731	731	731	729	728	726	723	723	723	723	723	723	722	722	722	720	720	719	719	717	717	717	716	716	716	716	716	713	713	716	716	716	714	714	716	716	714	714	714	714	714	714	714	716	716	716	713	713	716	716	717	719	717	717	719	720	720	722	722	725	726	726	723	720	720	723	723	723	723	725	725	731	732	731	731	734	732	731	731	731	732	732	734	734	734	736	736	736	734	732	732	734	732	732	734	734	734	732	732	734	734	734	734	737	740	742	747	748	748	750	752	753	753	756	761	760	760	761	761	763	765	767	767	767	765	763	763	761	761	761	761	761	761	760	760	760	758	758	760	760	756	756	770	767	767	765	765	765	767	767	767	767	767	786	788	791	793	795	795	797	797	797	795	793	793	793	793	793	791	791	791	0	0	0	0	0	0	0	0	0	1804	1804	1804	1777	1768	1768	1777	1777	1768	1768	1777	1777	1777	1777	1777	1777	1786	1786	1795	1795	0	0	0	0	0	0	0	0	0	0	0	0	0	0	0	0	0	0	0	0	0	0	0
0	0	0	0	0	0	0	0	0	0	0	0	0	0	0	0	0	0	0	0	0	0	0	0	0	0	0	0	0	0	0	0	0	862	862	862	865	865	865	865	867	867	867	867	869	871	871	873	873	875	875	875	878	880	880	880	882	884	884	887	887	889	891	891	891	894	894	896	901	903	905	908	913	915	917	920	922	922	925	925	927	927	1036	1036	1036	1036	1039	1042	1042	1045	1045	1045	1045	1045	1048	1048	1045	1045	1048	1048	1048	1052	1052	1052	1055	1055	1055	1055	1055	1058	1058	1061	1061	1064	1064	1068	1068	1068	1068	1071	1071	1071	1071	1071	1071	1074	1078	1078	1078	1081	1081	1085	1085	1085	1085	1085	1085	1085	1085	0	0	0	0	0	0	710	710	708	707	707	707	707	700	697	695	693	693	693	693	693	693	693	693	691	690	687	684	678	678	679	679	679	679	679	679	679	680	680	682	682	682	0	0	0	0	539	539	540	540	540	540	539	539	539	539	539	539	539	540	540	540	540	541	675	675	675	675	675	544	543	543	678	678	679	679	679	680	679	679	680	680	680	680	680	680	680	680	680	680	680	632	632	631	631	631	632	632	632	632	634	634	634	634	634	634	635	635	633	633	634	634	635	635	635	635	635	636	636	636	635	635	635	635	636	636	636	636	636	636	638	638	638	639	639	639	639	639	639	639	639	640	640	640	640	640	641	641	641	641	641	641	641	641	641	641	641	641	642	642	642	644	644	646	645	645	645	646	647	646	646	646	647	647	647	646	646	647	647	648	647	647	648	648	648	648	648	648	648	650	648	648	648	650	650	650	650	650	650	651	651	652	651	651	652	652	651	651	648	648	647	647	647	698	697	697	694	694	694	694	695	695	695	695	695	695	694	693	693	691	691	693	693	693	693	693	693	691	691	690	690	689	687	687	687	686	686	684	684	684	684	683	682	682	680	680	679	679	678	678	678	676	676	675	674	674	674	674	672	671	671	671	0	0	734	731	731	731	729	729	729	729	728	725	720	720	722	722	723	723	722	722	722	720	719	719	717	717	717	717	714	714	714	713	713	711	711	713	711	711	711	711	711	711	713	713	713	713	713	713	711	711	711	711	711	711	711	711	711	713	714	716	716	716	716	717	717	717	717	716	716	716	716	717	717	717	722	723	723	725	725	726	728	728	726	726	728	728	729	731	729	729	732	734	734	731	731	731	731	732	731	731	732	732	732	731	731	731	732	732	734	736	737	740	747	747	748	750	750	753	753	755	756	756	756	756	756	760	761	761	763	763	761	761	761	760	760	760	760	760	760	758	758	758	758	756	756	753	753	753	753	753	756	756	763	763	765	765	765	765	767	786	788	789	791	793	793	791	791	793	791	791	791	789	789	788	788	791	789	789	789	789	0	0	0	0	0	0	0	0	0	0	1768	1768	1768	1777	1768	1768	1777	1777	1777	1777	1777	1777	1777	1786	1786	1786	0	0	0	0	0	0	0	0	0	0	0	0	0	0	0	0	0	0	0	0	0	0	0
0	0	0	0	0	0	0	0	0	0	0	0	0	0	0	0	0	0	0	0	0	0	0	0	0	0	0	0	0	0	0	0	0	862	862	865	865	865	865	867	867	867	867	867	869	871	871	873	873	875	875	878	878	880	880	880	880	882	884	884	887	889	891	891	894	894	894	896	896	903	905	908	913	915	917	920	922	922	925	925	927	927	1036	1036	1036	1039	1039	1042	1042	1045	1045	1045	1045	1045	1048	1048	1048	1048	1048	1052	1052	1055	1055	1055	1055	1055	1058	1058	1058	1058	1058	1061	1064	1064	1064	1068	1068	1068	1068	1071	1071	1071	1071	1071	1074	1074	1078	1078	1078	1081	1081	1085	1085	1085	1088	1085	1085	1085	1085	0	0	894	894	894	0	894	894	708	707	707	707	707	700	697	695	695	690	690	691	691	689	689	690	690	689	686	684	678	678	679	679	678	678	678	678	678	678	678	678	679	679	680	680	682	682	540	540	540	540	540	540	539	539	539	539	539	539	539	539	540	675	675	675	675	675	675	676	678	678	678	678	678	679	679	679	679	680	679	679	679	679	679	679	679	679	680	682	682	680	680	631	631	629	629	629	629	629	629	629	629	631	631	631	631	631	631	631	631	631	632	632	632	635	635	635	635	635	635	636	634	634	634	634	634	634	635	635	635	635	636	636	636	636	636	636	638	638	638	638	639	639	639	639	639	639	640	640	639	639	640	640	640	639	639	639	640	640	641	640	640	641	642	644	644	644	644	645	645	644	644	645	645	646	645	645	645	645	646	646	646	646	647	646	646	646	646	646	646	646	646	646	646	647	647	647	648	648	648	648	650	650	650	650	650	650	648	647	647	647	647	647	647	695	695	694	694	693	693	693	693	693	693	693	693	690	689	689	689	689	689	690	690	691	690	690	690	689	689	687	687	686	686	686	686	684	684	683	683	683	683	682	680	679	679	679	678	676	676	676	676	675	675	674	674	674	672	671	671	669	666	665	663	663	663	663	663	731	729	729	729	729	729	720	719	719	720	720	722	722	722	722	720	720	719	719	717	717	717	717	714	714	713	713	711	711	711	711	710	710	710	710	710	710	711	711	711	711	711	711	711	711	710	710	710	710	710	710	710	710	713	714	714	714	714	714	714	711	710	710	711	714	714	714	716	717	719	719	719	719	719	722	723	723	723	723	723	725	725	723	723	723	723	729	729	729	729	729	729	729	729	729	729	729	731	729	729	731	731	731	732	734	737	739	745	745	747	748	750	753	753	755	755	755	755	755	755	756	758	758	758	760	760	760	760	760	758	758	758	758	758	756	756	756	755	755	753	752	752	752	752	752	753	755	760	763	763	765	765	765	767	784	784	788	788	788	788	788	789	789	789	789	789	789	789	788	788	788	788	789	788	786	786	786	786	0	0	0	0	0	0	0	1768	1768	1768	1768	1768	1768	1777	1786	1786	1786	1786	1786	1786	1786	1786	1786	0	0	0	0	0	0	0	0	0	0	0	0	0	0	0	0	0	0	0	0	0	0	0
0	0	0	0	0	0	0	0	0	0	0	0	0	0	0	0	0	0	0	0	0	0	0	0	0	0	0	0	0	0	0	0	0	862	865	865	865	865	865	867	867	867	867	869	869	871	871	873	873	875	875	878	878	880	880	880	880	882	884	884	887	889	889	891	894	894	894	896	896	903	905	908	913	915	917	920	922	922	922	925	927	927	1036	1036	1036	1039	1042	1042	1045	1045	1045	1045	1045	1045	1048	1048	1048	1052	1052	1052	1052	1055	1055	1055	1055	1055	1058	1058	1058	1058	1061	1061	1064	1068	1068	1068	1068	1071	1071	1071	1071	1071	1071	1074	1074	1074	1078	1078	1078	1081	1081	1085	1085	1085	1088	1088	1088	1088	1088	0	0	894	894	894	894	894	894	894	891	891	0	0	0	697	687	687	687	687	687	689	689	687	687	687	687	686	684	680	679	679	679	678	676	676	676	676	676	676	676	678	678	679	680	682	682	683	683	683	684	684	540	539	539	539	539	539	539	539	539	540	675	675	675	675	676	676	676	678	678	678	678	678	679	679	679	679	680	679	679	679	679	679	679	679	679	680	680	680	680	0	629	629	628	628	628	628	628	628	627	627	628	629	629	629	629	631	629	629	631	631	631	632	634	634	634	634	634	634	634	632	632	633	633	633	633	634	634	634	634	635	635	635	635	635	635	636	636	636	636	638	638	638	638	638	638	638	639	638	638	639	638	638	636	636	636	638	639	639	639	639	640	641	642	642	642	642	644	644	641	641	642	642	641	641	642	642	644	645	645	645	645	645	645	645	645	645	645	645	645	644	644	645	645	646	646	646	646	647	647	648	647	647	647	647	647	647	647	647	647	647	647	647	695	695	693	691	691	691	691	691	690	690	690	689	687	686	686	686	686	686	686	689	689	689	689	689	687	684	683	683	683	683	683	684	683	683	683	683	683	682	680	680	679	679	679	678	678	675	674	674	674	674	672	672	672	671	670	667	666	663	663	662	662	662	662	662	658	658	729	729	729	729	719	719	719	719	720	720	722	722	722	720	720	719	719	717	717	717	717	714	714	713	713	711	711	711	710	710	710	710	708	708	708	710	710	710	710	711	710	710	710	710	710	710	710	710	710	708	708	708	710	707	705	705	710	710	707	707	707	708	708	710	711	714	716	716	716	716	717	717	719	719	719	720	722	722	723	722	720	720	722	722	722	723	723	723	723	728	728	726	726	726	726	726	726	726	726	729	731	732	734	737	739	742	743	747	748	750	752	752	753	753	753	753	753	753	755	755	756	756	756	756	758	758	758	756	756	756	756	756	755	755	755	753	753	753	752	752	750	750	750	752	753	753	760	761	763	765	765	767	784	784	786	784	784	784	784	786	786	786	786	788	788	788	788	788	788	788	788	788	786	786	786	786	0	0	0	0	0	0	0	0	1768	1768	1768	0	0	0	1786	1786	1795	1777	1777	1777	1777	1777	1777	0	0	0	0	0	0	0	0	0	0	0	0	0	0	0	0	0	0	0	0	0	0	0
0	0	0	0	0	0	0	0	0	0	0	0	0	0	0	0	0	0	0	0	0	0	0	0	0	0	0	0	0	0	0	0	0	862	862	862	865	865	867	867	867	867	869	869	869	871	871	873	873	875	875	878	878	880	880	880	880	882	884	884	887	889	889	891	894	894	894	896	896	903	905	908	913	915	917	920	922	922	922	925	927	927	1036	1036	1036	1042	1045	1045	1045	1045	1045	1045	1045	1045	1048	1048	1052	1052	1052	1052	1052	1055	1055	1055	1055	1058	1058	1058	1058	1058	1061	1064	1068	1068	1068	1068	1068	1071	1071	1071	1071	1074	1074	1074	1074	1074	1078	1078	1078	1081	1085	1085	1085	1085	1088	1088	1088	1088	1088	1088	0	894	894	891	889	889	891	891	891	894	894	0	0	0	684	683	683	683	684	683	683	686	686	686	686	684	683	682	680	678	678	676	676	676	675	675	675	675	675	676	676	678	679	680	680	682	682	682	683	682	679	679	0	0	674	674	539	539	539	540	675	675	675	675	676	676	676	678	678	678	678	678	678	679	679	679	680	679	679	679	679	679	679	679	680	680	680	680	680	0	628	628	627	627	626	626	627	627	627	627	627	628	629	629	629	629	629	629	629	629	631	631	633	633	633	633	633	631	631	631	631	631	631	632	632	633	634	634	634	634	635	635	635	634	634	635	635	635	636	636	636	636	636	635	635	635	636	636	636	636	636	636	635	635	636	636	636	638	636	636	639	640	640	640	639	639	642	641	640	640	640	640	640	640	640	641	642	642	642	642	642	642	642	642	642	642	644	644	644	642	642	642	644	644	644	644	644	645	645	646	645	645	645	645	645	645	645	645	646	646	646	646	642	691	691	691	690	690	690	689	689	689	686	686	686	686	686	684	684	684	684	686	686	686	684	682	679	679	680	680	680	680	680	680	683	682	682	682	682	680	679	679	678	678	676	675	675	674	672	672	672	672	672	671	671	669	667	663	662	662	661	661	661	660	660	658	658	658	658	0	0	0	719	719	719	719	719	720	720	720	720	720	719	719	719	717	717	717	717	714	714	713	711	711	710	710	710	708	708	708	707	707	707	707	707	708	708	708	708	708	708	708	708	708	708	708	708	705	705	707	707	705	705	705	707	707	707	707	707	707	708	708	710	711	713	716	716	716	716	716	716	716	716	717	719	720	719	717	717	717	717	717	717	717	717	720	723	726	723	723	723	723	723	723	723	725	726	728	729	731	732	732	740	740	742	743	745	747	748	750	750	752	752	753	753	753	753	753	755	755	755	755	756	756	756	755	755	755	755	755	753	753	753	752	752	752	750	750	748	748	748	748	750	750	752	756	760	765	767	767	784	782	782	782	782	782	782	782	782	782	784	784	786	786	786	786	786	786	786	786	786	786	786	788	788	0	0	0	0	0	0	0	0	0	0	0	0	0	0	0	1795	1777	1777	1777	1777	1777	1777	0	0	0	0	0	0	0	0	0	0	0	0	0	0	0	0	0	0	0	0	0	0	0
0	0	0	0	0	0	0	0	0	0	0	0	0	0	0	0	0	0	0	0	0	0	0	0	0	0	0	0	0	0	0	0	862	862	862	862	865	865	867	867	867	867	869	869	869	871	871	873	873	875	875	878	878	880	880	880	880	882	884	884	887	889	889	891	894	894	894	896	896	903	905	908	913	915	917	920	922	922	922	925	925	925	1039	1039	1039	1045	1045	1045	1045	1045	1045	1045	1048	1048	1048	1052	1052	1052	1052	1052	1055	1055	1055	1055	1058	1058	1058	1058	1058	1061	1064	1064	1068	1068	1068	1068	1068	1071	1071	1071	1071	1074	1074	1074	1078	1078	1078	1081	1081	1081	1085	1085	1085	1085	1085	1088	1088	1088	1088	1088	0	0	889	889	889	891	891	891	891	891	894	0	0	0	682	682	682	682	682	682	682	683	684	683	683	683	683	682	680	678	678	676	675	675	674	674	674	675	675	676	676	676	678	679	679	680	680	682	682	679	678	676	675	674	674	675	675	675	675	675	675	675	675	675	676	676	676	678	678	678	678	678	678	679	679	679	680	679	679	679	679	679	679	679	680	680	690	690	0	0	628	628	624	624	625	625	625	626	626	626	626	627	626	626	628	628	627	627	627	627	628	628	628	626	628	629	627	627	628	629	629	631	631	631	631	632	632	632	633	633	634	634	633	633	633	634	634	634	634	634	634	634	634	633	633	633	634	634	634	635	635	635	635	635	635	635	636	635	635	635	635	635	635	635	635	636	639	639	639	639	639	639	639	639	639	639	640	640	639	639	640	640	640	640	641	641	642	642	642	641	641	642	641	641	642	642	642	642	642	644	644	642	641	641	641	640	640	641	642	644	644	642	642	642	690	690	689	689	689	687	687	687	686	684	684	684	684	684	684	684	684	684	683	682	680	679	679	679	679	679	679	679	679	679	680	679	679	679	679	678	678	676	676	675	675	674	674	671	671	671	670	670	670	670	670	667	665	662	662	661	660	658	658	660	660	658	658	657	657	657	0	0	719	719	719	719	719	719	719	719	719	719	719	719	719	717	717	717	717	714	714	713	711	711	710	710	708	707	707	707	707	705	705	705	705	705	705	704	704	704	705	705	707	707	708	707	705	705	705	705	705	705	705	705	705	705	705	705	705	707	707	707	707	708	710	711	711	713	713	713	713	713	713	716	716	716	714	714	716	716	713	713	713	713	713	711	711	722	720	720	720	720	720	722	722	723	726	726	729	731	734	739	739	740	742	743	745	745	747	748	747	747	747	748	748	748	748	748	750	748	748	748	748	752	753	753	753	753	753	753	750	750	750	750	750	750	748	748	747	747	748	748	748	748	748	748	760	760	784	784	784	780	780	780	780	780	780	780	780	780	780	782	782	784	784	784	784	782	782	782	784	786	786	788	788	0	0	0	0	0	0	0	0	0	0	0	0	0	0	0	0	1777	1768	1768	1768	1768	1768	0	0	0	0	0	0	0	0	0	0	0	0	0	0	0	0	0	0	0	0	0	0	0
0	0	0	0	0	0	0	0	0	0	0	0	0	0	0	0	0	0	0	0	0	0	0	0	0	0	0	0	0	0	0	0	862	862	862	862	865	865	867	867	867	867	869	869	869	871	871	873	873	875	875	878	878	880	880	882	882	884	884	887	887	889	889	891	894	894	894	896	896	901	903	908	913	915	917	920	922	922	922	925	925	925	1042	1042	1042	1045	1045	1045	1045	1045	1048	1048	1048	1048	1048	1052	1052	1052	1052	1055	1055	1055	1055	1058	1058	1058	1061	1061	1061	1061	1064	1064	1068	1068	1068	1068	1068	1068	1071	1071	1071	1074	1074	1074	1078	1078	1081	1081	1085	1085	1085	1085	1085	1088	1088	1088	1091	1091	1095	1095	0	0	889	884	884	884	887	887	891	891	0	0	0	0	682	682	682	680	680	680	680	682	682	682	682	680	680	679	679	678	676	675	674	674	672	672	674	674	674	674	675	675	676	678	678	678	678	679	679	678	676	675	675	674	674	675	675	675	675	675	675	675	675	676	676	676	678	678	678	678	678	678	678	679	679	680	680	680	680	680	680	680	680	680	689	689	690	690	690	0	628	620	623	623	623	623	623	624	624	625	625	625	625	625	626	626	626	626	626	626	627	626	626	626	627	627	626	626	626	627	627	628	629	629	629	627	627	628	628	628	629	629	631	632	632	633	633	633	633	633	634	633	633	633	632	632	633	633	633	634	634	634	634	634	635	635	634	634	634	633	634	634	632	632	634	635	636	636	636	636	638	638	638	638	638	638	639	638	638	638	638	639	639	639	639	640	640	641	641	641	640	640	640	640	640	640	640	641	641	641	641	640	639	639	640	639	639	640	640	640	640	641	641	642	642	690	689	687	687	686	686	686	684	683	683	683	683	683	683	683	683	682	680	679	679	678	678	678	678	678	678	678	678	678	676	676	676	676	675	675	675	675	675	674	674	674	672	671	671	670	670	670	670	669	666	665	663	661	661	660	658	658	658	658	658	657	657	657	657	657	0	0	719	717	717	717	717	717	717	717	717	719	719	719	717	717	717	717	717	714	713	713	711	711	710	710	708	707	707	707	707	705	705	704	704	703	701	701	701	701	701	701	703	703	704	704	703	703	704	704	703	703	704	704	705	704	704	704	705	705	705	705	705	705	710	711	711	711	711	711	710	710	710	711	711	711	711	711	714	714	713	713	713	711	711	711	711	711	713	713	713	716	717	720	720	722	723	726	729	731	734	737	739	740	742	742	743	743	743	743	743	743	745	745	747	747	747	747	747	747	745	745	745	745	747	747	748	748	748	748	747	745	745	745	745	748	747	747	745	745	747	747	745	745	745	747	747	745	745	784	784	780	780	780	779	779	779	779	779	779	780	780	780	780	779	779	780	779	779	780	782	782	784	784	784	784	0	0	0	0	0	0	0	0	0	0	0	0	0	0	0	0	1768	1759	1759	1759	1759	0	0	0	0	0	0	0	0	0	0	0	0	0	0	0	0	0	0	0	0	0	0	0
0	0	0	0	0	0	0	0	0	0	0	0	0	0	0	0	0	0	0	0	0	0	0	0	0	0	0	0	0	0	0	0	862	862	862	862	865	865	867	867	867	869	869	869	869	871	871	873	873	875	875	878	878	880	880	882	882	884	884	887	887	889	889	891	894	894	894	896	896	901	903	905	910	913	917	920	922	922	925	925	927	927	1042	1042	1042	1045	1045	1045	1045	1045	1048	1048	1048	1048	1048	1055	1055	1055	1055	1055	1055	1058	1058	1058	1058	1061	1061	1061	1064	1064	1064	1068	1068	1068	1068	1068	1071	1071	1071	1071	1074	1074	1074	1078	1081	1081	1081	1085	1085	1085	1085	1085	1085	1088	1088	1091	1091	1095	1095	1095	1095	0	889	884	884	884	887	887	889	889	0	0	0	0	682	682	682	680	679	679	679	679	680	679	679	679	679	679	678	678	676	675	672	671	671	671	671	671	672	672	674	674	675	675	676	676	676	678	678	676	675	675	674	674	674	674	675	675	675	675	675	675	675	676	676	676	678	678	678	678	679	679	680	682	684	684	686	683	683	684	684	683	683	687	689	689	689	690	690	0	0	620	620	620	620	622	622	622	622	622	622	625	624	624	625	625	625	625	625	626	626	626	625	625	625	625	625	625	625	626	626	626	627	627	627	627	627	627	627	628	627	627	629	629	631	631	631	631	631	631	632	632	631	631	631	631	631	631	631	631	631	633	633	633	634	634	633	633	633	632	632	631	631	632	632	634	634	634	634	634	635	635	636	636	636	636	636	635	635	635	635	636	638	638	638	639	639	639	639	639	639	639	639	639	639	639	639	639	638	638	638	639	638	638	638	639	639	639	639	639	639	640	640	642	690	690	687	687	686	684	684	684	683	683	683	683	683	683	683	683	682	680	679	678	678	676	676	676	676	676	676	676	675	675	674	674	674	674	674	674	674	674	674	674	674	672	671	671	670	670	669	669	669	666	663	662	660	660	660	658	658	657	657	657	657	656	656	656	656	656	0	0	719	717	716	716	716	716	716	716	716	717	717	717	717	717	717	717	717	714	713	713	711	711	710	710	708	707	707	707	707	705	705	704	703	701	700	700	700	700	700	700	700	700	700	700	700	700	701	701	701	701	703	703	703	703	703	704	704	704	704	704	704	704	705	707	710	710	710	710	707	707	707	708	708	708	711	711	713	713	711	711	711	710	710	710	710	710	711	711	711	713	714	717	717	720	723	726	729	731	734	737	739	740	740	740	742	742	742	742	742	742	742	743	743	743	743	743	743	743	742	742	743	743	743	745	745	745	747	747	747	745	743	743	743	743	743	743	742	742	742	742	740	740	740	742	742	745	745	784	784	780	780	779	779	779	779	779	779	779	779	779	777	777	777	777	779	779	779	779	780	780	780	780	784	784	0	0	0	0	0	0	0	0	0	0	0	0	0	0	0	0	1741	1741	1750	1750	1750	0	0	0	0	0	0	0	0	0	0	0	0	0	0	0	0	0	0	0	0	0	0	0
0	0	0	0	0	0	0	0	0	0	0	0	0	0	0	0	0	0	0	0	0	0	0	0	0	0	0	0	0	0	0	0	0	862	862	862	865	865	867	867	867	869	869	869	869	869	871	871	873	873	875	875	875	880	882	882	882	884	887	887	887	889	889	891	894	894	894	896	896	901	903	905	910	913	917	920	922	922	925	925	927	927	1042	1042	1045	1045	1045	1045	1048	1048	1048	1048	1048	1052	1052	1055	1055	1055	1055	1055	1055	1058	1058	1058	1058	1064	1064	1064	1064	1068	1068	1068	1068	1068	1068	1071	1071	1071	1071	1074	1074	1074	1074	1078	1081	1081	1085	1085	1085	1085	1085	1085	1085	1088	1091	1091	1091	1091	1095	1095	1085	1085	1085	884	884	887	887	887	889	889	0	0	0	0	680	680	680	679	678	678	676	676	676	676	676	678	678	678	678	676	676	674	671	671	671	671	671	671	671	671	671	674	674	675	675	675	675	676	676	676	675	675	674	674	674	674	675	675	675	675	675	676	676	676	676	676	678	678	679	680	680	680	683	683	686	686	684	684	684	686	686	686	686	687	689	689	689	690	690	690	0	619	619	619	619	619	619	619	620	620	622	622	622	622	624	623	623	624	624	624	624	624	623	623	623	623	624	624	624	625	625	626	626	626	626	626	626	626	626	626	626	627	627	628	629	629	629	629	629	629	629	628	628	628	628	629	629	629	629	631	631	632	632	632	633	633	632	632	632	632	631	631	631	631	632	633	633	632	632	632	633	633	633	633	634	634	634	634	634	634	634	634	635	635	635	638	638	638	638	636	636	636	636	636	636	636	636	635	635	635	635	635	636	636	636	638	638	638	638	638	638	638	636	636	636	635	687	684	684	683	683	683	682	682	682	682	682	682	682	682	680	679	678	676	676	675	675	675	675	675	675	674	674	674	674	672	672	672	672	672	672	672	672	672	672	671	670	670	669	669	667	667	666	663	662	662	660	660	658	657	657	656	656	656	656	656	655	655	653	653	653	0	0	717	716	714	714	714	714	714	713	714	716	717	717	716	716	716	716	713	713	713	711	711	710	708	707	707	707	707	705	704	704	703	701	700	700	700	700	698	698	698	698	698	698	698	698	698	700	700	700	700	701	703	701	701	703	703	703	703	703	703	703	704	704	705	705	707	705	705	705	705	705	707	705	705	710	710	710	710	710	710	710	708	708	708	708	708	708	710	711	711	713	714	716	719	723	726	729	731	732	736	739	739	740	740	740	740	739	739	740	740	742	742	743	743	743	743	743	742	742	742	742	742	742	743	743	743	743	743	743	742	740	740	739	739	734	734	737	739	739	739	739	739	739	740	740	740	0	0	0	780	780	779	779	777	777	775	775	775	777	777	775	775	773	773	773	773	775	775	779	779	775	775	784	784	0	0	0	0	0	0	0	0	0	0	0	0	0	0	0	0	1732	1732	1741	1741	1741	0	0	0	0	0	0	0	0	0	0	0	0	0	0	0	0	0	0	0	0	0	0	0
0	0	0	0	0	0	0	0	0	0	0	0	0	0	0	0	0	0	0	0	0	0	0	0	0	0	0	0	0	0	0	0	0	0	862	862	865	865	867	867	867	869	869	869	869	869	871	871	873	873	875	875	875	880	882	882	882	884	887	887	887	889	889	891	891	894	894	896	896	898	903	905	910	913	915	917	922	922	925	925	925	925	1045	1045	1045	1045	1045	1045	1045	1048	1048	1048	1048	1052	1052	1055	1055	1055	1055	1055	1058	1058	1058	1061	1061	1064	1064	1064	1068	1068	1068	1068	1068	1068	1068	1071	1071	1071	1071	1074	1074	1074	1078	1078	1081	1081	1085	1085	1085	1085	1085	1085	1085	1088	1091	1091	1091	1091	1091	1091	1085	1085	1085	0	0	887	887	887	889	889	0	0	0	0	680	679	679	676	676	675	675	675	675	675	675	676	676	676	676	676	674	672	671	670	670	670	670	670	670	671	671	672	672	674	674	675	675	675	675	675	675	675	674	674	674	674	675	675	675	675	676	676	676	676	678	678	678	678	679	680	680	680	683	684	686	686	684	684	684	686	686	686	686	686	687	687	687	687	689	689	0	619	617	617	617	617	617	618	618	619	620	620	622	622	622	622	622	622	623	622	622	622	622	623	623	622	622	623	623	623	623	623	623	625	625	625	625	625	625	625	626	626	626	626	627	627	627	627	627	627	626	626	626	627	627	627	627	627	627	628	628	628	628	629	631	631	629	629	629	629	629	629	629	629	631	631	628	628	626	626	626	626	627	627	629	629	629	631	632	632	632	632	632	632	632	632	632	632	632	632	631	631	632	632	632	631	631	632	632	632	632	633	633	634	635	635	635	635	634	634	635	634	633	633	634	634	634	684	683	682	680	680	679	679	679	679	679	678	678	676	675	675	674	674	674	674	674	674	672	672	672	671	671	671	671	670	670	671	671	671	671	672	672	672	671	670	669	669	669	667	666	666	666	661	661	660	658	658	657	656	656	655	655	655	655	655	653	652	651	651	651	0	0	0	716	714	711	711	711	711	711	711	713	716	716	714	714	714	716	713	713	713	710	710	710	708	707	707	707	707	705	704	704	703	701	700	700	700	700	698	698	698	697	697	695	695	697	697	698	698	698	698	700	700	700	700	700	701	701	701	701	701	701	701	701	703	701	701	701	701	703	704	704	704	704	704	704	705	705	705	707	707	708	707	707	707	708	708	708	710	710	711	713	714	714	717	722	725	728	729	731	734	739	739	739	739	739	737	736	736	737	739	739	740	742	742	742	742	742	742	742	742	742	742	742	742	742	742	743	742	740	740	739	736	736	736	734	734	736	736	736	736	736	737	737	739	739	739	739	0	0	0	780	779	779	777	775	773	773	772	772	772	773	770	770	770	772	772	773	773	773	775	773	773	773	773	0	0	0	0	0	0	0	0	0	0	0	0	0	0	0	1723	1723	1732	1732	1732	1732	0	0	0	0	0	0	0	0	0	0	0	0	0	0	0	0	0	0	0	0	0	0	0
0	0	0	0	0	0	0	0	0	0	0	0	0	0	0	0	0	0	0	0	0	0	0	0	0	0	0	0	0	0	0	0	0	0	862	862	862	865	867	867	867	869	869	869	869	869	871	871	873	873	875	875	875	878	882	882	884	884	887	887	887	889	889	891	891	894	894	896	896	898	903	905	910	913	915	917	922	922	922	922	922	920	920	920	1045	1045	1045	1048	1048	1048	1048	1052	1052	1052	1055	1055	1055	1055	1055	1055	1058	1061	1061	1064	1064	1064	1068	1068	1068	1068	1068	1068	1068	1068	1071	1071	1071	1071	1071	1074	1078	1078	1078	1081	1081	1085	1085	1085	1085	1085	1085	1085	1085	1088	1091	1091	1091	1091	1091	1091	1085	1085	1085	1085	0	889	889	889	889	891	891	0	0	0	680	679	679	674	674	674	672	672	674	674	674	675	675	675	674	674	671	671	670	669	669	670	670	670	670	670	670	671	672	672	674	674	674	675	675	675	675	675	675	675	675	675	675	675	675	676	676	676	676	676	678	678	678	678	679	680	680	680	682	684	684	686	684	684	684	686	686	686	686	686	686	686	686	686	686	686	0	0	616	616	616	616	616	617	617	618	618	620	620	620	619	619	620	622	622	620	620	620	622	622	622	622	622	622	620	620	622	622	622	622	622	623	622	623	622	622	622	623	623	623	623	623	623	624	624	624	624	624	624	624	624	624	625	624	624	624	624	624	624	624	625	625	626	626	626	627	627	627	627	627	625	625	625	625	625	626	626	626	626	626	628	627	627	629	629	631	631	631	631	631	631	631	631	631	632	631	629	629	629	629	629	629	629	631	631	631	631	632	632	632	633	633	634	634	634	634	634	633	633	633	633	633	629	628	628	680	680	676	676	676	676	675	675	675	674	674	674	672	672	672	672	672	672	672	671	670	667	666	666	666	666	666	666	666	667	667	667	667	669	669	667	667	667	667	667	665	665	661	661	658	658	658	656	656	656	653	653	652	652	652	652	651	650	650	650	647	647	646	646	646	0	714	711	710	710	710	708	708	707	708	710	711	711	711	713	710	710	710	708	708	710	708	707	707	707	707	705	704	704	703	701	700	700	700	700	698	697	697	695	695	694	694	694	694	695	695	695	695	697	695	695	697	697	697	697	698	698	698	698	698	698	698	697	697	697	697	700	701	701	701	701	701	703	703	701	703	704	705	705	705	705	705	707	707	707	708	710	711	711	713	714	717	720	725	728	729	731	731	736	736	736	737	737	736	734	734	736	736	737	739	739	740	740	740	739	739	740	740	740	740	740	740	742	742	740	740	740	737	736	736	736	736	734	734	736	736	736	736	736	736	737	739	734	734	734	0	0	0	0	0	0	777	775	767	767	767	767	768	768	768	768	768	770	770	770	772	772	772	773	773	773	773	0	0	0	0	0	0	0	0	0	0	0	0	0	0	0	1723	1723	1732	1732	1732	1732	0	0	0	0	0	0	0	0	0	0	0	0	0	0	0	0	0	0	0	0	0	0	0
0	0	0	0	0	0	0	0	0	0	0	0	0	0	0	0	0	0	0	0	0	0	0	0	0	0	0	0	0	0	0	0	865	865	862	862	862	865	867	867	867	869	869	869	869	869	871	871	873	873	875	875	875	878	880	882	884	884	887	887	887	889	889	891	891	894	894	896	896	898	903	905	908	910	915	917	920	920	922	922	922	920	920	1045	1045	1045	1048	1048	1048	1048	1048	1052	1052	1052	1055	1055	1055	1055	1055	1058	1058	1061	1061	1064	1064	1064	1068	1068	1068	1068	1068	1068	1068	1071	1071	1071	1071	1071	1071	1074	1078	1078	1078	1081	1081	1085	1085	1085	1088	1088	1088	1088	1088	1091	1091	1091	1091	1095	1095	1095	1085	1085	1085	1085	0	889	889	889	891	891	891	891	0	0	0	679	671	671	671	671	671	671	672	672	672	672	672	672	672	672	671	670	670	669	669	669	669	669	669	670	670	671	671	672	672	674	674	674	674	674	675	675	674	674	675	675	675	675	676	676	676	676	678	678	678	678	678	678	678	679	680	680	682	683	683	683	682	682	683	684	684	684	684	684	684	684	683	683	683	683	0	0	616	615	615	615	615	616	616	616	615	614	614	615	615	615	614	613	613	614	614	615	616	616	616	616	617	617	617	617	618	618	619	619	619	619	620	618	618	619	619	620	620	620	620	622	622	622	622	622	623	623	623	623	623	623	622	622	622	622	622	622	622	622	622	622	625	625	625	625	625	625	625	625	624	624	624	625	625	625	625	625	625	625	626	626	626	626	627	628	628	628	629	629	629	631	631	631	631	629	628	628	627	627	627	628	628	629	629	629	631	631	631	631	632	633	633	633	633	633	633	632	631	631	631	629	629	628	628	628	627	675	674	674	674	674	674	672	672	672	672	671	671	670	670	671	671	670	670	667	666	665	665	665	665	666	666	666	666	666	666	667	667	666	665	665	665	666	660	660	660	658	658	657	657	655	653	653	653	652	652	652	652	651	650	650	648	648	647	646	646	645	645	645	0	0	704	704	704	704	704	704	703	703	703	703	704	704	704	705	705	705	704	704	704	705	704	704	704	705	705	704	704	703	701	700	700	700	700	698	697	697	695	695	694	694	694	693	693	693	694	694	694	693	693	694	695	695	695	695	695	697	697	697	697	697	694	694	695	695	695	694	694	695	697	698	700	694	694	698	701	701	703	703	703	704	704	704	705	707	710	710	711	713	714	717	720	725	726	728	729	729	729	731	731	732	734	732	732	732	732	734	736	736	737	737	739	739	739	737	739	739	739	739	739	740	740	739	737	737	737	736	734	734	734	734	734	734	734	734	734	734	734	734	734	731	731	731	731	0	0	0	0	0	0	0	775	767	767	765	765	767	768	768	768	768	768	770	770	770	772	772	772	772	772	773	0	0	0	0	0	0	0	0	0	0	0	0	0	0	0	1732	1732	1732	1732	1732	1732	0	0	0	0	0	0	0	0	0	0	0	0	0	0	0	0	0	0	0	0	0	0	0
0	0	0	0	0	0	0	0	0	0	0	0	0	0	0	0	0	0	0	0	0	0	0	0	0	0	0	0	0	0	0	0	865	862	862	862	865	867	867	867	867	867	869	869	869	869	871	871	873	875	875	875	875	878	880	882	884	884	887	887	887	889	889	889	891	891	894	894	896	898	898	905	908	910	915	917	920	920	920	920	920	920	1045	1045	1045	1048	1048	1048	1048	1048	1052	1052	1052	1055	1055	1055	1055	1055	1055	1058	1061	1061	1061	1064	1064	1068	1068	1068	1068	1068	1068	1071	1071	1071	1071	1074	1074	1074	1074	1078	1078	1078	1081	1081	1081	1085	1085	1085	1088	1088	1088	1088	1091	1091	1095	1095	1095	1095	1095	1095	1088	1088	1088	1085	891	891	891	891	891	891	891	891	0	0	0	0	670	670	670	671	671	671	670	670	670	671	671	672	672	672	671	670	670	669	669	669	667	667	669	670	670	671	671	671	671	672	672	674	674	674	674	674	674	674	674	675	675	675	675	676	676	676	678	678	678	678	678	676	676	678	678	678	680	680	682	682	680	680	679	680	680	680	680	680	680	680	680	680	682	682	682	0	616	614	611	611	612	612	612	612	613	614	614	614	614	613	613	613	612	613	613	614	615	615	615	615	616	616	616	616	616	616	617	617	618	617	617	616	616	617	618	618	618	618	619	619	619	619	619	620	620	622	622	622	622	622	620	620	620	620	620	620	620	622	622	622	623	623	624	624	623	623	623	622	622	622	622	623	624	624	624	624	624	625	625	625	624	624	624	623	623	624	625	626	628	628	628	628	628	628	626	625	625	625	625	626	627	628	628	628	629	628	628	628	628	628	628	629	629	629	629	629	629	628	628	628	627	627	628	627	627	675	672	672	672	672	671	670	670	670	670	670	670	669	669	669	669	667	665	663	663	663	663	663	663	663	665	665	665	665	665	665	663	663	662	662	662	658	658	658	658	658	657	657	656	655	653	653	652	651	651	650	650	650	648	648	647	647	646	645	645	645	641	640	640	0	704	704	704	704	704	704	701	701	701	700	701	701	701	700	700	700	703	703	701	701	701	703	703	703	701	701	701	701	701	701	700	700	700	698	698	697	695	695	694	694	693	691	691	691	691	690	690	690	690	691	693	693	693	694	694	694	694	694	694	693	693	693	694	694	694	694	694	694	694	695	695	694	694	695	697	695	695	697	700	701	703	703	704	705	708	710	711	713	713	716	722	723	725	726	726	726	728	728	728	729	731	731	731	731	731	732	732	732	731	731	732	734	734	734	736	737	737	739	739	739	739	737	736	736	734	732	732	732	732	732	732	732	732	732	732	732	732	732	731	729	729	728	728	728	729	731	731	0	0	0	0	767	765	765	763	763	765	767	767	767	768	770	770	770	772	772	772	772	772	773	0	0	0	0	0	0	0	0	0	0	0	0	0	0	1732	1732	1732	1732	1732	1732	1732	0	0	0	0	0	0	0	0	0	0	0	0	0	0	0	0	0	0	0	0	0	0	0
0	0	0	0	0	0	0	0	0	0	0	0	0	0	0	0	0	0	0	0	0	0	0	0	0	0	0	0	0	0	0	0	867	862	862	862	865	865	867	867	867	867	869	869	869	869	871	873	873	875	875	875	878	878	880	882	882	882	884	884	887	887	887	889	891	894	894	894	896	898	901	905	908	910	915	917	920	920	920	920	920	920	920	1048	1048	1048	1048	1048	1048	1052	1052	1052	1055	1055	1055	1055	1055	1055	1058	1061	1061	1064	1064	1064	1064	1068	1068	1068	1068	1068	1071	1071	1071	1071	1071	1078	1074	1074	1078	1078	1081	1081	1081	1081	1085	1085	1085	1088	1091	1091	1091	1091	1091	1091	1095	1095	1095	1095	1095	1095	1088	1088	1088	0	891	891	891	891	891	891	891	891	0	0	0	0	669	669	669	670	670	670	669	669	670	670	671	671	671	671	670	669	669	667	667	667	667	667	669	669	669	670	670	671	671	671	671	671	672	672	672	672	671	671	672	674	674	674	674	675	675	675	675	675	675	675	674	674	674	674	675	675	675	675	676	676	676	676	678	678	678	678	678	678	679	679	679	680	680	680	682	611	611	611	609	609	609	609	609	609	612	612	613	613	613	612	612	613	612	613	613	613	614	614	613	613	614	615	615	614	614	614	616	616	616	616	616	616	616	617	617	617	617	617	617	617	617	617	617	618	618	619	619	620	620	619	619	619	619	619	619	619	619	619	620	620	620	622	622	622	622	622	623	622	619	620	620	622	623	623	623	623	623	623	624	623	623	623	622	622	622	623	622	622	622	623	624	625	625	625	624	624	624	624	624	625	626	627	627	627	627	626	626	626	626	626	626	627	627	627	627	627	627	627	627	626	626	627	627	627	627	672	672	671	670	670	670	669	669	669	669	669	669	667	667	667	667	666	666	661	661	661	662	661	661	662	662	662	662	662	662	663	662	662	661	661	661	658	658	658	658	657	657	656	656	655	652	652	651	651	650	650	650	650	648	648	647	647	646	644	644	641	640	639	639	639	636	636	704	703	703	701	701	700	698	698	698	698	698	697	697	698	700	700	700	700	701	701	701	701	700	700	701	701	701	701	700	700	700	698	698	697	697	695	694	694	693	691	690	690	690	689	689	689	689	689	689	689	690	689	689	687	687	689	687	687	687	691	691	693	691	691	691	691	691	690	690	691	691	693	694	694	694	695	697	698	700	700	701	704	705	710	711	713	713	716	720	723	723	725	725	725	726	726	726	726	728	728	728	729	731	731	731	731	731	731	731	731	732	732	732	732	732	737	737	737	731	731	731	732	731	731	731	731	732	732	732	732	732	731	731	731	731	729	728	726	726	726	726	726	728	729	729	0	0	0	0	748	748	748	763	763	765	767	767	767	768	770	770	770	772	772	772	772	772	0	0	0	0	0	0	0	0	0	0	0	0	0	0	0	1732	1723	1723	1723	1723	1723	1723	0	0	0	0	0	0	0	0	0	0	0	0	0	0	0	0	0	0	0	0	0	0	0
0	0	0	0	0	0	0	0	0	0	0	0	0	0	0	0	0	0	0	0	0	0	0	0	0	0	0	0	0	0	0	0	867	865	865	862	862	865	865	867	867	867	869	869	869	869	871	871	873	873	873	875	875	878	880	880	882	884	884	887	887	887	887	889	891	891	894	894	896	898	901	905	908	913	915	917	920	920	917	917	920	920	1045	1048	1048	1048	1048	1048	1052	1052	1052	1055	1055	1055	1058	1058	1058	1058	1058	1061	1061	1064	1064	1064	1064	1068	1068	1068	1068	1068	1068	1071	1071	1071	1074	1078	1078	1078	1078	1081	1081	1081	1081	1081	1085	1085	1085	1088	1091	1091	1091	1091	1095	1095	1095	1095	1095	1095	1095	1095	1088	1088	1088	0	891	891	891	891	894	894	894	894	0	0	0	0	667	667	669	669	669	669	667	667	667	669	670	670	670	670	669	667	667	666	666	666	666	666	667	669	669	669	670	670	670	671	669	669	667	667	667	669	669	669	670	671	671	672	672	672	674	672	671	671	672	672	672	671	672	672	674	674	674	674	675	675	675	675	675	675	675	675	676	676	676	678	678	679	680	680	0	611	611	608	608	608	608	608	607	608	611	611	612	612	612	612	611	611	611	612	612	612	612	612	609	609	612	613	613	613	613	613	614	613	613	612	612	614	615	615	615	615	615	615	615	616	615	615	615	616	616	617	618	618	618	618	618	618	618	618	618	618	618	618	618	616	616	616	616	616	616	620	622	619	619	618	618	619	622	622	622	622	622	623	623	622	622	620	620	620	620	620	620	620	620	620	622	623	623	623	623	623	623	623	623	623	624	625	625	625	626	625	625	625	625	625	625	625	625	626	626	626	626	627	626	626	626	625	625	626	625	625	672	670	670	670	670	669	669	667	667	667	667	666	666	666	663	660	658	658	660	660	660	660	660	661	661	661	661	661	662	662	661	660	658	658	658	657	657	657	657	656	656	655	655	653	652	652	651	650	650	648	648	648	647	647	646	646	645	644	640	639	639	638	638	636	636	632	632	703	703	701	701	700	698	697	697	697	697	695	695	695	698	695	694	694	697	698	700	700	700	700	700	700	700	700	700	700	700	698	698	698	697	695	694	694	693	691	690	689	689	689	689	689	687	687	686	686	686	684	684	684	684	686	683	683	684	684	687	687	689	689	689	689	689	689	689	689	689	690	691	691	691	694	695	697	697	698	698	703	705	711	713	714	714	717	719	720	723	723	723	723	725	725	725	725	725	725	726	728	729	729	729	729	728	728	728	728	729	729	729	731	731	731	734	731	729	729	729	729	729	729	729	731	731	732	731	731	731	729	729	729	729	728	728	726	726	725	725	725	726	728	728	0	0	0	0	748	748	748	748	747	767	767	767	768	768	770	770	770	772	772	772	772	772	0	0	0	0	0	0	0	0	0	0	0	0	0	0	0	1706	1706	1706	1715	1715	1715	1715	0	0	0	0	0	0	0	0	0	0	0	0	0	0	0	0	0	0	0	0	0	0	0
0	0	0	0	0	0	0	0	0	0	0	0	0	0	0	0	0	0	0	0	0	0	0	0	0	0	0	0	0	0	0	0	865	860	860	862	862	865	865	867	867	867	869	869	869	869	869	871	871	873	875	875	878	878	880	882	882	884	884	884	884	887	887	887	889	891	894	894	898	898	901	905	908	910	915	917	920	920	917	917	920	1045	1045	1048	1048	1048	1052	1052	1052	1052	1055	1055	1055	1058	1058	1058	1058	1058	1058	1061	1061	1064	1064	1064	1064	1068	1068	1068	1068	1068	1068	1071	1071	1071	1074	1078	1078	1078	1081	1081	1085	1085	1085	1085	1085	1085	1088	1088	1091	1091	1091	1091	1095	1095	1098	1098	1095	1095	1095	1095	1095	1095	1095	0	891	891	891	891	894	894	894	894	0	0	0	0	667	667	669	669	669	669	665	665	666	666	666	666	666	667	666	666	665	665	665	665	665	665	665	666	666	666	666	666	666	666	665	665	665	666	666	666	667	667	669	670	671	671	671	671	671	670	670	670	670	670	670	670	671	671	672	672	672	674	672	672	672	674	672	672	672	672	674	675	675	675	676	678	679	679	0	611	611	607	607	607	607	608	607	607	607	608	609	609	609	611	609	608	608	608	608	608	608	608	608	608	609	611	611	611	611	612	612	612	611	609	609	613	614	614	614	614	614	614	614	614	614	614	614	614	614	613	613	613	613	617	617	617	617	617	617	617	617	617	617	616	615	615	614	614	614	614	619	619	618	618	618	618	618	618	619	620	620	620	620	620	619	619	619	619	619	618	618	618	618	618	618	619	620	622	622	622	622	622	622	622	622	623	622	623	624	623	623	623	623	623	623	623	624	624	624	624	625	625	625	625	624	624	624	624	625	625	669	669	669	669	669	667	666	665	665	665	665	663	663	661	660	660	658	658	658	658	658	658	658	660	660	660	660	661	661	661	653	653	653	656	656	656	656	656	655	655	655	653	653	652	651	651	650	648	648	648	647	647	647	646	645	645	644	642	639	636	636	636	636	634	632	632	632	632	633	633	701	700	698	697	697	695	695	694	694	695	694	694	694	694	695	698	700	700	700	700	700	700	700	700	700	700	700	698	698	698	697	695	695	694	693	691	690	689	689	689	689	689	687	687	686	686	686	683	683	683	683	683	683	683	683	683	684	686	687	686	687	687	687	686	686	686	686	689	689	690	691	693	694	694	695	697	698	701	704	711	713	714	714	717	717	719	722	722	722	722	722	722	723	723	723	723	723	725	726	728	728	728	726	726	725	725	726	728	728	728	728	729	728	728	728	728	728	729	728	728	728	729	731	731	729	729	729	729	728	728	726	726	726	725	725	725	725	725	726	726	728	728	0	0	743	743	745	745	747	747	768	768	768	768	768	770	770	770	772	772	772	772	0	0	0	0	0	0	0	0	0	0	0	0	0	0	0	1698	1698	1706	1706	1706	1715	1715	1715	0	0	0	0	0	0	0	0	0	0	0	0	0	0	0	0	0	0	0	0	0	0	0
0	0	0	0	0	0	0	0	0	0	0	0	0	0	0	0	0	0	0	0	0	0	0	0	0	0	0	0	0	0	0	0	858	858	858	858	858	860	860	865	865	865	867	867	869	869	871	873	873	873	875	875	878	878	880	880	882	882	884	884	884	887	887	887	889	889	894	894	898	898	901	903	908	910	915	917	917	917	917	917	917	1045	1045	1048	1048	1048	1052	1052	1052	1052	1055	1055	1058	1058	1058	1058	1058	1058	1058	1061	1061	1064	1064	1064	1068	1068	1068	1068	1068	1068	1071	1071	1071	1071	1074	1078	1078	1078	1081	1081	1085	1085	1085	1085	1085	1085	1088	1088	1091	1091	1091	1091	1095	1095	1098	1098	1098	1098	1098	1098	1098	1098	1095	894	891	891	891	891	894	894	894	896	896	0	0	0	667	669	669	667	667	661	661	662	661	660	660	660	660	662	661	661	662	662	662	662	662	662	662	663	665	663	663	663	665	663	662	662	662	663	663	665	665	665	666	667	669	670	670	670	669	669	669	669	669	667	667	670	670	671	671	671	671	671	671	671	671	670	670	669	669	669	671	672	674	674	674	674	679	679	0	612	611	607	606	606	606	606	605	605	605	605	606	606	607	607	607	607	607	607	607	607	607	607	607	607	608	609	609	609	609	609	609	609	609	609	608	608	608	608	608	608	609	611	611	612	612	612	613	613	613	612	612	612	612	615	615	615	615	615	616	616	616	616	616	615	614	614	613	613	613	613	614	615	613	613	616	616	616	616	617	617	617	617	618	617	617	618	618	618	617	617	617	617	617	617	617	617	618	620	619	619	619	620	620	620	620	620	620	620	622	622	622	622	622	622	622	622	622	622	623	623	624	624	624	624	623	623	623	624	624	624	669	667	667	667	666	666	665	663	663	665	663	662	660	658	658	658	658	658	658	657	657	657	657	656	655	655	655	655	656	656	653	653	653	653	653	653	655	655	655	655	653	653	652	652	650	650	648	648	647	647	646	646	645	645	644	644	641	640	636	634	634	633	632	631	631	631	631	631	632	632	632	632	695	695	695	695	695	694	694	693	693	693	693	693	694	695	698	698	698	698	698	698	698	698	698	698	698	698	698	698	697	697	695	694	693	691	690	690	690	689	689	689	687	686	684	684	684	683	683	683	683	683	682	682	682	682	683	683	683	683	683	684	684	684	683	683	684	686	687	689	690	693	693	694	695	697	698	701	705	710	711	713	713	714	716	717	717	717	717	719	719	719	719	719	720	720	722	723	723	725	725	725	723	723	723	723	723	723	723	723	725	725	726	725	726	726	728	728	728	726	726	726	728	728	726	726	726	725	725	726	725	725	725	723	723	723	723	723	725	726	726	728	728	731	739	739	740	740	747	747	736	770	770	768	768	770	770	770	772	772	772	772	0	0	0	0	0	0	0	0	0	0	0	0	0	0	1698	1698	1698	1706	1706	1706	1706	1706	1706	0	0	0	0	0	0	0	0	0	0	0	0	0	0	0	0	0	0	0	0	0	0	0
0	0	0	0	0	0	0	0	0	0	0	0	0	0	0	0	0	0	0	0	0	0	0	0	0	0	0	0	0	0	0	0	858	858	854	854	856	856	856	854	854	858	867	867	867	869	871	871	873	873	875	875	878	878	880	880	882	882	884	884	884	887	887	887	889	889	894	894	898	898	901	903	908	910	915	917	917	917	917	917	917	1048	1048	1048	1048	1052	1052	1052	1055	1055	1055	1055	1058	1058	1058	1058	1058	1058	1058	1061	1061	1064	1064	1064	1068	1068	1068	1068	1068	1068	1071	1071	1071	1074	1078	1078	1081	1081	1081	1081	1085	1085	1085	1085	1085	1085	1088	1091	1091	1091	1091	1095	1095	1098	1098	1098	1098	1098	1098	1102	1102	1102	0	894	891	891	891	891	891	894	894	896	896	0	0	0	0	666	666	666	666	660	660	660	658	657	657	657	657	660	660	660	661	661	661	661	661	661	662	662	663	662	662	662	663	662	661	661	661	662	662	663	663	663	665	666	666	669	669	669	669	667	667	667	667	667	667	669	669	670	670	671	670	670	670	669	669	667	666	666	666	667	670	670	670	670	671	670	670	670	0	611	611	603	603	603	603	604	603	603	603	604	604	604	604	604	604	605	605	606	606	606	606	606	607	607	607	608	608	608	608	608	608	608	608	608	607	607	607	607	608	608	608	609	609	612	612	612	609	609	609	609	609	609	609	608	608	614	614	614	615	615	615	615	615	614	613	612	612	612	613	612	612	612	612	613	615	615	615	615	615	616	615	615	616	616	616	617	617	617	617	617	617	617	617	617	617	617	617	619	618	618	618	619	619	619	619	619	619	619	619	619	620	620	620	620	620	620	622	622	622	622	623	623	623	623	622	622	622	623	623	623	669	666	666	666	665	663	662	662	662	662	660	658	658	657	657	657	657	657	657	656	656	656	655	655	653	653	653	653	652	652	652	652	652	652	652	653	653	653	652	652	652	652	651	650	648	648	648	647	646	646	645	644	644	644	644	642	641	640	635	633	633	632	631	631	631	631	629	629	631	631	631	695	695	695	695	694	694	693	693	693	693	691	691	691	693	693	694	697	697	698	698	695	695	695	695	694	694	695	695	697	697	695	695	694	694	691	691	691	691	690	690	689	687	686	683	683	683	682	682	682	682	682	680	680	680	680	682	680	680	682	682	682	682	682	682	682	682	683	684	686	687	690	691	693	694	698	698	703	705	710	710	711	713	713	714	716	716	716	716	717	717	717	719	719	719	720	720	720	720	720	719	719	719	719	719	720	720	722	722	722	723	723	723	723	723	725	726	726	725	725	725	725	723	722	722	722	722	723	723	723	723	722	722	723	723	723	723	723	723	725	726	726	729	731	734	734	739	736	736	736	736	736	770	770	770	772	770	770	772	772	772	772	0	0	0	0	0	0	0	0	0	0	0	0	0	0	1698	1665	1665	1698	1698	1698	1706	1706	1706	0	0	0	0	0	0	0	0	0	0	0	0	0	0	0	0	0	0	0	0	0	0	0
0	0	0	0	0	0	0	0	0	0	0	0	0	0	0	0	0	0	0	0	0	0	0	0	0	0	0	0	0	0	0	0	858	858	856	843	843	852	850	850	850	850	850	867	867	867	871	871	871	873	873	875	878	878	880	880	882	882	884	884	884	887	887	887	889	889	894	896	898	898	901	905	908	913	915	917	917	917	917	917	1048	1048	1048	1048	1048	1052	1052	1052	1055	1055	1055	1058	1058	1058	1058	1058	1058	1058	1058	1061	1061	1064	1064	1064	1068	1068	1068	1068	1071	1071	1071	1071	1071	1074	1078	1078	1081	1081	1081	1081	1085	1085	1085	1085	1085	1085	1088	1091	1091	1095	1095	1095	1095	1098	1098	1098	1098	1098	1102	1102	1102	1102	0	894	891	891	891	891	891	894	896	896	896	896	896	896	0	666	666	666	660	660	658	657	656	656	656	656	656	657	658	658	660	660	660	661	661	661	661	661	661	661	661	661	661	661	661	661	661	661	661	662	662	662	663	663	665	665	666	666	666	666	666	666	666	666	666	667	667	667	670	670	669	669	667	667	667	666	666	666	666	666	667	669	669	669	669	669	667	667	0	611	611	603	603	601	601	601	601	600	599	599	600	601	601	602	602	604	604	605	605	604	604	605	605	605	605	606	606	605	605	606	606	606	606	607	606	606	607	607	607	607	607	607	607	608	608	608	608	608	608	608	608	608	608	608	608	612	612	613	613	614	613	613	613	612	612	611	611	611	612	612	611	611	611	612	612	609	609	612	613	613	613	612	612	613	614	615	615	616	616	616	616	616	616	616	616	616	616	617	617	617	617	618	618	618	618	618	618	618	617	618	618	618	618	619	619	619	619	620	620	620	620	622	622	622	620	620	620	620	620	620	666	666	663	663	663	662	661	660	660	660	658	657	657	657	656	656	656	656	656	656	655	653	653	652	652	652	652	651	650	650	650	651	651	650	650	651	652	651	651	651	651	650	648	648	647	647	647	646	645	645	644	642	642	642	642	642	642	634	634	633	633	632	631	629	629	629	629	629	631	631	631	631	631	634	634	694	694	693	693	691	691	690	690	690	691	691	691	691	697	697	697	693	693	693	693	693	693	693	694	694	694	694	694	694	693	691	691	691	691	693	691	691	691	691	683	683	683	682	682	682	682	680	679	679	678	678	678	676	676	678	679	679	679	679	679	680	680	683	684	686	687	689	691	693	694	698	700	705	708	710	710	710	710	711	713	713	714	714	714	714	716	716	716	717	717	717	719	719	719	717	717	717	717	717	717	717	717	717	717	717	717	719	719	719	720	720	720	723	723	720	720	720	720	720	720	720	722	722	722	722	722	722	722	722	722	722	722	723	723	725	725	725	726	729	734	734	737	734	734	736	736	736	734	734	734	734	770	770	770	772	772	772	0	0	0	0	0	0	0	0	0	0	0	0	0	0	0	1665	1665	1698	1698	1698	1698	1698	1698	0	0	0	0	0	0	0	0	0	0	0	0	0	0	0	0	0	0	0	0	0	0	0
0	0	0	0	0	0	0	0	0	0	0	0	0	0	0	0	0	0	0	0	0	0	0	0	0	0	0	0	0	0	0	0	0	0	856	841	841	845	845	845	845	845	845	867	867	867	869	869	871	873	873	875	878	878	880	880	880	882	884	884	884	884	887	887	889	894	894	898	898	901	903	905	908	913	915	920	920	920	920	922	1048	1048	1048	1048	1052	1052	1055	1055	1055	1058	1058	1058	1058	1058	1058	1061	1058	1058	1061	1061	1064	1064	1064	1068	1068	1068	1068	1071	1071	1071	1071	1071	1074	1078	1078	1078	1078	1078	1081	1081	1085	1085	1085	1085	1085	1088	1088	1091	1091	1095	1095	1095	1098	1098	1102	1102	1102	1102	1105	1105	1105	1102	896	896	894	894	894	894	894	894	896	896	896	896	896	896	0	0	0	0	655	655	655	655	655	655	655	655	655	655	656	657	657	658	658	660	660	660	660	660	660	660	658	658	657	657	658	658	660	660	661	661	661	661	661	661	662	661	661	662	661	661	663	663	663	663	665	665	666	666	669	669	667	667	666	666	666	665	665	665	665	665	665	666	666	666	666	666	666	666	665	665	665	665	603	600	600	600	599	599	599	599	599	600	600	600	600	602	603	603	603	604	603	603	603	604	603	603	602	602	603	604	604	605	605	605	605	605	605	606	606	606	606	606	606	607	607	607	607	607	608	608	608	608	608	608	608	607	607	607	612	612	612	611	609	609	609	609	608	609	611	609	609	609	609	609	609	608	608	609	609	609	609	611	611	611	611	612	612	613	615	615	615	615	615	615	615	615	615	615	615	615	616	617	617	617	617	617	616	616	616	615	615	616	616	616	617	618	618	618	619	619	619	620	619	619	619	618	618	618	618	618	618	616	662	662	662	661	660	660	658	658	657	657	656	656	655	655	655	655	655	655	653	653	652	652	651	651	651	650	648	648	648	648	648	648	648	648	648	648	648	645	644	644	646	646	646	646	645	645	644	642	642	641	641	640	640	641	634	634	633	632	632	632	631	629	629	629	628	628	629	629	631	631	631	634	634	634	634	635	691	689	689	690	689	689	690	690	690	690	689	689	691	690	690	690	690	690	691	691	691	693	693	694	694	694	693	691	691	691	691	693	693	693	694	694	684	683	683	682	682	682	682	680	679	679	678	678	676	675	675	675	676	678	678	678	678	679	680	682	684	686	687	689	690	693	694	698	700	705	705	707	707	707	708	708	710	710	711	711	711	711	714	714	714	714	716	716	716	714	714	716	716	716	716	716	716	716	716	716	716	716	716	717	717	717	717	719	719	719	719	717	717	717	717	719	719	719	720	720	722	722	722	722	722	722	722	722	722	723	723	723	723	723	725	728	732	732	736	734	734	734	734	734	734	734	734	734	734	736	736	0	0	0	0	0	0	0	0	0	0	0	0	0	0	0	0	0	1698	1698	1698	1698	1698	1698	1698	1698	1698	0	0	0	0	0	0	0	0	0	0	0	0	0	0	0	0	0	0	0	0	0	0	0
0	0	0	0	0	0	0	0	0	0	0	0	0	0	0	0	0	0	0	0	0	0	0	0	0	0	0	0	0	0	0	0	0	837	837	837	839	843	843	843	845	845	845	845	852	869	869	869	871	871	873	875	878	878	878	878	880	882	882	884	884	884	887	887	887	891	894	901	901	901	903	905	910	915	917	920	920	920	922	922	930	1048	1048	1052	1052	1052	1055	1055	1058	1058	1058	1058	1061	1061	1061	1061	1061	1061	1061	1061	1064	1064	1064	1068	1068	1068	1071	1071	1071	1071	1071	1071	1074	1074	1078	1078	1078	1078	1081	1081	1081	1085	1085	1085	1088	1088	1091	1095	1095	1095	1095	1098	1098	1098	1102	1102	1102	1102	1105	1105	1105	0	896	896	894	894	894	894	894	894	896	896	896	896	896	0	0	0	0	0	655	655	655	655	653	653	653	653	653	653	655	655	655	655	657	658	658	658	658	658	658	657	657	656	656	656	656	657	658	660	660	660	660	660	660	660	660	660	660	661	660	660	661	661	662	662	662	662	662	662	662	661	661	662	663	663	665	663	663	663	663	663	663	663	663	665	665	665	665	665	663	663	663	663	0	600	599	598	598	598	598	598	598	599	598	598	599	600	600	600	600	602	602	601	601	602	601	601	601	601	602	602	603	604	604	604	605	605	605	605	605	605	605	605	605	605	604	606	606	606	606	607	607	607	607	607	607	607	607	607	609	609	608	608	607	607	607	607	607	607	608	607	606	606	607	608	608	608	608	608	608	609	609	609	609	609	609	611	611	612	613	613	613	613	613	613	613	613	613	613	613	613	614	614	615	615	615	615	615	615	615	614	613	614	614	614	615	614	614	616	616	617	617	615	615	618	617	616	616	616	616	616	616	662	662	660	660	661	658	658	657	657	656	656	655	655	653	653	653	653	653	653	652	652	651	651	651	651	650	648	647	647	647	647	647	647	647	646	646	645	644	644	642	642	644	644	644	644	644	642	642	641	640	640	639	639	639	641	633	633	633	632	631	631	629	628	628	627	627	627	628	628	629	629	629	631	634	634	635	635	635	689	689	689	687	687	687	687	687	689	689	689	689	689	689	690	690	690	690	690	690	691	691	693	693	693	693	693	693	693	693	693	693	694	695	695	684	683	683	682	682	680	680	680	678	678	678	678	676	675	675	675	675	676	675	675	675	678	678	682	684	686	687	689	690	693	694	698	701	704	705	705	705	707	707	707	707	708	708	710	708	708	710	711	711	711	711	714	713	713	713	713	714	714	714	714	714	714	714	714	714	716	716	716	716	716	717	717	717	717	717	717	717	717	717	719	719	719	719	720	720	720	720	720	720	720	720	720	722	722	722	723	722	722	725	726	728	729	732	734	734	734	734	734	734	734	734	734	734	736	736	736	0	0	0	0	0	0	0	0	0	0	0	0	0	0	0	0	1690	1690	1698	1698	1698	1698	1698	1698	1698	0	0	0	0	0	0	0	0	0	0	0	0	0	0	0	0	0	0	0	0	0	0	0
0	0	0	0	0	0	0	0	0	0	0	0	0	0	0	0	0	0	0	0	0	0	0	0	0	0	0	0	0	0	0	0	0	837	837	837	837	839	839	841	841	843	845	852	852	852	871	871	871	871	873	875	878	878	878	878	880	882	882	884	884	884	887	887	887	891	894	901	901	901	905	905	910	915	917	920	922	922	922	930	1048	1048	1048	1048	1052	1052	1055	1055	1055	1058	1058	1061	1061	1061	1061	1064	1061	1061	1061	1064	1064	1064	1068	1068	1068	1068	1071	1071	1071	1071	1071	1071	1074	1078	1081	1081	1081	1081	1081	1085	1085	1085	1085	1088	1088	1091	1091	1095	1095	1095	1095	1095	1098	1098	1098	1102	1102	1105	1105	1105	1105	0	896	896	894	894	894	896	896	896	898	901	901	901	901	901	0	0	0	0	0	655	655	652	652	652	652	652	652	652	652	652	653	653	655	656	656	656	655	655	656	655	655	655	655	655	655	656	656	657	657	657	657	657	658	658	658	657	657	658	658	658	660	660	660	660	660	660	660	660	661	660	660	661	661	661	662	661	661	662	662	662	662	662	662	662	663	663	663	663	663	663	663	663	663	600	599	596	596	597	597	597	597	598	598	598	598	599	598	598	598	599	600	600	600	600	600	600	600	600	601	601	602	603	603	604	604	604	604	604	604	604	604	603	603	603	602	602	602	604	605	606	606	606	607	607	606	606	607	607	605	605	604	604	604	604	604	604	604	603	602	602	603	604	605	605	605	606	606	606	606	606	606	606	607	607	607	608	608	608	608	608	608	608	608	608	608	608	609	609	609	608	608	608	609	609	609	609	609	611	611	611	611	612	612	612	612	612	612	612	612	612	611	611	611	612	612	612	612	612	613	613	614	614	614	657	657	657	657	657	655	655	653	653	652	652	652	651	651	650	650	648	648	648	648	647	646	646	645	645	645	645	645	645	645	644	644	644	644	644	642	642	642	642	642	642	642	642	641	641	641	640	639	639	639	638	635	633	632	632	632	631	629	629	628	628	628	626	626	626	627	627	627	627	628	629	633	634	634	635	635	635	689	689	687	687	686	686	686	687	687	687	687	687	689	689	689	689	689	689	689	690	690	690	690	691	691	691	691	693	693	693	693	693	693	690	687	687	683	682	680	680	680	680	678	678	678	678	676	674	674	675	675	674	674	674	674	676	676	678	684	689	689	690	693	694	697	700	700	703	703	704	705	705	705	705	705	707	707	707	708	708	708	708	707	707	708	710	710	710	710	711	713	713	713	713	713	713	713	714	714	714	714	716	716	716	716	716	717	716	716	716	716	717	717	717	719	719	720	720	720	720	720	720	720	720	720	720	722	722	722	723	722	723	725	725	728	728	732	732	732	732	732	732	734	734	734	734	734	734	734	734	0	0	0	0	0	0	0	0	0	0	0	0	0	0	0	1690	1690	1690	1698	1698	1698	1698	1698	1698	1698	0	0	0	0	0	0	0	0	0	0	0	0	0	0	0	0	0	0	0	0	0	0	0
0	0	0	0	0	0	0	0	0	0	0	0	0	0	0	0	0	0	0	0	0	0	0	0	0	0	0	0	0	0	0	0	0	835	835	837	837	837	839	839	839	843	845	852	852	852	871	871	871	871	873	875	878	878	878	878	880	882	884	884	884	887	887	887	889	891	894	901	901	903	905	908	910	915	917	920	922	922	925	930	1048	1048	1048	1048	1052	1052	1055	1055	1055	1058	1058	1061	1061	1061	1061	1064	1061	1061	1061	1064	1064	1068	1068	1071	1071	1071	1071	1071	1074	1074	1074	1074	1078	1081	1081	1081	1081	1081	1085	1085	1088	1088	1088	1091	1091	1091	1091	1095	1095	1095	1095	1095	1098	1098	1098	1102	1102	1105	1105	1105	1105	0	896	896	896	896	896	898	898	898	901	901	901	901	901	901	0	0	0	0	0	651	651	651	651	651	651	651	651	651	651	651	652	652	652	652	653	655	653	653	653	653	653	653	653	652	652	653	655	655	656	656	656	656	657	657	657	657	657	657	657	658	657	657	658	658	658	658	658	658	658	658	658	660	660	660	661	660	660	661	661	661	661	661	661	662	662	662	662	663	663	663	663	663	663	0	595	595	596	596	596	596	596	596	597	597	597	597	597	597	597	597	598	599	599	599	599	599	599	599	600	600	601	602	602	602	603	603	596	599	600	601	600	600	600	601	600	600	600	600	601	601	601	601	600	600	599	599	600	600	599	599	600	602	602	602	602	602	602	603	602	602	602	603	604	604	604	605	605	605	605	604	604	605	604	604	604	603	603	604	604	604	604	605	606	607	607	607	607	608	608	607	607	608	608	608	607	607	607	608	608	608	609	608	608	611	611	609	609	609	609	609	609	609	609	611	611	611	612	612	612	613	612	612	612	657	657	657	656	655	655	653	652	652	652	651	651	650	650	648	648	647	647	647	646	645	645	645	644	644	644	644	644	644	644	644	644	644	644	642	640	640	640	639	639	639	639	639	639	639	639	639	638	638	636	635	634	633	632	631	628	628	626	626	626	625	624	624	624	624	624	624	625	625	626	629	633	634	634	635	635	635	635	689	684	684	684	684	684	686	686	686	686	686	687	687	687	687	687	687	687	689	689	689	689	690	690	690	690	690	690	690	690	691	691	690	687	687	684	682	680	680	680	680	678	678	678	678	675	674	674	674	674	674	672	672	672	675	676	678	691	691	691	693	694	695	697	700	700	701	703	704	704	705	705	705	705	707	707	707	708	707	707	707	707	707	707	707	707	707	707	708	710	711	711	711	711	713	713	713	713	713	713	714	714	714	714	716	716	716	716	716	716	717	717	717	719	719	720	720	720	720	720	720	720	720	720	722	722	723	723	723	723	723	723	725	726	726	729	729	731	731	732	732	732	732	732	734	734	734	734	734	0	0	0	0	0	0	0	0	0	0	0	0	0	0	0	1690	1690	1690	1690	1698	1698	1698	1698	1698	1698	0	0	0	0	0	0	0	0	0	0	0	0	0	0	0	0	0	0	0	0	0	0	0
0	0	0	0	0	0	0	0	0	0	0	0	0	0	0	0	0	0	0	0	0	0	0	0	0	0	0	0	0	0	0	0	0	835	835	835	835	835	835	837	837	839	845	850	850	850	854	873	873	873	873	875	878	878	878	878	880	882	882	884	884	887	887	887	889	891	894	901	903	903	905	908	910	915	915	917	922	922	925	932	932	1048	1048	1052	1052	1055	1055	1055	1058	1058	1058	1061	1061	1061	1061	1064	1064	1064	1064	1068	1068	1068	1068	1071	1071	1071	1071	1071	1074	1074	1074	1074	1081	1081	1081	1081	1081	1081	1088	1088	1091	1091	1091	1091	1091	1095	1095	1095	1095	1095	1098	1098	1098	1098	1098	1102	1105	1105	1105	1105	1105	0	896	896	896	896	896	898	898	898	901	901	901	901	901	0	0	0	0	0	0	651	651	651	650	650	650	650	650	650	650	650	650	651	650	650	650	650	651	651	651	651	651	652	652	652	652	652	653	653	653	653	655	655	655	655	656	655	655	656	656	656	656	656	656	656	656	657	657	657	657	657	657	657	658	658	658	658	658	660	660	660	660	660	660	658	658	661	661	662	662	662	662	662	663	595	595	595	596	595	595	595	595	595	595	594	594	594	594	594	594	595	595	595	596	596	597	596	596	596	596	597	596	596	596	596	596	596	596	597	598	599	599	599	599	599	600	599	599	599	600	599	599	598	598	598	598	599	599	598	598	598	598	599	601	601	601	601	601	601	599	599	598	598	602	602	603	603	603	603	603	603	603	603	603	603	602	602	602	603	603	603	603	603	603	605	605	605	606	607	607	606	606	606	607	606	606	606	606	606	605	605	605	606	606	606	607	608	608	608	608	608	608	608	608	608	609	609	611	611	611	612	611	611	612	612	658	657	655	655	655	652	652	651	651	651	650	648	647	647	647	647	646	646	645	645	644	644	644	644	644	644	644	642	642	642	642	641	641	640	640	639	639	639	639	639	639	639	638	638	638	638	636	636	634	633	633	631	629	628	627	627	625	625	625	624	623	623	623	623	623	623	624	624	625	625	625	634	634	635	635	633	633	633	678	676	676	678	679	679	679	679	683	684	684	686	686	686	686	686	686	687	687	687	689	689	689	689	689	687	687	689	689	689	690	689	687	687	686	682	682	682	682	683	686	687	687	678	675	674	674	674	674	672	672	672	672	672	678	693	693	691	691	693	694	695	697	700	701	701	701	703	704	704	704	705	705	705	705	705	707	707	707	705	705	705	705	705	705	705	705	707	708	710	710	710	711	711	713	713	713	713	713	714	714	714	714	714	716	716	716	714	714	716	716	716	717	719	719	720	720	720	720	720	720	720	720	722	722	723	723	723	723	723	723	725	726	726	728	728	731	731	731	732	732	732	732	732	732	732	734	734	0	0	0	0	1715	1706	1698	1698	1698	1706	1706	0	0	0	1698	1690	1690	1690	1690	1698	1698	1698	1698	1698	1698	0	0	0	0	0	0	0	0	0	0	0	0	0	0	0	0	0	0	0	0	0	0	0
0	0	0	0	0	0	0	0	0	0	0	0	0	0	0	0	0	0	0	0	0	0	0	0	0	0	0	0	0	0	0	0	0	835	835	835	835	835	835	835	837	839	845	850	850	852	854	854	873	873	873	875	878	878	878	878	880	882	882	884	884	887	887	887	889	891	898	903	903	903	905	908	910	913	915	917	922	922	925	932	932	1052	1052	1052	1052	1055	1055	1058	1058	1061	1061	1061	1061	1064	1064	1064	1064	1064	1064	1068	1068	1068	1068	1071	1071	1071	1074	1074	1074	1074	1078	1078	1081	1081	1081	1081	1081	1081	1088	1088	1091	1091	1091	1091	1095	1095	1095	1095	1095	1098	1098	1098	1098	1098	1098	1102	1105	1105	1109	1109	1109	0	896	896	896	896	896	898	898	898	901	901	901	903	903	903	0	0	0	0	0	0	647	647	647	647	648	648	648	648	648	648	650	648	648	648	647	647	648	648	650	650	650	651	651	651	651	651	651	651	651	651	651	652	653	653	653	653	653	653	653	653	653	653	655	655	655	656	656	656	656	656	656	656	656	656	656	656	656	657	657	657	657	657	658	658	658	658	660	660	661	661	660	660	660	660	595	595	594	594	593	591	591	591	592	593	592	592	592	592	592	594	594	595	595	595	595	595	594	594	594	595	595	594	594	595	595	595	595	596	596	598	598	598	598	598	598	598	598	598	598	598	598	596	596	596	597	597	597	596	596	597	597	599	599	599	599	600	600	600	599	599	597	597	598	599	599	599	600	600	600	600	600	601	602	602	601	601	601	601	601	601	601	601	601	604	604	604	604	606	606	603	603	603	605	604	604	604	604	604	604	604	604	604	605	605	606	606	607	607	607	607	607	607	608	608	607	607	609	609	609	609	609	609	612	612	658	657	653	653	652	652	650	650	650	648	647	647	646	645	645	645	644	644	644	644	642	641	641	641	641	642	641	641	641	641	641	640	640	639	639	638	638	638	638	638	638	638	638	638	638	636	636	635	634	633	632	629	628	627	626	626	624	624	624	623	622	622	622	623	623	623	624	624	624	625	634	634	636	635	635	633	633	633	678	675	675	676	676	678	678	678	678	678	679	680	682	682	682	683	683	684	684	686	686	686	686	684	684	684	684	686	687	687	689	689	687	687	687	683	682	682	683	684	686	687	687	687	687	689	674	674	672	671	671	671	671	671	694	693	693	693	693	694	694	695	697	700	700	700	700	701	701	703	704	704	704	704	704	705	705	705	705	705	705	705	705	705	705	705	705	707	708	710	710	710	710	711	711	713	713	713	713	713	713	713	713	714	714	714	714	714	714	716	716	716	716	717	719	719	719	719	719	720	720	720	720	722	723	723	723	725	723	723	723	723	725	726	726	728	731	731	731	732	732	732	732	732	732	732	732	734	0	0	0	0	1715	1706	1698	1698	1698	1698	1690	1690	1690	1690	1690	1690	1690	1690	1698	1698	1698	1698	1698	1698	1698	0	0	0	0	0	0	0	0	0	0	0	0	0	0	0	0	0	0	0	0	0	0	0
0	0	0	0	0	0	0	0	0	0	0	0	0	0	0	0	0	0	0	0	0	0	0	0	0	0	0	0	0	0	0	0	0	835	835	835	835	835	835	835	837	839	845	848	850	852	854	854	871	871	873	875	878	878	878	878	880	882	882	884	884	887	887	887	889	891	898	901	903	903	908	910	910	913	915	917	917	922	927	927	930	1052	1052	1055	1055	1058	1058	1058	1061	1061	1061	1061	1061	1064	1064	1064	1064	1068	1068	1068	1068	1068	1068	1071	1071	1074	1074	1074	1074	1078	1078	1078	1081	1081	1081	1081	1081	1081	1088	1088	1091	1091	1091	1091	1095	1095	1095	1095	1098	1098	1098	1098	1098	1102	1102	1105	1105	1109	1109	1109	1109	0	896	896	896	896	898	898	898	898	901	901	903	903	903	903	0	0	0	0	0	0	647	647	645	645	646	646	646	647	647	647	647	647	646	646	646	646	647	647	648	648	648	650	650	650	650	650	650	650	650	650	650	651	651	651	651	651	651	651	651	652	652	652	653	653	653	653	655	655	652	652	652	652	652	653	653	653	653	655	655	655	655	655	655	655	655	655	658	658	660	660	660	660	660	660	660	595	594	590	589	588	588	588	589	589	589	591	591	592	592	592	592	594	594	594	593	593	593	593	593	592	592	593	593	594	594	594	594	595	595	596	596	595	595	596	596	596	596	596	596	597	596	595	595	596	596	596	596	596	596	596	597	598	598	596	596	599	599	599	596	596	596	596	596	596	596	597	597	598	599	599	599	600	600	600	599	599	599	600	600	600	600	601	601	602	602	602	603	604	604	603	603	603	604	603	603	604	604	604	604	603	603	604	604	604	604	605	605	606	606	607	607	607	607	607	606	606	607	607	607	607	607	608	609	609	0	657	652	652	651	651	650	648	647	646	645	645	644	644	644	644	642	642	641	641	641	640	640	639	639	639	639	639	639	639	639	638	636	636	636	636	636	636	636	636	636	636	636	636	636	635	635	634	634	632	631	628	627	626	625	625	623	623	623	622	622	622	622	622	623	623	624	624	624	625	625	638	638	636	636	636	636	636	672	672	674	675	675	676	676	676	676	676	678	678	678	678	679	680	680	682	682	683	683	683	684	683	683	683	683	683	683	684	684	686	686	686	687	684	683	683	684	686	686	687	687	687	687	689	690	690	672	671	671	671	671	671	693	693	694	694	693	694	695	697	698	698	700	700	700	701	701	701	703	703	704	704	704	705	705	705	705	705	705	705	705	705	705	705	705	707	708	708	710	710	710	710	711	711	711	711	711	713	713	713	713	713	713	713	714	714	714	714	716	716	716	717	719	719	719	719	719	720	720	719	719	719	723	723	723	725	723	723	723	723	725	726	726	729	731	731	731	732	732	732	732	732	732	732	732	1706	1706	1706	1706	1698	1698	1706	1698	1698	1698	1698	1690	1690	1690	1690	1690	1690	1690	1690	1698	1698	1698	1698	1698	1698	1698	0	0	0	0	0	0	0	0	0	0	0	0	0	0	0	0	0	0	0	0	0	0	0
0	0	0	0	0	0	0	0	0	0	0	0	0	0	0	0	0	0	0	0	0	0	0	0	0	0	0	0	0	0	0	0	0	833	833	835	835	835	835	835	837	839	845	848	848	850	854	854	871	871	873	875	878	878	878	878	880	882	884	884	884	887	887	887	889	891	898	901	903	903	908	910	913	913	915	917	917	922	927	927	1055	1055	1055	1055	1055	1058	1058	1061	1061	1061	1061	1061	1064	1064	1068	1064	1064	1068	1068	1068	1068	1068	1071	1071	1071	1074	1074	1078	1078	1078	1078	1081	1081	1081	1085	1085	1085	1085	1088	1091	1091	1091	1095	1095	1095	1095	1095	1098	1098	1098	1098	1098	1098	1102	1102	1105	1105	1109	1109	1109	1109	0	894	894	894	896	898	898	898	898	901	901	903	903	903	908	908	0	0	0	0	0	0	645	645	645	645	646	646	646	646	646	646	646	646	646	646	646	647	647	647	647	647	648	648	648	648	648	648	648	648	650	650	650	648	648	647	647	648	647	647	648	650	650	650	650	650	650	650	650	651	651	651	651	651	652	652	652	652	653	653	651	651	652	652	653	653	653	653	656	657	658	660	660	660	660	660	0	590	590	588	587	587	587	588	588	588	588	589	590	590	590	590	592	592	591	591	591	590	590	591	591	591	592	592	592	594	593	593	593	592	593	594	594	594	595	595	595	595	595	595	596	595	595	595	595	595	595	595	595	595	595	596	596	596	596	596	595	595	595	595	595	595	596	596	596	596	596	596	597	598	599	599	599	599	600	599	598	598	598	599	599	599	599	599	600	600	600	601	601	601	600	600	600	602	603	602	603	602	602	603	602	602	603	603	603	603	604	604	605	605	605	605	605	606	605	604	604	605	606	605	605	605	606	609	609	0	0	652	652	650	650	648	646	645	644	642	642	642	642	641	641	641	641	640	640	640	639	639	638	638	636	636	636	636	636	635	635	635	635	635	634	634	634	635	635	635	635	635	635	635	635	634	633	632	631	628	627	626	625	624	624	622	622	622	622	622	622	622	622	623	624	624	624	624	625	626	638	638	638	638	638	636	636	672	672	672	674	674	675	675	675	676	676	676	676	678	678	678	678	679	679	680	680	682	682	683	683	683	683	683	683	683	683	684	686	686	687	687	687	686	686	687	687	687	687	687	689	689	689	690	690	691	691	693	693	693	693	693	693	694	694	694	694	695	697	698	698	700	700	700	701	701	701	701	703	704	704	704	704	704	705	705	705	705	705	705	705	705	705	705	707	707	708	708	710	710	710	710	711	711	711	711	711	711	711	711	711	711	713	713	713	711	714	714	714	716	717	719	719	720	719	719	720	720	719	719	719	723	725	725	725	723	723	723	723	725	726	726	729	731	731	731	732	732	732	732	732	732	732	1698	1698	1698	1698	1698	1698	1698	1698	1698	1698	1698	1698	1690	1690	1698	1698	1698	1698	1698	1698	1706	1698	1698	1698	1698	1698	1698	0	0	0	0	0	0	0	0	0	0	0	0	0	0	0	0	0	0	0	0	0	0	0
0	0	0	0	0	0	0	0	0	0	0	0	0	0	0	0	0	0	0	0	0	0	0	0	0	0	0	0	0	0	0	0	0	833	833	835	835	835	835	835	835	839	845	848	848	850	850	867	867	871	873	875	878	878	878	878	880	882	884	884	884	884	887	887	889	891	894	894	898	903	905	910	913	915	915	915	917	917	917	927	1055	1055	1055	1055	1055	1058	1058	1061	1061	1061	1061	1061	1064	1064	1068	1068	1068	1068	1068	1068	1071	1071	1071	1071	1074	1078	1078	1078	1078	1081	1081	1081	1081	1081	1085	1085	1085	1085	1088	1091	1091	1095	1095	1095	1095	1095	1098	1098	1098	1098	1098	1098	1102	1102	1105	1105	1105	1109	1109	1109	1109	0	894	894	894	898	898	898	898	901	901	901	903	903	903	908	908	0	0	0	0	0	0	645	639	639	641	642	644	644	645	645	645	645	644	644	645	645	646	646	646	646	646	646	644	644	644	644	645	645	645	645	645	645	644	644	645	645	646	646	646	646	647	648	648	648	648	648	648	650	648	648	650	650	650	651	651	648	648	648	648	648	648	650	650	650	650	651	651	651	652	658	658	658	658	660	660	584	584	584	584	585	585	586	586	586	588	588	588	589	588	588	587	587	588	588	588	588	588	588	589	589	590	591	591	591	591	592	591	591	591	592	592	592	592	592	593	593	593	593	593	593	594	594	594	594	594	594	594	593	593	595	595	595	595	595	595	594	594	594	594	594	595	595	595	595	595	595	595	596	597	598	597	597	597	597	596	596	596	597	597	598	598	598	598	598	599	599	599	599	599	599	598	598	599	599	599	600	601	601	602	601	601	602	602	602	602	603	603	604	604	603	603	603	603	602	602	602	603	604	604	604	604	605	605	605	0	0	652	652	650	647	646	644	642	641	641	641	641	641	640	640	641	640	640	640	639	639	638	638	636	635	635	635	635	635	634	634	634	634	633	633	632	632	633	634	634	634	634	633	633	633	633	632	629	628	628	626	625	624	623	622	622	622	622	622	622	622	622	622	623	624	624	624	624	625	626	626	638	638	638	638	0	671	671	671	671	672	672	674	674	674	675	675	675	676	676	676	678	678	678	678	679	680	680	682	682	682	683	683	683	683	683	683	684	686	686	687	687	687	687	687	687	689	689	689	689	690	690	691	693	693	693	693	693	693	693	693	694	694	694	694	694	695	695	697	698	698	698	698	698	700	700	700	701	701	703	703	703	704	704	705	705	705	705	705	705	705	705	705	705	707	707	708	708	710	710	710	710	710	710	710	710	710	710	710	710	711	711	711	711	713	711	713	714	714	716	717	719	719	719	720	720	720	720	720	719	719	723	725	725	0	0	0	0	0	0	0	0	0	0	0	0	0	0	0	1698	1698	1698	1698	1698	1698	1698	1698	1698	1698	1698	1698	1698	1698	1698	1698	1698	1698	1698	1698	1698	1698	1698	1706	1706	1706	1706	1698	1698	1698	1698	0	0	0	0	0	0	0	0	0	0	0	0	0	0	0	0	0	0	0	0	0	0	0
0	0	0	0	0	0	0	0	0	0	0	0	0	0	0	0	0	0	0	0	0	0	0	0	0	0	0	0	0	0	0	0	0	833	833	833	833	833	833	835	835	839	843	850	850	852	865	865	867	871	871	875	878	878	878	880	880	882	882	882	884	884	887	889	889	894	896	898	898	903	905	910	913	915	915	915	917	917	917	917	1055	1055	1055	1055	1058	1058	1061	1061	1061	1061	1061	1064	1064	1064	1068	1068	1068	1068	1068	1068	1071	1071	1071	1074	1074	1078	1078	1081	1081	1081	1081	1081	1081	1085	1085	1088	1088	1088	1091	1091	1095	1095	1095	1095	1095	1098	1098	1098	1098	1098	1098	1098	1102	1105	1105	1109	1109	1109	1113	1113	0	0	894	894	896	898	901	901	901	901	901	901	903	903	903	908	910	910	0	0	0	0	0	0	639	639	640	641	642	642	642	642	642	640	639	639	640	640	640	641	642	642	642	641	641	641	641	641	641	641	642	644	642	642	642	642	644	644	644	644	644	645	645	646	646	646	646	647	647	647	647	647	648	648	648	648	648	648	646	646	646	646	646	647	646	646	647	647	648	648	648	648	648	648	658	0	0	584	584	583	583	583	583	584	584	584	587	587	587	585	585	587	586	586	586	587	587	587	587	587	588	588	589	590	590	590	590	589	589	588	588	590	590	591	591	591	591	592	591	591	592	590	590	591	592	592	593	593	593	593	593	594	594	594	594	594	594	593	593	593	593	593	593	594	594	594	594	594	594	594	595	595	595	595	595	595	595	595	595	596	596	597	597	597	597	598	598	599	598	598	598	597	597	597	598	598	598	599	600	600	601	600	600	601	601	601	601	602	602	603	603	603	602	602	602	601	601	601	602	601	601	602	602	602	600	600	600	0	0	0	650	645	644	642	641	640	640	640	640	640	639	639	639	639	638	638	638	636	635	635	635	634	634	634	634	633	633	633	633	633	632	632	631	631	631	632	632	632	632	632	632	632	631	629	627	626	626	626	625	624	623	622	622	622	622	622	622	622	622	622	623	624	624	624	624	625	626	626	0	0	0	0	670	670	670	671	671	672	672	672	674	674	675	675	675	676	676	676	678	678	678	678	679	680	680	682	682	682	682	682	682	683	683	683	684	686	687	687	687	687	687	687	689	689	689	690	690	690	690	691	693	693	693	693	694	693	693	694	694	694	694	694	695	695	697	698	698	698	698	698	698	698	700	700	700	700	700	701	701	701	701	701	704	705	705	705	705	705	705	704	704	704	704	705	707	708	708	708	708	708	708	707	707	707	708	708	708	710	710	710	711	711	710	710	711	713	714	716	719	719	716	716	717	717	717	717	717	0	0	0	0	0	0	0	0	0	0	0	0	0	0	0	0	0	1698	1698	1698	1698	1698	1698	1698	1698	1698	1698	1698	1698	1698	1698	1698	1698	1698	1698	1698	1698	1698	1706	1706	1706	1706	1706	1706	1706	1706	1698	1698	1698	1698	0	0	0	0	0	0	0	0	0	0	0	0	0	0	0	0	0	0	0	0	0	0	0
0	0	0	0	0	0	0	0	0	0	0	0	0	0	0	0	0	0	0	0	0	0	0	0	0	0	0	0	0	0	0	0	0	833	833	833	833	833	833	833	837	839	843	850	850	852	865	865	867	869	871	875	875	878	878	878	880	882	882	884	884	887	887	889	889	894	896	898	901	903	905	910	913	915	917	917	920	920	920	1058	1058	1058	1058	1058	1058	1058	1061	1061	1061	1061	1064	1064	1064	1068	1068	1068	1068	1068	1068	1071	1071	1071	1071	1074	1074	1078	1078	1081	1081	1081	1081	1081	1081	1085	1085	1088	1088	1088	1088	1091	1091	1095	1095	1095	1095	1098	1098	1098	1098	1098	1098	1102	1105	1105	1109	1109	1109	1109	1113	1113	1113	0	894	896	896	898	901	901	901	901	901	901	903	903	903	908	910	910	913	913	0	0	0	0	639	639	640	640	641	639	639	638	638	638	636	636	638	638	638	639	640	640	640	639	639	639	640	640	640	641	642	642	642	642	642	642	642	642	642	642	642	642	644	644	645	645	645	646	646	646	645	645	646	647	647	647	647	647	645	645	645	645	645	646	646	646	646	646	647	647	647	646	646	646	646	646	0	584	584	582	582	581	581	581	581	584	582	582	582	582	582	583	583	583	584	586	586	586	586	587	587	588	588	588	587	587	587	586	586	587	587	588	588	589	590	590	591	591	591	591	591	590	590	591	590	590	592	592	592	592	592	593	593	593	593	593	593	592	592	592	592	592	592	592	592	593	593	593	593	593	594	594	594	593	593	594	593	593	593	594	595	596	595	595	596	596	596	596	594	593	593	596	596	596	597	597	598	599	599	599	600	599	599	599	599	599	601	601	601	602	601	601	601	601	601	600	600	600	600	600	599	600	600	600	600	600	600	600	600	0	642	642	641	640	640	639	639	639	639	638	638	638	636	636	636	635	635	635	634	634	634	633	633	633	633	632	632	632	632	632	631	631	629	629	629	628	628	628	627	627	627	627	627	626	625	625	625	625	624	623	622	620	620	620	620	620	622	622	622	623	623	624	624	624	625	625	626	626	0	0	0	0	670	670	670	671	671	671	672	672	672	672	674	675	675	676	676	676	678	678	678	678	679	680	680	682	682	682	682	682	682	682	683	683	684	686	687	687	687	687	687	687	689	689	689	690	690	690	690	691	691	691	693	693	693	693	693	693	694	694	694	694	695	695	697	697	698	698	698	698	698	700	700	700	700	700	700	700	700	700	700	700	701	703	701	701	701	703	703	703	703	703	704	705	705	707	707	708	708	707	707	707	707	707	708	708	708	710	710	710	711	711	710	710	710	711	713	716	716	719	716	716	716	717	717	717	717	0	0	0	0	0	0	0	0	0	0	0	0	0	0	0	0	1698	1698	1698	1698	1698	1698	1698	1690	1698	1698	1698	1698	1698	1698	1698	1698	1706	1698	1698	1698	1698	1698	1706	1706	1706	1706	1706	1706	1706	1706	1706	1698	1698	1698	0	0	0	0	0	0	0	0	0	0	0	0	0	0	0	0	0	0	0	0	0	0	0
0	0	0	0	0	0	0	0	0	0	0	0	0	0	0	0	0	0	0	0	0	0	0	0	0	0	0	0	0	0	0	0	0	831	831	833	833	833	833	833	835	850	850	850	850	867	867	867	867	869	869	875	878	878	878	880	880	882	884	884	884	887	887	889	891	891	896	898	901	903	905	910	913	915	917	920	920	920	920	1055	1055	1058	1058	1058	1058	1061	1061	1061	1061	1064	1064	1064	1068	1068	1071	1068	1068	1068	1071	1071	1071	1071	1071	1074	1078	1078	1078	1081	1081	1081	1081	1081	1081	1085	1085	1088	1091	1088	1088	1091	1091	1095	1095	1095	1095	1098	1098	1098	1098	1098	1102	1102	1105	1109	1109	1109	1109	1109	1113	1113	1113	0	0	896	896	898	901	901	901	901	901	901	903	905	905	908	910	910	910	910	0	0	0	0	0	641	641	640	639	638	636	636	636	635	635	635	635	635	635	635	636	638	638	638	638	639	639	640	640	640	641	641	641	641	641	641	641	641	641	641	641	641	641	641	642	642	644	645	645	645	644	644	645	645	645	645	645	645	645	644	645	645	645	645	645	645	645	645	645	646	646	646	646	646	646	645	645	584	581	581	580	580	580	579	579	579	580	580	580	580	580	581	581	581	581	583	584	584	585	585	586	586	586	585	585	585	585	585	585	585	585	586	587	588	589	589	590	590	588	588	588	588	588	589	589	589	589	590	590	591	591	592	592	592	592	592	592	591	591	591	591	591	591	591	591	592	592	592	592	592	592	592	592	592	592	592	591	591	592	592	593	593	593	593	593	594	593	593	592	592	593	592	592	591	591	593	595	597	599	597	595	595	595	595	596	596	596	597	597	597	597	598	599	599	600	599	599	599	599	599	598	598	598	598	598	599	599	599	599	0	642	642	640	639	639	638	638	638	636	636	636	636	635	635	635	634	634	633	633	633	632	632	632	632	631	631	631	631	631	631	629	629	629	628	628	628	626	626	625	625	625	625	625	624	624	624	624	623	623	622	622	620	620	620	620	620	622	622	623	623	623	624	625	625	625	625	626	626	0	0	0	670	670	670	670	671	671	671	672	672	672	672	674	675	675	676	676	676	678	678	678	679	679	680	680	680	682	682	682	682	682	682	682	683	683	684	686	687	687	687	687	687	689	689	689	689	689	690	690	690	690	691	691	693	693	693	693	693	693	693	693	694	694	695	697	697	697	697	697	697	698	698	698	698	698	698	698	698	698	698	698	698	700	700	698	698	698	700	701	701	701	701	701	703	704	705	705	705	707	707	707	707	707	707	708	710	710	710	711	711	711	711	710	710	710	711	713	713	716	0	716	716	716	717	717	717	717	0	0	0	0	0	0	0	0	0	0	0	0	0	0	0	1690	1690	1690	1690	1690	1690	1690	1690	1690	1690	1690	1698	1698	1698	1698	1698	1698	1706	1706	1698	1698	1698	1698	1698	1706	1706	1706	1706	1706	1706	1698	1698	1698	1698	1698	0	0	0	0	0	0	0	0	0	0	0	0	0	0	0	0	0	0	0	0	0	0	0
0	0	0	0	0	0	0	0	0	0	0	0	0	0	0	0	0	0	0	0	0	0	0	0	0	0	0	0	0	0	0	0	0	831	831	833	833	833	833	833	835	835	835	867	867	867	867	869	869	871	871	875	878	878	880	882	882	882	884	884	884	887	887	889	891	891	896	898	901	903	905	910	913	915	917	917	920	920	920	1055	1055	1058	1058	1058	1061	1061	1061	1061	1061	1064	1064	1064	1068	1071	1071	1071	1071	1071	1071	1071	1071	1071	1074	1074	1078	1078	1081	1081	1081	1081	1081	1081	1085	1085	1088	1091	1091	1091	1091	1091	1095	1095	1095	1095	1095	1098	1098	1098	1098	1098	1102	1105	1109	1109	1109	1109	1109	1113	1113	1113	1113	1113	0	896	896	896	896	901	901	901	901	903	903	905	910	910	910	910	910	910	910	0	0	0	0	641	641	640	638	633	633	633	633	633	633	634	634	634	634	634	635	635	635	635	635	635	636	636	636	636	638	639	639	639	639	640	640	640	640	640	640	640	640	640	640	640	641	642	644	644	644	644	644	644	644	644	644	642	642	642	642	644	644	644	644	644	644	644	644	645	645	645	645	645	645	645	645	0	580	580	580	579	578	578	579	579	579	579	579	579	579	580	580	580	580	580	583	583	584	584	584	584	584	584	584	584	584	584	584	584	585	585	586	587	588	588	589	589	588	588	588	587	587	588	587	588	586	586	586	586	586	587	590	591	591	591	590	590	588	588	589	589	588	588	589	590	590	590	590	591	589	589	589	589	589	589	589	590	590	591	591	591	591	592	592	592	592	591	590	590	591	591	591	591	591	591	592	592	591	591	592	594	594	593	593	594	595	595	595	594	594	595	597	597	598	597	597	598	598	597	597	597	597	597	597	598	598	598	598	598	598	598	638	638	636	636	636	636	635	635	635	634	634	633	633	633	633	632	632	632	632	631	631	629	629	628	628	628	628	628	628	629	628	628	627	626	625	625	624	624	624	624	623	623	623	623	623	622	622	622	622	620	620	620	620	620	622	622	623	623	623	624	625	625	625	625	626	626	0	0	669	669	670	670	671	671	671	671	672	672	672	674	675	675	675	676	676	676	678	678	678	679	679	680	680	680	682	682	682	682	682	682	682	683	683	684	686	686	686	687	687	687	689	689	689	689	689	690	690	690	690	690	691	691	691	690	690	691	691	693	693	693	694	694	695	695	697	697	695	695	697	697	697	697	697	697	697	697	697	697	697	697	697	697	697	697	697	698	698	700	700	700	700	701	701	703	703	705	705	705	705	705	707	707	707	708	708	708	710	710	711	711	710	710	710	711	713	713	0	0	716	717	717	717	717	717	717	0	0	0	0	0	0	0	0	0	0	1499	1499	1506	1506	1681	1681	1690	1690	1690	1690	1690	1690	1690	1690	1690	1690	1690	1690	1698	1698	1698	1698	1698	1698	1698	1698	1698	1698	1698	1706	1706	1706	1706	1698	1698	1698	1698	1698	1698	1698	0	0	0	0	0	0	0	0	0	0	0	0	0	0	0	0	0	0	0	0	0	0	0
0	0	0	0	0	0	0	0	0	0	0	0	0	0	0	0	0	0	0	0	0	0	0	0	0	0	0	0	0	0	0	0	0	831	831	831	831	833	833	833	833	833	835	867	867	867	867	869	869	869	871	875	878	878	878	880	882	882	884	884	884	887	887	889	891	891	896	898	901	903	905	913	913	915	917	917	920	920	920	1055	1055	1058	1058	1061	1061	1061	1061	1061	1064	1064	1068	1068	1068	1071	1071	1071	1071	1071	1071	1071	1074	1074	1074	1078	1078	1078	1081	1081	1081	1081	1081	1085	1085	1085	1088	1091	1091	1091	1091	1095	1095	1095	1098	1098	1095	1098	1098	1098	1098	1098	1102	1105	1105	1109	1109	1113	1113	1113	1113	1116	1116	1113	1113	0	896	901	901	901	901	901	901	903	905	908	910	910	910	910	910	908	908	908	908	0	0	0	641	640	638	638	629	629	632	632	632	633	633	633	634	634	634	633	633	633	633	633	633	633	634	634	634	635	635	635	636	636	636	639	639	639	638	638	638	636	636	638	639	641	642	642	642	642	642	641	641	640	640	641	641	640	640	642	642	642	642	642	642	644	644	644	644	644	644	644	641	641	641	0	580	579	579	579	578	578	578	578	578	578	578	578	578	579	579	579	580	580	581	581	581	582	582	582	583	583	583	582	582	583	583	583	584	584	585	586	586	587	587	587	587	587	587	587	587	587	586	585	584	584	584	584	584	584	586	586	586	587	586	586	586	586	586	587	587	587	587	588	588	588	588	588	588	588	588	588	588	588	589	589	589	589	590	590	590	590	590	590	589	589	589	589	590	589	589	589	590	590	591	591	591	591	591	592	593	593	593	594	594	594	592	592	592	593	591	591	591	594	595	596	596	596	596	596	596	596	596	597	597	597	597	597	598	598	635	635	635	635	635	635	635	634	634	633	633	632	631	631	631	629	629	629	629	628	628	627	626	626	626	626	626	626	627	627	627	626	626	625	624	623	623	623	623	622	622	622	622	623	622	622	622	622	622	620	620	620	620	620	622	622	623	623	624	624	625	625	626	626	626	626	0	0	669	669	670	670	671	671	672	672	672	672	672	674	675	675	675	676	676	676	678	678	678	678	679	679	679	680	680	680	680	682	682	682	682	682	683	683	684	684	686	686	687	687	689	689	690	689	689	689	689	689	689	689	690	691	691	690	690	691	691	691	691	691	691	694	694	694	695	695	694	694	695	695	695	694	694	695	695	695	695	695	695	695	694	694	694	695	695	697	697	698	698	700	700	701	701	701	701	705	705	705	725	732	732	732	732	734	734	708	710	710	711	0	0	0	0	0	0	0	0	0	0	717	717	717	717	717	0	0	0	0	0	0	0	0	1499	1499	1506	1499	1499	1499	1499	1681	1681	1681	1681	1681	1681	1681	1681	1681	1681	1690	1690	1690	1690	1690	1690	1690	1690	1690	1690	1690	1690	1690	1698	1698	1698	1698	1698	1698	1698	1698	1698	1698	1698	1698	1698	0	0	0	0	0	0	0	0	0	0	0	0	0	0	0	0	0	0	0	0	0	0	0
0	0	0	0	0	0	0	0	0	0	0	0	0	0	0	0	0	0	0	0	0	0	0	0	0	0	0	0	0	0	0	0	0	831	831	831	831	831	833	833	835	835	0	0	0	867	867	869	869	869	875	875	878	878	878	880	882	882	884	884	884	887	887	889	891	894	896	898	901	903	905	913	915	917	917	917	917	917	917	1058	1058	1058	1061	1061	1061	1061	1061	1064	1064	1064	1068	1068	1071	1071	1071	1071	1071	1071	1074	1074	1074	1074	1078	1078	1081	1081	1081	1081	1081	1081	1085	1085	1085	1088	1088	1091	1091	1095	1095	1095	1095	1095	1098	1098	1098	1098	1098	1102	1102	1102	1102	1105	1109	1109	1113	1113	1113	1113	1113	1113	1116	1116	1116	0	0	901	901	901	903	903	903	903	905	910	910	910	910	910	908	908	908	908	908	0	0	0	0	0	638	628	628	628	631	631	631	632	632	632	632	632	632	632	632	632	632	632	632	632	632	633	633	633	633	633	633	633	633	638	638	636	636	636	636	635	635	635	636	640	640	640	641	641	640	639	638	638	639	639	638	638	638	639	640	640	640	641	641	641	641	641	642	642	642	641	641	641	641	0	0	576	576	576	576	576	576	576	577	577	576	576	577	578	578	578	578	579	579	579	579	580	581	581	581	581	581	581	581	582	582	582	582	583	583	584	584	585	585	585	585	585	586	584	584	584	584	584	584	583	584	584	583	583	584	584	584	584	583	583	583	584	584	585	585	584	584	584	584	584	582	582	582	586	586	586	586	586	587	587	587	587	587	586	586	587	587	587	587	587	587	588	588	587	587	587	588	589	588	588	588	589	589	590	590	591	591	591	591	591	591	591	591	591	591	591	591	592	593	594	594	594	594	594	595	595	595	596	596	596	596	597	597	598	598	600	634	634	633	633	633	633	633	632	628	628	628	628	628	628	627	627	626	625	625	625	625	623	623	623	623	623	623	624	623	623	624	623	622	622	622	622	622	620	620	620	620	622	622	622	620	620	622	620	620	620	622	622	622	623	623	624	624	624	625	625	626	626	626	0	0	0	669	669	671	671	671	671	672	672	672	672	672	674	675	675	675	676	676	676	678	678	678	678	679	679	679	679	680	680	680	680	680	680	680	680	682	682	683	683	683	683	684	686	687	687	687	687	689	689	689	689	689	687	689	689	684	684	686	687	687	686	686	686	689	691	693	693	693	691	691	690	690	691	693	693	693	694	694	694	694	694	694	694	694	694	694	695	695	695	695	697	698	700	700	701	701	701	701	701	723	725	725	725	725	731	732	732	732	0	0	0	0	0	0	0	0	0	0	0	0	0	0	0	0	0	0	0	0	0	0	0	0	0	1519	1506	1499	1499	1499	1499	1506	1499	1499	1499	1681	1681	1681	1681	1681	1681	1681	1681	1681	1681	1681	1681	1681	1681	1681	1690	1690	1690	1690	1690	1690	1690	1690	1690	1698	1698	1698	1698	1698	1698	1698	1698	1698	1698	1698	0	0	0	0	0	0	0	0	0	0	0	0	0	0	0	0	0	0	0	0	0	0	0
