0	0	0	0	0	0	0	1142	1142	1142	1142	1142	1142	1142	1142	1146	1146	1146	1146	1146	1150	1146	1146	1146	1146	1150	1153	1153	1153	1157	1157	1157	1157	1157	1157	1161	1161	1161	1165	1165	1165	1165	1165	1165	1165	1165	1165	1173	1173	1368	1368	1368	1374	1374	1379	1379	1379	1379	1379	1379	1379	1374	1374	1374	1374	1374	1379	1379	1379	1379	1379	1385	1385	1385	1385	1385	1390	1396	1396	1396	1396	1402	1402	1402	1396	1396	1396	1396	1396	1402	1402	1402	1402	1402	1402	1402	1402	1402	1402	1402	1402	1402	1385	1379	1379	1379	1379	1560	1560	1560	1560	1567	1567	1560	1560	1553	1553	1553	1553	0	0	0	0	0	0	0	0	0	0	0	0	0	0	0	0	0	0	0	0	0	0	0	0	0	0	1374	1374	1374	1379	1385	1396	1342	1342	1342	1358	1358	1368	1374	1379	1379	1379	1385	1390	1396	1396	1396	1396	1402	1402	1402	1402	1402	1402	0	0	0	0	0	0	0	0	0	0	0	1425	1425	1413	1413	1413	1413	1413	1413	1413	1413	1413	1413	1419	1419	1419	1419	1419	1419	1419	1425	1425	1431	1431	1437	1306	1306	1306	1306	1306	1306	1311	1311	1311	1311	1311	1316	1316	1321	1321	1321	1321	1321	1326	1326	1326	1326	1331	1331	1326	1326	1326	1321	1311	1306	1306	1306	1301	1301	1301	1301	1306	1306	1306	1306	1306	1306	1311	1311	1311	1311	1311	1311	1311	0	1750	1750	1750	1750	1750	1759	1759	1759	1759	1759	1759	1759	1759	1759	1759	1768	1768	1768	1768	1768	1768	1768	1777	1777	1786	1786	1786	1786	1786	1795	1795	1795	1795	1795	0	1026	1026	1026	1023	1020	1020	1017	1017	1014	1008	1006	1006	1006	1006	1003	1003	1003	1000	1000	1000	997	997	997	994	994	991	988	988	985	985	985	983	983	980	980	977	977	977	977	977	977	977	977	977	980	977	977	980	980	980	980	980	980	980	980	980	980	980	980	980	980	980	980	980	980	983	985	985	988	988	988	988	988	991	991	994	994	1000	1000	1003	1003	1008	1008	1011	1014	1014	1017	1017	1020	0	0	0	0	0	0	0	0	0	0	0	0	0	0	0	0	0	0	0	0	0	0	0	1915	1915	1925	1925	1936	1936	1936	1936	1936	1947	1936	1936	1936	1936	1936	1936	1947	1947	1947	1947	1947	1947	1947	1947	1947	1947	1947	1947	1947	1947	1947	1947	1947	1958	1958	1958	1958	1969	1969	1969	1969	1969	1969	1980	1980	1980	1980	1980	1980	1980	1980	1980	1980	1980	1992	1992	1992	1992	1992	2003	2003	2003	2003	2003	2015	2015	2015	2015	2015	2015	2015	2015	2015	2015	2015	2015	2015	2015	2027	2027	2027	2027	2039	2039	2039	2039	2039	2051	2051	2051	2051	2051	2051	2051	2051	2051	2063	2051	2051	2051	2063	2076	2076	2063	2063	2076	2076	2063	2063	2051	2051	2039	2039	2039	2027	2027	2027	2027	2015	2015	2015	2015	2015	1992	1992	1992	0	0	0	0	0	0	0	0	0	0	0	0	0	0	0	0	0	0	0	0	0	0	0	0	0	0	0	0	0	0	0	0	0	0	0	0	0	0	0	0	0	0	0	0	0	0	0	0	0	0	0	0	0	0	0	0	0	0	0	0	0	0	0	0	0	0	0	0	0	0	0	0	0	0	0	0	0	0	0	0	0	0	0	0	0	0	0	0	0	0	0	0	0	0	0	0	0	0	0	0	0	0	0	0	0	0	0	0	0
0	0	0	0	0	0	0	1142	1142	1142	1142	1142	1142	1142	1142	1146	1146	1146	1146	1146	1146	1146	1146	1146	1146	1150	1153	1153	1153	1157	1157	1157	1157	1157	1157	1161	1161	1161	1161	1161	1165	1165	1165	1165	1165	1165	1165	1165	1379	1379	1374	1374	1368	1368	1379	1374	1374	1374	1379	1379	1379	1379	1379	1379	1379	1379	1379	1379	1379	1379	1379	1385	1385	1385	1385	1385	1390	1396	1396	1396	1396	1402	1402	1402	1402	1402	1402	1402	1402	1402	1402	1402	1402	1402	1402	1407	1407	1402	1396	1396	1402	1396	1385	1379	1379	1379	0	0	1352	1352	1352	1567	1567	1560	1553	1553	1553	1553	1553	0	0	0	0	0	0	0	0	0	0	0	0	0	0	0	0	0	0	0	0	0	0	0	1374	1379	1385	1374	1374	1374	1379	1385	1396	1379	1379	1379	1385	1379	1379	1385	1385	1385	1385	1390	1390	1396	1396	1396	1396	1396	1402	1402	1402	1402	1402	1407	0	0	0	0	0	1413	1413	1413	1413	1413	1413	1413	1413	1413	1413	1413	1413	1419	1413	1413	1413	1413	1419	1419	1419	1419	1419	1425	1425	1425	1425	1425	1425	1431	1306	1306	1306	1306	1306	1306	1311	1311	1311	1316	1316	1316	1321	1326	1326	1326	1326	1326	1326	1326	1326	1326	1331	1331	1326	1326	1326	1321	1311	1306	1306	1301	1301	1301	1301	1301	1306	1306	1306	1306	1306	1306	1311	1311	1311	1311	1311	1311	0	0	1750	1750	1750	1750	1750	1759	1759	1759	1759	1759	1759	1759	1759	1759	1759	1768	1768	1768	1768	1768	1768	1768	1777	1777	1777	1777	1786	1786	1786	1786	1786	1786	1795	1795	0	1026	1026	1026	1023	1020	1020	1017	1017	1014	1011	1008	1006	1006	1006	1003	1003	1003	1000	1000	1000	997	997	997	997	997	991	991	988	988	988	985	983	983	980	980	977	977	977	977	977	977	977	977	977	980	977	977	980	980	980	980	980	980	980	980	980	980	980	980	980	980	980	983	980	980	983	985	988	988	988	988	988	991	991	991	994	994	1000	1000	1003	1003	1008	1008	1011	1014	1014	1017	1017	0	0	0	0	0	0	0	0	0	0	0	0	0	0	0	0	0	0	0	0	0	0	0	0	1925	1925	1925	1936	1936	1936	1936	1936	1936	1947	1936	1936	1936	1936	1936	1936	1947	1947	1947	1947	1947	1947	1947	1947	1947	1947	1947	1947	1947	1947	1947	1947	1947	1958	1958	1958	1958	1969	1969	1969	1969	1969	1969	1969	1980	1980	1980	1980	1980	1980	1980	1980	1980	1992	1992	1992	1992	1992	1992	2003	2003	2003	2003	2003	2015	2015	2015	2015	2015	2015	2015	2015	2015	2015	2015	2015	2027	2027	2027	2027	2027	2027	2039	2039	2039	2039	2051	2051	2051	2051	2051	2051	2051	2051	2051	2051	2063	2063	2063	2063	2063	2076	2076	2063	2063	2076	2076	2063	2063	2063	2051	2039	2039	2039	2027	2027	2027	2027	2015	2015	2015	2015	2015	2015	0	0	0	0	0	0	0	0	0	0	0	0	0	0	0	0	0	0	0	0	0	0	0	0	0	0	0	0	0	0	0	0	0	0	0	0	0	0	0	0	0	0	0	0	0	0	0	0	0	0	0	0	0	0	0	0	0	0	0	0	0	0	0	0	0	0	0	0	0	0	0	0	0	0	0	0	0	0	0	0	0	0	0	0	0	0	0	0	0	0	0	0	0	0	0	0	0	0	0	0	0	0	0	0	0	0	0	0	0	0	0
0	0	0	0	0	0	0	1142	1142	1142	1142	1142	1142	1142	1142	1146	1146	1146	1146	1146	1146	1146	1146	1146	1150	1150	1153	1153	1153	1157	1157	1157	1157	1157	1157	1157	1161	1161	1161	1161	1165	1169	1165	1165	1165	1165	1165	1165	1379	1379	1368	1368	1368	1368	1374	1368	1368	1374	1374	1379	1385	1385	1385	1379	1379	1385	1379	1379	1379	1379	1385	1385	1385	1385	1390	1390	1396	1396	1396	1396	1402	1402	1402	1402	1407	1402	1402	1402	1402	1407	1407	1402	1402	1402	1407	1407	1407	1396	1396	1396	1390	1390	1374	1368	1368	1368	1363	1358	1352	1352	1352	1352	1352	1358	1358	1358	1363	1363	1368	1368	1368	1368	1368	0	0	0	0	0	0	0	0	1374	1374	0	0	1374	1374	1374	1374	1374	1374	1374	1374	1379	1385	1379	1374	1374	1379	1385	1390	1379	1379	1379	1385	1385	1385	1385	1385	1385	1385	1385	1390	1396	1396	1396	1396	1396	1402	1402	1402	1402	1402	1402	1407	1407	1407	1407	1407	1407	1413	1413	1413	1413	1413	1413	1413	1413	1413	1413	1413	1419	1419	1419	1413	1413	1413	1419	1419	1419	1419	1425	1425	1425	1425	1425	1425	1431	1311	1311	1306	1306	1306	1306	1311	1311	1311	1311	1311	1316	1321	1321	1321	1321	1326	1326	1326	1326	1326	1326	1331	1331	1331	1331	1326	1321	1311	1306	1306	1301	1301	1301	1301	1306	1306	1306	1306	1306	1306	1306	1311	1311	1311	1316	1316	0	0	0	1750	1750	1750	1750	1750	1759	1759	1759	1759	1759	1759	1759	1759	1759	1759	1768	1768	1768	1768	1768	1768	1768	1777	1777	1777	1777	1786	1786	1786	1786	1786	1786	1786	1786	0	1030	1030	1026	1026	1023	1023	1020	1017	1014	1011	1008	1006	1006	1006	1003	1003	1003	1003	1000	997	997	997	997	997	997	991	991	988	988	988	983	983	983	980	980	977	977	977	977	977	977	977	977	977	977	977	977	980	980	980	980	980	980	980	980	980	980	980	980	980	980	980	983	983	983	983	985	985	988	988	988	988	991	991	991	994	997	997	1000	1003	1003	1008	1008	1011	1014	1014	1017	1017	0	0	0	0	0	0	0	0	0	0	0	0	0	0	0	0	0	0	0	0	0	0	0	0	1925	1925	1925	1925	1936	1936	1936	1936	1947	1947	1947	1947	1936	1936	1936	1936	1947	1947	1947	1947	1947	1936	1936	1947	1947	1947	1947	1947	1947	1947	1947	1947	1947	1958	1958	1958	1958	1969	1969	1969	1969	1969	1969	1969	1980	1980	1980	1980	1980	1980	1980	1980	1980	1992	1992	1992	1992	1992	1992	2003	2003	2003	2003	2003	2003	2015	2015	2015	2015	2015	2015	2027	2027	2015	2015	2015	2027	2027	2027	2027	2027	2027	2039	2039	2039	2039	2051	2051	2051	2051	2051	2051	2051	2063	2063	2063	2063	2063	2063	2063	2076	2076	2076	2076	2076	2076	2076	2063	2063	2063	2051	2039	2039	2039	2027	2027	2027	2027	2027	2027	2027	2027	2027	2027	0	0	0	0	0	0	0	0	0	0	0	0	0	0	0	0	0	0	0	0	0	0	0	0	0	0	0	0	0	0	0	0	0	0	0	0	0	0	0	0	0	0	0	0	0	0	0	0	0	0	0	0	0	0	0	0	0	0	0	0	0	0	0	0	0	0	0	0	0	0	0	0	0	0	0	0	0	0	0	0	0	0	0	0	0	0	0	0	0	0	0	0	0	0	0	0	0	0	0	0	0	0	0	0	0	0	0	0	0	0	0
0	0	0	0	0	0	0	1142	1142	1142	1142	1142	1142	1142	1146	1146	1146	1146	1146	1146	1146	1146	1146	1146	1150	1150	1153	1153	1153	1157	1157	1157	1157	1157	1157	1157	1161	1161	1161	1161	1165	1169	1165	1165	1165	1165	1165	1165	1379	1379	1368	1368	1368	1368	1374	1368	1368	1374	1374	1379	1385	1385	1385	1385	1385	1385	1379	1379	1379	1385	1385	1385	1385	1390	1390	1390	1396	1402	1402	1402	1402	1407	1407	1407	1407	1402	1402	1402	1402	1407	1407	1407	1407	1407	1407	1407	0	1245	1390	1390	1390	1385	1374	1368	1363	1363	1363	1358	1358	1352	1352	1352	1352	1358	1358	1358	1363	1363	1363	1363	1368	1368	1363	1363	1363	1363	1363	0	0	0	1368	1368	1374	1374	1374	1374	1374	1374	1374	1374	1374	1374	1374	1379	1379	1379	1379	1379	1379	1385	1385	1385	1385	1385	1385	1385	1385	1385	1385	1385	1385	1385	1390	1396	1396	1396	1396	1396	1402	1402	1402	1402	1402	1402	1407	1407	1407	1402	1402	1407	1407	1407	1407	1413	1413	1413	1413	1413	1413	1413	1413	1419	1419	1419	1413	1413	1413	1419	1419	1419	1425	1425	1425	1425	1425	1425	1425	1425	1311	1311	1306	1306	1306	1306	1311	1311	1311	1311	1311	1316	1321	1321	1321	1321	1326	1326	1326	1326	1326	1326	1331	1331	1331	1331	1326	1326	1316	1311	1306	1306	1301	1301	1301	1306	1306	1306	1306	1311	1306	1306	1311	1311	1311	1316	1316	0	0	0	1759	1750	1750	1750	1750	1759	1759	1759	1759	1759	1759	1759	1759	1759	1759	1768	1768	1768	1768	1768	1768	1768	1777	1777	1777	1777	1786	1786	1786	1786	1786	1786	1786	1786	0	1030	1030	1026	1026	1023	1023	1020	1017	1014	1011	1008	1006	1006	1006	1003	1003	1003	1003	1000	997	994	994	997	997	997	991	991	988	988	985	983	980	980	980	980	980	980	977	977	977	977	977	977	977	977	977	977	977	980	980	980	980	980	980	980	980	980	980	980	980	983	983	983	980	980	983	985	985	988	988	988	988	991	991	994	994	997	997	1000	1003	1003	1008	1008	1011	1014	1014	1017	1017	0	0	0	0	0	0	0	0	0	0	0	0	0	0	0	0	0	0	0	0	0	0	0	0	0	1925	1925	1925	1936	1936	1936	1936	1947	1947	1947	1947	1936	1936	1936	1936	1947	1947	1947	1947	1947	1936	1936	1947	1947	1947	1947	1947	1947	1947	1947	1947	1947	1958	1958	1958	1958	1969	1969	1969	1969	1969	1969	1980	1980	1980	1980	1980	1980	1980	1980	1980	1980	1992	1992	1992	1992	1992	1992	2003	2003	2003	2003	2003	2003	2015	2015	2015	2015	2015	2015	2027	2027	2015	2015	2015	2027	2027	2027	2027	2027	2027	2039	2039	2039	2039	2051	2051	2051	2051	2051	2051	2051	2063	2063	2063	2076	2076	2076	2076	2076	2076	2076	2076	2076	2076	2076	2063	2063	2063	2051	2039	2039	2039	2027	2027	2027	2027	2027	2027	2027	2027	2027	2027	0	0	0	0	0	0	0	0	0	0	0	0	0	0	0	0	0	0	0	0	0	0	0	0	0	0	0	0	0	0	0	0	0	0	0	0	0	0	0	0	0	0	0	0	0	0	0	0	0	0	0	0	0	0	0	0	0	0	0	0	0	0	0	0	0	0	0	0	0	0	0	0	0	0	0	0	0	0	0	0	0	0	0	0	0	0	0	0	0	0	0	0	0	0	0	0	0	0	0	0	0	0	0	0	0	0	0	0	0	0	0
0	0	0	0	0	0	0	1142	1142	1142	1142	1142	1142	1142	1142	1142	1142	1142	1146	1146	1146	1146	1146	1146	1150	1150	1153	1153	1153	1157	1157	1157	1157	1157	1157	1157	1161	1161	1161	1161	1165	1165	1165	1165	1165	1165	1165	1385	1385	1385	1374	1368	1368	1368	1374	1374	1374	1374	1379	1379	1385	1385	1385	1385	1385	1379	1379	1379	1385	1385	1385	1385	1390	1390	1390	1390	1396	1402	1402	1402	1402	1402	1407	1407	1407	1402	1402	1402	1402	1407	1407	1407	1407	1407	1407	1240	1245	1245	1245	1390	1390	1385	1385	1363	1358	1358	1363	1358	1358	1358	1358	1358	1358	1358	1254	1254	1254	1254	1363	1363	1368	1363	1363	1363	1363	1363	1363	1363	0	1368	1368	1368	1374	1374	1374	1374	1374	1374	1374	1374	1374	1374	1374	1379	1379	1379	1379	1379	1379	1385	1385	1385	1385	1385	1385	1385	1385	1385	1385	1385	1385	1385	1390	1390	1390	1396	1396	1396	1402	1402	1402	1402	1402	1407	1407	1407	1407	1402	1402	1407	1407	1407	1407	1413	1413	1413	1413	1413	1419	1419	1419	1419	1419	1419	1413	1413	1419	1419	1419	1419	1425	1425	1425	1425	1425	1425	1425	1425	1311	1311	1306	1306	1306	1306	1311	1311	1311	1311	1311	1316	1316	1316	1316	1321	1326	1326	1326	1326	1326	1326	1331	1331	1331	1326	1326	1321	1316	1311	1306	1306	1301	1301	1301	1301	1306	1306	1306	1311	1311	1311	1311	1316	1316	1316	0	0	0	0	1759	1759	1750	1750	1750	1750	1759	1759	1759	1759	1759	1768	1768	1768	1768	1768	1768	1768	1768	1768	1768	1768	1777	1777	1777	1777	1786	1786	1786	1786	1786	1786	1786	1786	1804	1030	1030	1026	1026	1026	1023	1017	1017	1014	1011	1008	1008	1008	1006	1003	1003	1003	1003	1000	997	994	994	997	997	997	991	991	988	988	985	983	980	980	980	980	977	977	977	977	977	977	977	977	977	977	977	977	977	980	980	980	980	980	980	980	980	980	980	980	980	983	983	983	980	980	983	985	988	988	988	988	991	991	991	994	994	997	997	1000	1003	1003	1008	1008	1011	1014	1014	1017	1026	1026	0	0	0	0	0	0	0	0	0	0	0	0	0	0	0	0	0	0	0	0	0	0	0	1925	1925	1925	1925	1936	1936	1936	1936	1947	1947	1947	1947	1947	1947	1947	1947	1947	1947	1947	1947	1947	1936	1936	1947	1947	1947	1947	1947	1947	1947	1947	1947	1947	1958	1958	1958	1958	1969	1969	1969	1969	1969	1969	1980	1980	1980	1980	1980	1980	1980	1980	1980	1980	1992	1992	1992	1992	1992	1992	2003	2003	2003	2003	2003	2003	2015	2015	2015	2015	2015	2027	2027	2027	2027	2015	2015	2027	2027	2027	2027	2027	2039	2039	2039	2039	2039	2051	2039	2039	2039	2051	2051	2051	2051	2063	2063	2076	2076	2076	2076	2076	2076	2076	2076	2076	2076	2063	2063	2063	2051	2039	2039	2039	2039	2027	2027	2027	2027	2027	2027	2027	2027	2027	2027	0	0	0	0	0	0	0	0	0	0	0	0	0	0	0	0	0	0	0	0	0	0	0	0	0	0	0	0	0	0	0	0	0	0	0	0	0	0	0	0	0	0	0	0	0	0	0	0	0	0	0	0	0	0	0	0	0	0	0	0	0	0	0	0	0	0	0	0	0	0	0	0	0	0	0	0	0	0	0	0	0	0	0	0	0	0	0	0	0	0	0	0	0	0	0	0	0	0	0	0	0	0	0	0	0	0	0	0	0	0	0
0	0	0	0	0	0	0	1142	1142	1142	1142	1142	1142	1142	1142	1142	1142	1142	1146	1146	1146	1146	1146	1146	1150	1150	1153	1153	1153	1157	1157	1157	1157	1157	1157	1157	1161	1161	1161	1161	1161	1165	1165	1165	1165	1165	1165	1385	1385	1379	1379	1374	1374	1374	1379	1379	1379	1379	1379	1379	1385	1385	1385	1385	1385	1379	1379	1379	1379	1385	1385	1385	1390	1390	1390	1396	1396	1402	1396	1396	1396	1402	1402	1402	1407	1402	1402	1402	1402	1407	1407	1407	1245	1240	1240	1240	1245	1245	1245	1245	1245	1245	1363	1363	1358	1358	1363	1363	1363	1358	1358	1358	1358	1249	1249	1254	1254	1254	1363	1363	1363	1363	1363	1363	1363	1363	1363	1363	1363	1368	1368	1374	1374	1374	1374	1374	1374	1374	1374	1374	1374	1374	1379	1379	1379	1379	1379	1379	1379	1385	1385	1385	1385	1385	1385	1385	1385	1385	1385	1385	1385	1385	1390	1390	1390	1396	1396	1396	1402	1402	1407	1407	1407	1407	1407	1407	1407	1407	1407	1407	1407	1413	1413	1413	1413	1413	1419	1419	1419	1419	1419	1419	1419	1419	1419	1419	1419	1419	1419	1419	1419	1425	1425	1425	1425	1419	1419	1419	1311	1311	1306	1306	1306	1311	1311	1311	1311	1311	1316	1316	1316	1316	1316	1321	1321	1326	1326	1326	1326	1326	1331	1331	1331	1326	1326	1321	1311	1306	1306	1306	1301	1301	1301	1301	1306	1306	1306	1306	1311	1311	1311	1316	1316	0	0	0	0	0	1759	1750	1750	1750	1750	1750	1759	1759	1759	1759	1759	1768	1768	1768	1768	1768	1768	1768	1768	1768	1768	1768	1777	1777	1777	1777	1786	1786	1786	1786	1786	1786	1786	1804	1804	1804	1030	1030	1026	1026	1020	1017	1017	1014	1014	1011	1008	1008	1006	1006	1003	1003	1003	1000	997	997	997	997	997	997	991	991	988	988	985	983	983	983	980	980	977	977	977	977	977	977	977	977	977	977	977	977	977	980	980	980	980	980	980	980	980	980	980	980	980	983	983	983	983	983	983	985	988	988	988	988	991	991	991	994	997	997	1000	1000	1003	1003	1008	1008	1011	1011	1014	1017	1026	1026	0	0	0	0	0	0	0	0	0	0	0	0	0	0	0	0	0	0	0	0	0	0	0	1925	1925	1925	1925	1925	1936	1936	1936	1936	1947	1947	1947	1947	1947	1947	1947	1947	1947	1947	1947	1947	1936	1936	1947	1947	1947	1958	1958	1958	1958	1958	1958	1958	1958	1958	1958	1958	1969	1969	1969	1969	1969	1980	1980	1980	1980	1980	1980	1980	1980	1980	1980	1980	1992	1992	1992	1992	1992	1992	1992	2003	2003	2003	2003	2003	2015	2015	2015	2015	2015	2027	2027	2027	2027	2015	2015	2027	2027	2027	2027	2027	2027	2039	2039	2039	2039	2039	2039	2039	2039	2039	2039	2039	2051	2063	2063	2076	2076	2076	2076	2076	2076	2076	2076	2076	2076	2063	2063	2063	2051	2039	2039	2039	2039	2039	2027	2027	2027	2027	2027	2027	2027	2027	2027	0	0	0	0	0	0	0	0	0	0	0	0	0	0	0	0	0	0	0	0	0	0	0	0	0	0	0	0	0	0	0	0	0	0	0	0	0	0	0	0	0	0	0	0	0	0	0	0	0	0	0	0	0	0	0	0	0	0	0	0	0	0	0	0	0	0	0	0	0	0	0	0	0	0	0	0	0	0	0	0	0	0	0	0	0	0	0	0	0	0	0	0	0	0	0	0	0	0	0	0	0	0	0	0	0	0	0	0	0	0	0
0	0	0	0	0	0	0	1142	1142	1142	1142	1142	1142	1142	1142	1142	1142	1142	1142	1146	1146	1146	1146	1150	1150	1153	1157	1157	1157	1157	1157	1157	1157	1157	1157	1157	1161	1161	1161	1161	1161	1165	1165	1165	1165	1165	1165	1379	1379	1379	1379	1374	1374	1374	1379	1379	1379	1379	1379	1379	1385	1385	1385	1385	1385	1379	1379	1379	1379	1385	1385	1390	1396	1390	1390	1390	1396	1402	1396	1396	1396	1402	1402	1402	1407	1402	1402	1402	1402	1402	1407	1245	1240	1240	1240	1240	1245	1245	1245	1245	1245	1245	1245	1358	1358	1358	1363	1363	1363	1358	1358	1245	1245	1249	1249	1249	1254	1254	1254	1363	1363	1363	1363	1363	1363	1363	1363	1363	1363	1368	1368	1374	1379	1379	1379	1374	1374	1374	1374	1374	1374	1374	1379	1379	1379	1379	1379	1379	1379	1385	1385	1379	1379	1385	1385	1385	1385	1385	1385	1385	1385	1385	1390	1396	1396	1396	1396	1396	1402	1402	1407	1407	1402	1402	1407	1402	1402	1402	1402	1402	1407	1413	1413	1413	1413	1413	1419	1419	1419	1419	1419	1419	1413	1413	1413	1413	1413	1413	1419	1419	1419	1425	1425	1425	1419	1419	1419	1419	1413	1316	1306	1306	1311	1311	1311	1311	1311	1311	1321	1321	1321	1316	1316	1321	1321	1326	1326	1326	1326	1331	1331	1331	1331	1326	1326	1321	1311	1306	1306	1301	1301	1301	1301	1301	1306	1306	1306	1306	1311	1311	1311	1316	0	0	0	0	0	0	0	1741	1741	1741	1741	1750	1759	1759	1759	1759	1759	1768	1768	1768	1768	1768	1768	1768	1768	1768	1768	1768	1777	1777	1777	1777	1786	1786	1786	1786	1786	1786	1786	1795	1804	1795	1795	1036	1026	1023	1020	1017	1017	1014	1014	1011	1008	1008	1006	1006	1003	1003	1003	1000	997	997	997	997	997	997	991	991	991	988	988	985	983	983	980	980	977	977	977	977	977	977	977	977	977	977	977	977	977	977	980	980	980	980	980	980	980	980	980	983	983	983	983	985	985	985	985	988	988	988	988	991	991	991	991	994	997	997	1000	1000	1003	1003	1008	1008	1011	1011	1014	1017	1023	1026	1030	1033	0	0	0	0	0	0	0	0	0	0	0	0	0	0	0	0	0	0	0	0	0	0	1925	1925	1925	1925	1936	1936	1936	1936	1947	1947	1947	1947	1947	1947	1947	1947	1947	1947	1947	1947	1947	1947	1947	1947	1947	1958	1958	1958	1958	1958	1958	1958	1958	1958	1958	1958	1969	1969	1969	1980	1980	1980	1980	1980	1980	1980	1980	1980	1980	1980	1980	1980	1992	1992	1992	1992	1992	1992	1992	2003	2003	2003	2003	2003	2015	2015	2015	2015	2015	2027	2027	2027	2027	2027	2027	2027	2027	2027	2027	2027	2027	2039	2039	2039	2039	2039	2039	2039	2039	2039	2039	2039	2051	2063	2063	2076	2076	2076	2076	2076	2076	2076	2076	2076	2063	2063	2063	2063	2051	2039	2039	2039	2039	2039	2027	2027	2027	2027	2027	2027	2015	2015	2027	0	0	0	0	0	0	0	0	0	0	0	0	0	0	0	0	0	0	0	0	0	0	0	0	0	0	0	0	0	0	0	0	0	0	0	0	0	0	0	0	0	0	0	0	0	0	0	0	0	0	0	0	0	0	0	0	0	0	0	0	0	0	0	0	0	0	0	0	0	0	0	0	0	0	0	0	0	0	0	0	0	0	0	0	0	0	0	0	0	0	0	0	0	0	0	0	0	0	0	0	0	0	0	0	0	0	0	0	0	0	0
0	0	0	0	0	0	0	1142	1142	1142	1142	1142	1142	1142	1142	1142	1142	1142	1142	1146	1146	1146	1146	1150	1150	1153	1153	1153	1153	1157	1157	1157	1157	1157	1157	1157	1161	1161	1161	1161	1161	1165	1165	1165	1165	1165	1165	1379	1379	1379	1379	1379	1374	1374	1379	1379	1379	1379	1379	1379	1385	1385	1385	1385	1385	1385	1385	1385	1385	1385	1385	1385	1396	1390	1390	1390	1396	1396	1396	1396	1402	1402	1402	1402	1402	1402	1402	1402	1402	1402	1407	1245	1240	1240	1240	1240	1240	1240	1245	1245	1245	1245	1245	1245	1363	1363	1363	1363	1363	1358	1358	1245	1245	1249	1249	1249	1249	1249	1249	1363	1363	1363	1363	1363	1363	1363	1363	1363	1363	1368	1368	1374	1374	1379	1374	1374	1374	1374	1374	1374	1374	1374	1374	1379	1379	1379	1379	1379	1379	1385	1379	1379	1379	1385	1385	1385	1385	1385	1385	1385	1385	1385	1390	1396	1396	1396	1396	1396	1402	1402	1407	1407	1402	1402	1402	1402	1402	1402	1402	1402	1402	1407	1413	1413	1413	1413	1413	1419	1419	1419	1419	1419	1413	1413	1413	1413	1413	1413	1419	1419	1419	1425	1425	1425	1419	1419	1419	1419	1413	1316	1311	1311	1311	1311	1311	1311	1316	1316	1321	1321	1321	1316	1316	1321	1321	1326	1326	1326	1326	1331	1331	1331	1331	1326	1326	1321	1311	1306	1301	1301	1301	1301	1301	1301	1306	1306	1306	1306	1306	1311	1311	1311	0	0	0	0	0	0	0	1732	1732	1732	1741	1750	1750	1759	1759	1759	1759	1768	1768	1768	1768	1768	1768	1768	1768	1768	1768	1768	1777	1777	1786	1786	1786	1786	1786	1786	1786	1786	1795	1795	1795	1795	1795	1036	1026	1023	1020	1017	1017	1017	1014	1011	1011	1008	1006	1006	1006	1003	1003	1000	997	997	997	997	997	997	991	991	991	988	988	985	985	983	980	980	977	977	977	977	977	977	977	977	977	977	977	977	977	977	980	980	980	980	980	980	980	983	983	983	983	985	985	985	985	985	985	988	988	988	988	991	991	991	991	994	997	1000	1000	1003	1003	1006	1008	1008	1011	1014	1014	1023	1023	1026	1030	1033	0	0	0	0	0	0	0	0	0	0	0	0	0	0	0	0	0	0	0	0	0	0	1925	1925	1936	1936	1936	1936	1936	1947	1947	1947	1947	1947	1947	1947	1947	1947	1947	1947	1947	1947	1947	1947	1947	1947	1947	1958	1958	1958	1958	1958	1958	1958	1958	1958	1958	1969	1969	1980	1980	1980	1980	1980	1980	1980	1980	1980	1980	1980	1980	1980	1980	1980	1992	1992	1992	1992	1992	1992	1992	2003	2003	2003	2003	2003	2015	2015	2015	2015	2015	2027	2027	2027	2027	2027	2027	2027	2027	2027	2027	2027	2039	2039	2039	2039	2039	2039	2039	2039	2051	2051	2051	2051	2063	2063	2063	2076	2076	2076	2076	2076	2076	2076	2076	2076	2063	2063	2063	2063	2051	2051	2051	2039	2039	2039	2027	2027	2027	2027	2027	2015	2015	2015	2015	0	0	0	0	0	0	0	0	0	0	0	0	0	0	0	0	0	0	0	0	0	0	0	0	0	0	0	0	0	0	0	0	0	0	0	0	0	0	0	0	0	0	0	0	0	0	0	0	0	0	0	0	0	0	0	0	0	0	0	0	0	0	0	0	0	0	0	0	0	0	0	0	0	0	0	0	0	0	0	0	0	0	0	0	0	0	0	0	0	0	0	0	0	0	0	0	0	0	0	0	0	0	0	0	0	0	0	0	0	0	0
0	0	0	0	0	0	0	1146	1142	1142	1142	1142	1142	1142	1142	1142	1142	1142	1142	1146	1146	1146	1146	1150	1150	1153	1153	1153	1153	1157	1157	1157	1157	1157	1157	1157	1161	1161	1161	1161	1161	1161	1165	1165	1165	1169	1169	1169	1379	1379	1379	1379	1374	1374	1379	1379	1379	1379	1379	1379	1385	1385	1385	1385	1390	1385	1385	1385	1385	1385	1385	1385	1396	1390	1390	1390	1390	1396	1396	1396	1402	1402	1402	1402	1402	1402	1402	1402	1402	1407	1240	1240	1240	1240	1240	1240	1240	1240	1240	1240	1245	1245	1245	0	1363	1363	1363	1363	1363	1358	1358	1245	1245	1249	1249	1249	1249	1249	1249	1363	1363	1363	1363	1363	1363	1363	1363	1363	1368	1368	1374	1374	1374	1374	1374	1374	1374	1374	1374	1374	1374	1374	1374	1379	1379	1379	1379	1379	1379	1385	1379	1379	1379	1385	1385	1385	1385	1385	1385	1385	1390	1396	1396	1396	1396	1396	1396	1396	1402	1402	1402	1407	1402	1402	1402	1402	1402	1402	1402	1402	1402	1407	1413	1413	1413	1413	1413	1419	1419	1419	1419	1419	1419	1419	1419	1413	1413	1413	1419	1419	1419	1425	1425	1425	1419	1419	1419	1419	1413	1316	1311	1311	1316	1311	1311	1316	1321	1321	1321	1321	1321	1321	1321	1321	1321	1326	1326	1326	1326	1326	1331	1331	1331	1326	1321	1316	1306	1306	1301	1301	1301	1301	1301	1301	1306	1306	1306	1306	1306	1311	1311	1311	0	0	0	0	0	0	0	1732	1732	1732	1741	1750	1750	1750	1759	1759	1759	1768	1768	1768	1768	1768	1768	1768	1768	1768	1768	1768	1777	1777	1777	1777	1786	1786	1786	1786	1786	1786	1786	1795	1795	1795	1795	1795	1026	1023	1020	1017	1017	1017	1014	1014	1011	1008	1008	1006	1006	1003	1003	1003	1000	1000	1000	1000	997	997	991	991	991	988	988	985	985	983	980	980	977	977	977	977	977	977	977	977	977	977	977	977	977	980	980	980	980	980	980	980	983	983	983	983	985	985	985	988	988	985	985	988	988	988	991	991	991	991	991	994	997	1000	1000	1003	1003	1006	1008	1008	1011	1014	1017	1023	1023	1026	1030	1030	0	0	0	0	0	0	0	0	0	0	0	0	0	0	0	0	0	0	0	0	0	0	1925	1925	1936	1936	1936	1936	1947	1947	1947	1947	1947	1947	1947	1947	1947	1947	1947	1947	1947	1947	1947	1947	1947	1947	1947	1958	1958	1958	1958	1958	1958	1958	1958	1958	1958	1969	1969	1980	1980	1980	1980	1980	1980	1980	1980	1980	1980	1980	1980	1980	1980	1980	1992	1992	1992	1992	1992	1992	1992	2003	2003	2003	2003	2003	2003	2015	2015	2015	2015	2027	2027	2027	2027	2027	2027	2027	2027	2027	2027	2027	2039	2039	2039	2039	2039	2039	2039	2039	2051	2051	2051	2051	2063	2063	2063	2076	2076	2076	2076	2076	2076	2076	2076	2076	2076	2063	2063	2063	2051	2051	2051	2039	2039	2039	2027	2027	2027	2027	2027	2015	2015	2015	2015	0	0	0	0	0	0	0	0	0	0	0	0	0	0	0	0	0	0	0	0	0	0	0	0	0	0	0	0	0	0	0	0	0	0	0	0	0	0	0	0	0	0	0	0	0	0	0	0	0	0	0	0	0	0	0	0	0	0	0	0	0	0	0	0	0	0	0	0	0	0	0	0	0	0	0	0	0	0	0	0	0	0	0	0	0	0	0	0	0	0	0	0	0	0	0	0	0	0	0	0	0	0	0	0	0	0	0	0	0	0	0
0	0	0	0	0	0	0	1146	1142	1142	1142	1142	1142	1142	1142	1142	1142	1142	1142	1146	1146	1146	1150	1150	1153	1153	1157	1157	1157	1157	1157	1157	1157	1157	1157	1161	1157	1157	1161	1161	1161	1161	1165	1165	1169	1169	1169	0	0	1379	1379	1379	1379	1379	1379	1379	1379	1379	1379	1379	1385	1385	1385	1385	1385	1385	1385	1385	1385	1385	1385	1385	1396	1390	1390	1390	1390	1396	1396	1396	1396	1402	1402	1402	1402	1402	1402	1402	1402	1407	1236	1236	1236	1236	1240	1240	1240	1240	1240	1240	1240	1245	1245	1240	1363	1363	1363	1363	1363	1363	1363	1245	1245	1249	1249	1249	1249	1249	1363	1363	1363	1363	1363	1363	1363	1363	1363	1363	1368	1368	1368	1368	1374	1374	1374	1374	1374	1374	1374	1374	1374	1374	1374	1379	1379	1379	1379	1379	1379	1379	1385	1379	1379	1385	1385	1385	1385	1385	1385	1390	1390	1390	1396	1396	1396	1396	1396	1402	1402	1402	1402	1407	1402	1402	1402	1402	1402	1402	1402	1402	1407	1413	1413	1413	1413	1419	1419	1419	1419	1419	1419	1419	1419	1419	1419	1413	1413	1413	1419	1419	1419	1425	1425	1425	1419	1419	1419	1425	1425	1316	1311	1311	1316	1316	1316	1316	1321	1321	1321	1321	1321	1321	1321	1321	1321	1326	1326	1326	1326	1326	1331	1331	1331	1326	1321	1316	1306	1306	1301	1301	1301	1301	1301	1301	1306	1306	1306	1306	1306	1306	1306	1311	1311	0	0	0	0	0	0	1732	1732	1741	1741	1750	1750	1750	1759	1759	1759	1768	1768	1768	1768	1768	1768	1768	1768	1768	1768	1768	1777	1777	1777	1777	1786	1786	1786	1786	1786	1786	1786	1795	1795	1795	1795	1795	1026	1023	1020	1020	1017	1017	1014	1014	1011	1008	1008	1006	1006	1003	1003	1003	1003	1000	1000	1000	997	997	991	991	991	988	988	985	985	985	980	980	980	977	977	977	977	977	977	977	977	977	977	977	980	980	980	980	980	980	980	980	980	980	980	983	985	988	988	988	988	985	985	988	988	988	991	991	991	991	991	994	997	1000	1000	1003	1006	1006	1008	1011	1011	1014	1017	1017	1023	1026	1030	1030	0	0	0	0	0	0	0	0	0	0	0	0	0	0	0	0	0	0	0	0	0	0	1925	1925	1936	1936	1936	1936	1947	1947	1947	1947	1947	1947	1947	1947	1947	1947	1947	1947	1947	1947	1947	1947	1947	1947	1947	1958	1958	1958	1958	1958	1958	1958	1958	1958	1969	1969	1969	1980	1980	1980	1980	1980	1980	1980	1980	1980	1980	1980	1980	1980	1992	1992	1992	1992	1992	1992	1992	1992	2003	2003	2003	2003	2003	2003	2003	2003	2015	2015	2015	2027	2027	2027	2027	2027	2027	2027	2027	2027	2027	2027	2027	2027	2039	2039	2039	2039	2039	2039	2051	2051	2051	2051	2051	2063	2063	2076	2076	2076	2076	2076	2076	2076	2076	2076	2076	2076	2063	2063	2051	2051	2051	2039	2039	2039	2039	2027	2027	2027	2027	2015	2015	2015	0	0	0	0	0	0	0	0	0	0	0	0	0	0	0	0	0	0	0	0	0	0	0	0	0	0	0	0	0	0	0	0	0	0	0	0	0	0	0	0	0	0	0	0	0	0	0	0	0	0	0	0	0	0	0	0	0	0	0	0	0	0	0	0	0	0	0	0	0	0	0	0	0	0	0	0	0	0	0	0	0	0	0	0	0	0	0	0	0	0	0	0	0	0	0	0	0	0	0	0	0	0	0	0	0	0	0	0	0	0	0	0
0	0	0	0	0	0	0	1146	1142	1142	1142	1142	1142	1142	1146	1142	1142	1142	1142	1146	1146	1150	1150	1150	1153	1153	1157	1157	1157	1157	1157	1157	1157	1157	1157	1161	1157	1157	1161	1161	1161	1161	1165	1165	1165	1169	1169	0	0	1173	0	0	1379	1379	1379	1379	1379	1379	1379	1379	1379	1385	1385	1385	1385	1385	1385	1385	1385	1385	1385	1385	1390	1390	1390	1390	1390	1396	1396	1396	1396	1396	1402	1402	1402	1402	1402	1402	1402	1232	1232	1236	1236	1236	1240	1240	1240	1240	1240	1240	1240	1240	1240	1240	1236	1363	1363	1363	1363	1363	1363	1245	1245	1249	1249	1249	1249	1249	1363	1363	1363	1363	1363	1363	1363	1363	1363	1368	1368	1368	1368	1368	1374	1374	1374	1374	1374	1374	1374	1374	1374	1374	1374	1374	1379	1379	1379	1379	1379	1379	1379	1379	1385	1385	1385	1385	1385	1385	1390	1390	1390	1390	1396	1396	1396	1396	1396	1402	1402	1402	1402	1407	1402	1402	1402	1402	1407	1407	1402	1402	1407	1413	1413	1413	1413	1419	1419	1419	1419	1419	1419	1419	1413	1413	1419	1419	1419	1419	1419	1419	1419	1425	1425	1425	1425	1425	1425	1431	1431	1316	1311	1311	1316	1316	1316	1321	1321	1321	1321	1326	1326	1321	1321	1321	1321	1326	1326	1326	1326	1326	1331	1331	1331	1331	1326	1321	1311	1306	1301	1301	1301	1301	1301	1301	1306	1306	1306	1306	1306	1306	1306	1306	1311	0	0	0	0	0	0	1732	1732	1741	1741	1750	1750	1759	1759	1759	1759	1768	1768	1768	1768	1768	1768	1768	1768	1768	1768	1768	1777	1777	1777	1777	1777	1786	1786	1786	1786	1786	1786	1795	1795	1795	1795	1795	1036	1026	1020	1020	1017	1017	1014	1014	1014	1011	1008	1006	1006	1006	1003	1003	1003	1003	1003	1000	997	997	991	991	991	988	988	985	985	985	985	980	980	977	977	977	977	977	977	977	977	977	977	977	980	980	980	980	983	983	983	980	980	980	980	983	988	988	988	988	988	988	988	988	988	991	991	991	991	991	991	997	997	1000	1000	1003	1006	1006	1008	1011	1014	1014	1017	1017	1023	1026	1030	0	0	0	0	0	0	0	0	0	0	0	0	0	0	0	0	0	0	0	0	0	0	0	1925	1925	1936	1936	1936	1936	1947	1947	1947	1947	1947	1947	1947	1947	1947	1947	1947	1947	1947	1947	1947	1947	1947	1947	1947	1958	1958	1958	1958	1958	1958	1958	1958	1958	1969	1969	1969	1980	1980	1980	1980	1980	1980	1980	1980	1980	1980	1980	1980	1980	1980	1992	1992	1992	1992	1992	2003	2003	2003	2003	2003	2003	2003	2003	2003	2003	2015	2015	2015	2027	2027	2027	2027	2027	2027	2027	2027	2027	2027	2027	2027	2027	2039	2039	2039	2039	2039	2039	2039	2051	2051	2051	2051	2063	2063	2063	2063	2063	2076	2076	2076	2076	2076	2076	2076	2076	2063	2063	2051	2051	2051	2039	2039	2039	2039	2027	2027	2027	2027	2015	2015	2003	2003	0	0	0	0	0	0	0	0	0	0	0	0	0	0	0	0	0	0	0	0	0	0	0	0	0	0	0	0	0	0	0	0	0	0	0	0	0	0	0	0	0	0	0	0	0	0	0	0	0	0	0	0	0	0	0	0	0	0	0	0	0	0	0	0	0	0	0	0	0	0	0	0	0	0	0	0	0	0	0	0	0	0	0	0	0	0	0	0	0	0	0	0	0	0	0	0	0	0	0	0	0	0	0	0	0	0	0	0	0	0	0
0	0	0	0	0	0	0	1146	1142	1142	1142	1142	1142	1142	1146	1142	1142	1142	1142	1146	1146	1150	1150	1153	1153	1153	1157	1157	1157	1157	1157	1157	1157	1161	1161	1161	1161	1161	1161	1161	1161	1161	1165	1165	1165	1165	1169	0	0	0	0	0	1379	1379	1379	1379	1379	1374	1374	1374	1379	1379	1385	1385	1385	1385	1385	1385	1385	1385	1385	1385	1390	1390	1390	1390	1390	1396	1396	1396	1396	1396	1402	1402	1402	1402	1402	1402	1227	1227	1227	1232	1232	1236	1236	1240	1240	1240	1240	1240	1240	1240	1236	1236	1236	1352	1352	1358	1363	1363	1358	1245	1245	1245	1245	1249	1249	1249	1363	1363	1363	1363	1363	1363	1363	1368	1368	1368	1368	1368	1374	1374	1374	1374	1374	1374	1374	1374	1374	1374	1374	1374	1374	1374	1379	1379	1379	1379	1379	1379	1379	1379	1385	1385	1385	1385	1385	1385	1390	1390	1396	1396	1396	1396	1396	1396	1396	1402	1402	1402	1402	1402	1402	1402	1407	1407	1407	1407	1407	1407	1407	1413	1413	1413	1413	1419	1419	1419	1419	1419	1419	1419	1413	1413	1419	1419	1419	1419	1419	1419	1419	1425	1425	1425	1425	1425	1425	1431	1316	1316	1311	1311	1316	1316	1321	1321	1321	1321	1321	1326	1326	1326	1326	1326	1326	1326	1326	1326	1331	1331	1331	1331	1331	1331	1326	1321	1311	1306	1301	1301	1301	1301	1306	1306	1306	1306	1306	1306	1306	1306	1306	1306	1311	0	0	0	0	0	0	1741	1741	1741	1741	1750	1750	1759	1759	1759	1759	1768	1768	1768	1768	1768	1768	1768	1768	1768	1768	1768	1777	1777	1777	1777	1777	1786	1786	1786	1786	1786	1786	1795	1795	1795	1795	1795	1804	1026	1020	1020	1020	1017	1017	1017	1014	1011	1008	1006	1006	1006	1003	1003	1003	1003	1003	1003	1000	997	994	991	991	988	988	985	985	985	985	983	980	977	977	977	977	977	977	977	977	980	980	980	980	980	983	983	983	983	983	985	983	983	983	983	988	988	988	988	988	988	988	988	991	991	991	991	991	991	994	997	997	1003	1003	1003	1006	1006	1008	1011	1014	1014	1017	1020	1026	1030	0	0	0	0	0	0	0	0	0	0	0	0	0	0	0	0	0	0	0	0	0	0	0	0	1925	1925	1936	1936	1936	1936	1947	1947	1947	1947	1947	1947	1947	1947	1947	1947	1947	1947	1947	1947	1947	1947	1947	1947	1947	1958	1958	1958	1958	1958	1958	1958	1958	1958	1969	1969	1969	1980	1980	1980	1980	1980	1980	1980	1980	1980	1980	1980	1980	1980	1980	1992	1992	1992	1992	1992	2003	2003	2003	2003	2003	2003	2003	2003	2003	2003	2015	2015	2027	2027	2027	2027	2027	2027	2027	2027	2027	2027	2027	2027	2027	2027	2039	2039	2039	2039	2039	2039	2039	2051	2051	2051	2051	2063	2063	2063	2063	2063	2076	2076	2076	2076	2076	2076	2076	2076	2063	2063	2051	2051	2051	2039	2039	2039	2039	2027	2027	2027	2027	2015	2015	2003	2003	0	0	0	0	0	0	0	0	0	0	0	0	0	0	0	0	0	0	0	0	0	0	0	0	0	0	0	0	0	0	0	0	0	0	0	0	0	0	0	0	0	0	0	0	0	0	0	0	0	0	0	0	0	0	0	0	0	0	0	0	0	0	0	0	0	0	0	0	0	0	0	0	0	0	0	0	0	0	0	0	0	0	0	0	0	0	0	0	0	0	0	0	0	0	0	0	0	0	0	0	0	0	0	0	0	0	0	0	0	0	0
0	0	0	0	0	0	0	1146	1142	1142	1142	1142	1142	1146	1146	1142	1142	1146	1146	1146	1146	1153	1153	1153	1153	1153	1157	1157	1157	1157	1157	1157	1161	1161	1161	1161	1161	1161	1161	1161	1161	1161	1165	1165	1165	1165	1169	1173	0	0	0	0	0	1379	1379	1379	1379	1374	1374	1374	1374	1379	1379	1379	1385	1385	1385	1385	1379	1379	1385	1385	1385	1385	1385	1390	1390	1396	1396	1396	1396	1402	1402	1402	1402	1402	1402	1232	1227	1227	1227	1227	1232	1232	1236	1236	1236	1236	1236	1236	1240	1240	1236	1236	1352	1352	1352	1352	1358	1358	1358	1245	1245	1245	1245	1249	1249	1363	1363	1363	1363	1363	1368	1368	1368	1368	1368	1368	1368	1368	1374	1374	1374	1374	1374	1374	1368	1368	1368	1374	1374	1374	1374	1374	1374	1379	1379	1379	1379	1379	1379	1385	1385	1385	1385	1385	1385	1390	1390	1390	1396	1396	1396	1396	1396	1396	1396	1396	1396	1402	1402	1402	1402	1402	1407	1407	1407	1407	1407	1407	1407	1413	1413	1413	1413	1419	1419	1419	1419	1419	1419	1419	1413	1413	1419	1419	1419	1419	1419	1419	1419	1425	1425	1431	1431	1431	1431	1431	1311	1311	1311	1311	1316	1316	1321	1321	1321	1321	1321	1326	1326	1326	1326	1326	1326	1326	1326	1326	1326	1326	1331	1331	1331	1331	1326	1321	1311	1306	1306	1306	1306	1306	1306	1306	1306	1306	1306	1306	1306	1306	1306	1306	1306	0	0	0	0	0	0	1741	1741	1741	1741	1750	1750	1750	1759	1759	1759	1759	1768	1768	1768	1768	1768	1768	1768	1768	1768	1768	1768	1768	1777	1777	1777	1786	1786	1786	1786	1786	1795	1795	1795	1795	1795	1804	1795	1030	1020	1020	1020	1020	1017	1017	1014	1011	1008	1006	1006	1006	1006	1003	1003	1003	1003	1003	1000	997	994	991	991	991	988	988	985	985	985	983	980	980	980	980	980	980	980	980	980	980	980	980	980	980	985	985	985	985	985	988	988	988	988	988	988	988	985	985	988	988	988	988	991	991	991	991	991	994	994	997	1000	1003	1003	1003	1006	1008	1011	1011	1014	1017	1017	1023	1026	1030	0	0	0	0	0	0	0	0	0	0	0	0	0	0	0	0	0	0	0	0	0	0	0	0	1936	1936	1936	1936	1936	1947	1947	1947	1947	1947	1947	1947	1947	1947	1947	1947	1947	1947	1947	1947	1947	1947	1947	1947	1947	1958	1958	1958	1958	1958	1958	1958	1958	1958	1958	1969	1969	1969	1980	1980	1980	1980	1980	1980	1980	1980	1980	1980	1980	1980	1992	1992	1992	1992	1992	1992	2003	2003	2003	2003	2003	2003	2003	2003	2003	2003	2015	2015	2027	2027	2027	2027	2027	2027	2027	2027	2027	2027	2027	2027	2027	2027	2039	2039	2039	2039	2039	2039	2039	2051	2051	2051	2051	2063	2063	2063	2063	2063	2076	2076	2076	2076	2076	2076	2076	2076	2063	2063	2063	2051	2051	2039	2039	2039	2027	2027	2027	2027	2027	2015	2015	2015	0	0	0	0	0	0	0	0	0	0	0	0	0	0	0	0	0	0	0	0	0	0	0	0	0	0	0	0	0	0	0	0	0	0	0	0	0	0	0	0	0	0	0	0	0	0	0	0	0	0	0	0	0	0	0	0	0	0	0	0	0	0	0	0	0	0	0	0	0	0	0	0	0	0	0	0	0	0	0	0	0	0	0	0	0	0	0	0	0	0	0	0	0	0	0	0	0	0	0	0	0	0	0	0	0	0	0	0	0	0	0	0
0	0	0	0	0	0	0	1142	1142	1142	1142	1142	1142	1146	1146	1142	1142	1146	1146	1150	1150	1150	1153	1153	1153	1153	1157	1157	1157	1161	1157	1157	1161	1161	1161	1161	1161	1161	1161	1165	1165	1165	1165	1169	1173	1173	1173	1173	0	0	0	0	0	0	1385	1379	1374	1368	1368	1368	1368	1368	1379	1379	1379	1379	1385	1379	1379	1379	1379	1385	1385	1385	1385	1385	1390	1390	1396	1396	1396	1402	1402	1402	1396	1396	1402	1232	1227	1227	1227	1227	1232	1232	1232	1236	1236	1236	1236	1236	1240	1240	1236	1236	1352	1352	1352	1352	1352	1358	1358	1358	1245	1245	1245	1249	1363	1363	1363	1363	1363	1363	1368	1368	1368	1368	1368	1368	1368	1374	1374	1374	1374	1374	1374	1374	1368	1368	1368	1374	1374	1374	1374	1374	1374	1379	1379	1379	1379	1379	1385	1385	1385	1385	1385	1385	1385	1385	1390	1390	1390	1390	1396	1396	1396	1396	1396	1396	1396	1402	1402	1402	1402	1402	1413	1407	1407	1407	1407	1407	1407	1413	1413	1413	1413	1419	1419	1413	1413	1413	1419	1419	1419	1419	1419	1419	1419	1419	1425	1425	1425	1425	1431	1431	1437	1437	1437	1443	1311	1311	1311	1311	1316	1316	1321	1321	1321	1321	1321	1326	1326	1326	1326	1326	1326	1326	1326	1326	1326	1326	1331	1331	1331	1331	1331	1326	1311	1306	1301	1301	1306	1306	1306	1306	1306	1306	1306	1306	1306	1306	1306	1306	1306	0	0	0	0	0	0	1732	1732	1741	1741	1750	1750	1750	1759	1759	1759	1759	1768	1768	1768	1768	1768	1768	1768	1768	1768	1768	1768	1768	1777	1777	1777	1786	1786	1786	1786	1786	1795	1795	1795	1795	1795	1795	1795	1795	1023	1020	1020	1020	1017	1017	1014	1011	1008	1006	1006	1006	1006	1003	1003	1003	1003	1000	1000	1000	994	994	991	991	991	988	985	985	985	983	980	980	980	980	980	980	980	980	980	980	980	980	980	980	985	985	985	985	985	988	988	988	988	988	988	988	985	985	988	988	991	991	991	991	991	991	991	994	997	997	1000	1003	1003	1006	1008	1008	1011	1014	1014	1017	1020	1023	1026	0	0	0	0	0	0	0	0	0	0	0	0	0	0	0	0	0	0	0	0	0	0	0	0	0	1936	1936	1936	1936	1936	1947	1947	1947	1947	1947	1947	1947	1947	1947	1947	1947	1947	1947	1958	1958	1947	1947	1947	1947	1958	1958	1958	1958	1958	1958	1958	1958	1958	1958	1958	1969	1969	1969	1980	1980	1980	1980	1980	1980	1980	1980	1980	1980	1992	1992	1992	1992	1992	1992	1992	1992	1992	2003	2003	2003	2003	2003	2003	2003	2003	2003	2015	2015	2027	2027	2027	2027	2027	2027	2027	2027	2027	2027	2027	2027	2027	2027	2039	2039	2039	2039	2039	2039	2051	2051	2051	2051	2051	2063	2063	2076	2076	2076	2076	2076	2076	2076	2076	2076	2076	2076	2076	2063	2063	2051	2051	2039	2039	2039	2027	2027	2027	2027	2027	2027	2015	2015	0	0	0	0	0	0	0	0	0	0	0	0	0	0	0	0	0	0	0	0	0	0	0	0	0	0	0	0	0	0	0	0	0	0	0	0	0	0	0	0	0	0	0	0	0	0	0	0	0	0	0	0	0	0	0	0	0	0	0	0	0	0	0	0	0	0	0	0	0	0	0	0	0	0	0	0	0	0	0	0	0	0	0	0	0	0	0	0	0	0	0	0	0	0	0	0	0	0	0	0	0	0	0	0	0	0	0	0	0	0	0	0
0	0	0	0	0	0	0	1142	1142	1142	1142	1142	1142	1146	1146	1146	1146	1146	1146	1150	1150	1150	1153	1153	1153	1153	1157	1157	1157	1157	1157	1157	1161	1161	1161	1161	1161	1161	1161	1165	1165	1169	1169	1169	1173	1173	1173	1173	0	0	0	0	0	0	0	0	1374	1368	1368	1368	1368	1368	1374	1374	1379	1379	1379	1379	1379	1379	1379	1385	1385	1385	1385	1385	1390	1390	1390	1385	1385	1396	1396	1396	1396	1396	1236	1236	1232	1232	1232	1232	1232	1232	1232	1236	1236	1236	1236	1236	1240	1240	1236	1236	1236	1352	1352	1352	1352	1358	1358	1358	1245	1245	1245	1245	1363	1363	1363	1363	1363	1363	1363	1363	1363	1368	1368	1368	1368	1368	1374	1374	1368	1368	1368	1374	1368	1368	1374	1374	1374	1374	1374	1374	1374	1379	1379	1379	1379	1379	1385	1385	1385	1385	1385	1385	1385	1385	1385	1385	1390	1390	1396	1396	1396	1396	1396	1396	1402	1402	1402	1402	1402	1402	1407	1407	1407	1407	1407	1407	1413	1413	1413	1413	1413	1413	1419	1413	1413	1413	1419	1419	1419	1419	1419	1419	1419	1419	1425	1425	1425	1425	1431	1437	1443	1443	1443	1316	1311	1311	1311	1311	1316	1316	1321	1321	1321	1321	1321	1326	1326	1326	1326	1326	1326	1326	1326	1326	1326	1326	1331	1331	1331	1331	1331	1326	1311	1306	1301	1301	1306	1306	1306	1306	1306	1306	1306	1306	1306	1306	1306	1306	1311	1311	0	0	0	0	0	1732	1732	1741	1741	1750	1750	1759	1759	1759	1759	1759	1768	1768	1768	1768	1768	1768	1768	1768	1768	1768	1768	1768	1768	1777	1786	1786	1786	1786	1786	1786	1795	1795	1795	1795	1795	1795	1804	1804	1023	1023	1023	1020	1017	1017	1014	1011	1011	1006	1006	1006	1006	1003	1003	1003	1003	1000	1000	1000	994	994	994	991	991	988	985	985	985	985	983	980	980	980	980	980	980	980	980	980	980	980	980	980	985	985	985	985	985	988	988	988	988	988	988	988	988	988	991	991	991	991	991	991	994	991	991	994	997	1003	1003	1006	1006	1006	1008	1011	1011	1014	1014	1017	1017	1020	1023	0	0	0	0	0	0	0	0	0	0	0	0	0	0	0	0	0	0	0	0	0	0	0	0	1925	1925	1936	1936	1936	1936	1947	1947	1947	1947	1947	1947	1947	1947	1947	1947	1947	1947	1947	1958	1958	1947	1947	1947	1947	1947	1958	1958	1958	1958	1958	1958	1958	1958	1958	1958	1969	1969	1969	1980	1980	1980	1980	1980	1980	1980	1980	1980	1980	1992	1992	1992	1992	1992	1992	1992	1992	1992	2003	2003	2003	2003	2003	2003	2003	2003	2015	2015	2015	2015	2015	2027	2027	2027	2027	2027	2027	2027	2027	2027	2027	2039	2039	2039	2039	2039	2039	2039	2039	2039	2051	2051	2063	2063	2063	2076	2076	2076	2076	2076	2076	2076	2076	2076	2076	2076	2076	2076	2063	2063	2051	2051	2039	2039	2039	2027	2027	2027	2027	2027	2027	2027	2027	0	0	0	0	0	0	0	0	0	0	0	0	0	0	0	0	0	0	0	0	0	0	0	0	0	0	0	0	0	0	0	0	0	0	0	0	0	0	0	0	0	0	0	0	0	0	0	0	0	0	0	0	0	0	0	0	0	0	0	0	0	0	0	0	0	0	0	0	0	0	0	0	0	0	0	0	0	0	0	0	0	0	0	0	0	0	0	0	0	0	0	0	0	0	0	0	0	0	0	0	0	0	0	0	0	0	0	0	0	0	0	0
0	0	0	0	0	0	0	1138	1138	1138	1142	1142	1142	1146	1146	1146	1146	1146	1146	1150	1150	1150	1153	1153	1153	1153	1157	1157	1157	1157	1161	1161	1161	1161	1161	1161	1161	1161	1165	1169	1169	1169	1169	1169	1173	1173	1173	1173	0	0	0	0	0	0	0	0	0	1368	1368	1363	1363	1368	1368	1374	1374	1379	1379	1379	1379	1379	1379	1385	1385	1385	1385	1385	1385	1390	1232	1232	1232	1396	1390	1390	1396	1236	1236	1236	1236	1236	1236	1236	1236	1236	1236	1236	1236	1236	1236	1236	1240	1240	1236	1236	1236	1352	1352	1352	1352	1352	1358	1358	1245	1245	1245	1245	1363	1363	1363	1363	1363	1363	1363	1363	1363	1363	1363	1368	1368	1368	1368	1374	1368	1368	1368	1368	1368	1368	1374	1374	1374	1374	1374	1374	1374	1379	1379	1379	1379	1379	1385	1385	1385	1385	1385	1385	1385	1385	1385	1385	1390	1390	1396	1396	1396	1396	1396	1396	1396	1396	1396	1402	1402	1407	1407	1407	1407	1407	1413	1413	1413	1413	1413	1413	1413	1413	1419	1419	1419	1419	1419	1419	1419	1419	1419	1419	1419	1425	1425	1425	1425	1425	1431	1437	1443	1443	1443	1316	1316	1316	1311	1311	1316	1316	1321	1321	1321	1321	1321	1326	1326	1326	1326	1326	1326	1326	1326	1326	1326	1326	1331	1331	1331	1331	1331	1326	1311	1306	1301	1301	1306	1306	1306	1306	1306	1306	1306	1306	1306	1311	1311	1311	1311	1311	0	0	0	0	0	1759	1750	1750	1750	1750	1750	1759	1759	1759	1759	1768	1768	1768	1768	1768	1768	1768	1768	1768	1768	1768	1768	1768	1768	1777	1786	1786	1786	1786	1786	1786	1795	1795	1795	1795	1795	1795	1804	1804	1804	1026	1023	1020	1020	1017	1014	1014	1011	1008	1008	1006	1006	1006	1003	1003	1003	1003	1000	1000	997	997	997	994	991	988	988	985	985	985	983	980	980	980	980	980	980	980	980	980	980	980	983	983	985	985	988	988	988	988	988	988	988	988	988	988	988	988	991	991	991	991	991	994	994	994	994	997	1000	1003	1003	1006	1006	1008	1008	1011	1011	1014	1014	1017	1017	1020	1023	0	0	0	0	0	0	0	0	0	0	0	0	0	0	0	0	0	0	0	0	0	0	0	1925	1925	1925	1936	1936	1936	1947	1947	1947	1947	1947	1947	1947	1947	1947	1947	1947	1947	1947	1947	1947	1958	1947	1947	1947	1947	1947	1947	1947	1947	1958	1958	1958	1958	1958	1958	1958	1969	1969	1969	1969	1969	1980	1980	1980	1980	1980	1980	1980	1980	1992	1992	1992	1992	1992	1992	1992	1992	1992	2003	2003	2003	2003	2003	2003	2003	2003	2015	2015	2015	2015	2015	2027	2027	2027	2027	2027	2027	2027	2027	2027	2027	2039	2039	2039	2039	2039	2039	2039	2039	2039	2051	2051	2051	2063	2063	2076	2076	2076	2076	2076	2076	2076	2076	2076	2076	2076	2076	2076	2063	2063	2051	2039	2039	2039	2027	2027	2027	2027	2027	2027	2027	2027	2027	0	0	0	0	0	0	0	0	0	0	0	0	0	0	0	0	0	0	0	0	0	0	0	0	0	0	0	0	0	0	0	0	0	0	0	0	0	0	0	0	0	0	0	0	0	0	0	0	0	0	0	0	0	0	0	0	0	0	0	0	0	0	0	0	0	0	0	0	0	0	0	0	0	0	0	0	0	0	0	0	0	0	0	0	0	0	0	0	0	0	0	0	0	0	0	0	0	0	0	0	0	0	0	0	0	0	0	0	0	0	0	0
0	0	0	0	0	0	0	1138	1138	1138	1142	1142	1146	1146	1146	1146	1146	1146	1146	1150	1150	1150	1153	1153	1153	1153	1157	1157	1157	1157	1161	1161	1161	1161	1161	1161	1161	1161	1165	1165	1169	1169	1169	1169	1173	1173	1173	1173	0	0	0	0	0	0	0	0	0	1363	1363	1363	1363	1363	1368	1368	1368	1368	1379	1379	1379	1379	1379	1385	1385	1385	1385	1385	1385	1385	1232	1232	1232	1385	1385	1385	1385	1236	1236	1236	1236	1236	1236	1236	1232	1232	1232	1232	1236	1236	1236	1236	1240	1240	1240	1240	1240	1352	1352	1352	1352	1352	1352	1352	1245	1245	1245	1245	1363	1363	1363	1363	1363	1363	1363	1363	1363	1363	1363	1368	1368	1368	1368	1368	1368	1368	1368	1368	1368	1368	1374	1374	1374	1374	1374	1374	1374	1374	1379	1379	1379	1379	1385	1390	1390	1390	1385	1385	1385	1385	1385	1385	1390	1390	1396	1396	1396	1396	1396	1396	1396	1396	1396	1402	1402	1407	1407	1407	1407	1407	1413	1413	1413	1413	1413	1419	1419	1419	1419	1419	1419	1419	1419	1419	1419	1419	1419	1419	1419	1425	1425	1425	1425	1431	1437	1437	1437	1437	1437	1321	1316	1316	1316	1316	1316	1316	1321	1321	1321	1321	1321	1326	1326	1326	1326	1326	1326	1326	1326	1326	1326	1326	1331	1331	1331	1331	1331	1331	1321	1306	1301	1301	1301	1306	1306	1306	1306	1306	1306	1306	1306	1311	1311	1311	1311	1311	0	0	0	0	0	1759	1759	1750	1750	1750	1759	1759	1759	1759	1759	1768	1768	1768	1768	1768	1768	1768	1768	1768	1768	1768	1768	1777	1777	1777	1786	1786	1786	1786	1786	1786	1795	1795	1795	1795	1795	1804	1804	1804	1804	1030	1030	1026	1020	1020	1017	1014	1014	1011	1008	1008	1006	1006	1003	1003	1003	1003	1003	1003	1000	1000	997	997	991	991	988	988	985	985	983	980	980	980	980	980	980	980	980	980	980	980	983	983	985	985	988	988	988	988	988	988	988	988	988	988	988	988	991	991	991	991	991	994	994	997	997	1000	1000	1003	1003	1006	1008	1008	1011	1011	1014	1014	1014	1017	1020	1026	0	0	0	0	0	0	0	0	0	0	0	0	0	0	0	0	0	0	0	0	0	0	0	0	1925	1925	1936	1936	1936	1936	1947	1947	1947	1947	1947	1947	1947	1947	1947	1947	1947	1947	1947	1947	1947	1947	1947	1947	1947	1947	1947	1947	1947	1947	1958	1958	1958	1958	1958	1958	1958	1958	1969	1969	1969	1969	1980	1980	1980	1980	1980	1980	1980	1980	1992	1992	1992	1992	1992	1992	1992	1992	1992	2003	2003	2003	2003	2003	2003	2015	2015	2015	2015	2027	2027	2027	2027	2027	2027	2015	2015	2027	2027	2027	2027	2027	2039	2039	2039	2039	2039	2039	2039	2039	2039	2051	2051	2051	2063	2063	2076	2076	2076	2076	2076	2076	2076	2076	2076	2076	2076	2076	2076	2063	2063	2051	2039	2039	2039	2027	2027	2027	2027	2027	2027	2027	2027	2027	0	0	0	0	0	0	0	0	0	0	0	0	0	0	0	0	0	0	0	0	0	0	0	0	0	0	0	0	0	0	0	0	0	0	0	0	0	0	0	0	0	0	0	0	0	0	0	0	0	0	0	0	0	0	0	0	0	0	0	0	0	0	0	0	0	0	0	0	0	0	0	0	0	0	0	0	0	0	0	0	0	0	0	0	0	0	0	0	0	0	0	0	0	0	0	0	0	0	0	0	0	0	0	0	0	0	0	0	0	0	0	0
0	0	0	0	0	0	0	1142	1142	1142	1142	1142	1146	1146	1146	1146	1146	1146	1146	1150	1150	1150	1150	1150	1153	1153	1157	1157	1157	1161	1161	1161	1161	1161	1161	1161	1161	1161	1165	1165	1169	1169	1169	1169	1173	1173	1173	0	0	0	0	0	0	0	0	0	0	1363	1363	1358	1358	1363	1368	1368	1363	1363	1379	1379	1379	1379	1379	1385	1385	1385	1385	1385	1385	1385	1232	1232	1385	1385	1385	1385	1385	1236	1236	1236	1236	1236	1236	1236	1232	1232	1232	1232	1236	1368	1368	1240	1240	1245	1240	1240	1245	1352	1352	1352	1352	1352	1352	1352	1249	1245	1245	1358	1358	1363	1363	1363	1363	1363	1363	1363	1363	1363	1363	1368	1368	1368	1368	1368	1368	1368	1374	1374	1374	1374	1374	1374	1374	1374	1374	1374	1374	1374	1379	1379	1379	1379	1385	1390	1390	1385	1385	1379	1379	1379	1385	1385	1390	1390	1396	1396	1396	1396	1396	1402	1402	1402	1402	1402	1402	1407	1407	1407	1407	1407	1413	1413	1413	1413	1413	1413	1419	1419	1419	1419	1419	1419	1419	1419	1419	1419	1419	1419	1419	1425	1425	1425	1425	1431	1437	1437	1437	1437	1437	1321	1316	1316	1316	1316	1316	1321	1321	1321	1321	1321	1321	1326	1326	1326	1326	1326	1326	1326	1326	1326	1326	1326	1331	1331	1331	1331	1331	1331	1331	1311	1296	1296	1301	1306	1306	1306	1306	1306	1306	1306	1306	1311	1311	1311	1311	1311	0	0	0	0	0	1759	1759	1759	1759	1759	1759	1759	1759	1759	1759	1768	1768	1768	1768	1768	1768	1768	1768	1768	1768	1768	1768	1777	1777	1777	1786	1786	1786	1786	1795	1795	1795	1795	1795	1795	1795	1804	1795	1795	1795	1795	1030	1026	1023	1020	1017	1014	1014	1011	1011	1008	1006	1006	1006	1003	1003	1003	1003	1003	1000	1000	1000	997	994	994	991	988	988	985	983	983	980	980	980	980	980	980	980	980	980	983	983	983	985	985	988	988	988	988	988	988	988	988	988	988	988	988	991	991	991	991	994	994	994	997	997	1000	1003	1003	1006	1008	1008	1011	1011	1014	1014	1014	1017	1017	1023	1030	0	0	0	0	0	0	0	0	0	0	0	0	0	0	0	0	0	0	0	0	0	0	1915	1915	1925	1925	1936	1936	1936	1936	1947	1947	1947	1947	1947	1947	1947	1947	1947	1947	1947	1947	1947	1947	1947	1947	1947	1947	1947	1947	1947	1947	1947	1947	1958	1958	1958	1958	1958	1958	1958	1958	1969	1969	1969	1969	1980	1980	1980	1980	1980	1980	1980	1992	1992	1992	1992	1992	1992	1992	1992	1992	1992	1992	2003	2003	2003	2015	2015	2015	2015	2015	2015	2027	2027	2027	2027	2027	2027	2015	2015	2027	2027	2027	2039	2039	2039	2039	2039	2039	2039	2039	2039	2039	2039	2051	2051	2051	2063	2063	2076	2076	2076	2076	2076	2076	2076	2076	2076	2076	2076	2076	2076	2063	2063	2051	2039	2039	2039	2027	2027	2027	2027	2027	2027	2027	2027	2027	0	0	0	0	0	0	0	0	0	0	0	0	0	0	0	0	0	0	0	0	0	0	0	0	0	0	0	0	0	0	0	0	0	0	0	0	0	0	0	0	0	0	0	0	0	0	0	0	0	0	0	0	0	0	0	0	0	0	0	0	0	0	0	0	0	0	0	0	0	0	0	0	0	0	0	0	0	0	0	0	0	0	0	0	0	0	0	0	0	0	0	0	0	0	0	0	0	0	0	0	0	0	0	0	0	0	0	0	0	0	0	0
0	0	0	0	0	0	0	1142	1142	1142	1142	1146	1146	1146	1146	1146	1146	1146	1146	1150	1150	1150	1150	1150	1153	1153	1157	1157	1157	1161	1161	1161	1161	1161	1161	1161	1165	1165	1165	1165	1169	1169	1169	1173	1173	1177	0	0	0	0	0	0	0	0	0	0	0	1363	1363	1358	1358	1363	1363	1368	1363	1363	1374	1374	1374	1374	1379	1379	1385	1385	1385	1385	1385	1385	1232	1232	1236	1385	1385	1385	1385	1385	1236	1236	1236	1236	1236	1232	1232	1232	1232	1232	1379	1379	1379	1379	1245	1245	1240	1240	1245	1352	1352	1352	1352	1352	1352	1352	1254	1254	1254	1358	1358	1363	1363	1363	1363	1363	1363	1363	1363	1368	1368	1368	1368	1368	1368	1374	1368	1368	1374	1374	1374	1374	1374	1374	1374	1379	1374	1374	1374	1374	1379	1379	1379	1379	1385	1390	1390	1385	1385	1379	1379	1379	1385	1385	1390	1390	1396	1396	1396	1396	1402	1402	1402	1402	1402	1402	1402	1407	1407	1407	1407	1407	1413	1413	1413	1413	1413	1413	1419	1419	1419	1419	1419	1419	1419	1419	1419	1419	1419	1419	1419	1419	1425	1425	1425	1425	1431	1431	1437	1437	1437	1321	1321	1321	1321	1316	1316	1321	1321	1321	1321	1321	1321	1326	1326	1326	1326	1326	1326	1326	1326	1326	1326	1326	1326	1331	1331	1331	1331	1331	1331	1321	1296	1296	1301	1306	1306	1306	1306	1306	1311	1311	1311	1311	1311	1311	1311	1316	0	0	0	0	0	0	1750	1750	1759	1759	1759	1759	1759	1759	1768	1768	1768	1768	1768	1777	1777	1768	1768	1768	1768	1777	1777	1777	1777	1777	1786	1786	1786	1786	1795	1795	1795	1795	1795	1795	1795	1804	1795	1795	1795	1042	1030	1026	1023	1020	1017	1017	1014	1014	1011	1011	1008	1006	1006	1003	1003	1003	1003	1003	1000	997	997	997	994	994	991	988	988	985	985	983	980	980	980	980	980	980	980	980	980	983	983	985	985	985	985	988	988	988	988	988	988	988	988	991	991	991	991	991	991	994	994	994	997	997	1000	1003	1003	1006	1008	1008	1011	1011	1011	1014	1014	1017	1017	1017	1023	0	0	0	0	0	0	0	0	0	0	0	0	0	0	0	0	0	0	0	0	0	0	1915	1915	1915	1925	1936	1936	1936	1936	1936	1947	1947	1936	1936	1947	1947	1947	1947	1947	1947	1947	1947	1947	1947	1947	1958	1947	1947	1947	1947	1947	1947	1947	1947	1947	1947	1947	1958	1958	1958	1958	1969	1969	1969	1969	1969	1980	1980	1980	1980	1980	1980	1980	1992	1992	1992	1992	1992	1992	1992	1992	1992	1992	1992	2003	2003	2003	2015	2015	2015	2015	2015	2015	2027	2027	2027	2027	2027	2027	2027	2027	2027	2027	2027	2039	2039	2039	2039	2039	2039	2039	2039	2039	2051	2051	2051	2051	2063	2063	2063	2076	2076	2076	2076	2076	2076	2076	2076	2076	2076	2076	2076	2076	2063	2063	2051	2051	2039	2039	2039	2027	2027	2027	2027	2027	2027	2027	0	0	0	0	0	0	0	0	0	0	0	0	0	0	0	0	0	0	0	0	0	0	0	0	0	0	0	0	0	0	0	0	0	0	0	0	0	0	0	0	0	0	0	0	0	0	0	0	0	0	0	0	0	0	0	0	0	0	0	0	0	0	0	0	0	0	0	0	0	0	0	0	0	0	0	0	0	0	0	0	0	0	0	0	0	0	0	0	0	0	0	0	0	0	0	0	0	0	0	0	0	0	0	0	0	0	0	0	0	0	0	0	0
0	0	0	0	0	0	0	1142	1142	1142	1146	1146	1146	1146	1146	1146	1146	1146	1146	1150	1150	1150	1150	1150	1153	1153	1157	1157	1157	1161	1161	1161	1161	1161	1161	1161	1161	1165	1165	1165	1169	1169	1169	1173	1173	1177	0	0	0	0	0	0	0	0	0	0	0	0	1363	1358	1358	1363	1363	1368	1363	1363	1374	1374	1374	1374	1379	1379	1385	1385	1385	1385	1385	1385	1236	1236	1236	1385	1385	1385	1385	1385	1236	1232	1232	1236	1236	1232	1232	1232	1379	1379	1379	1379	1379	1379	1245	1240	1240	1240	1240	1352	1352	1352	1352	1352	1352	1352	1254	1249	1249	1358	1358	1358	1363	1363	1363	1368	1363	1363	1363	1368	1368	1368	1368	1368	1374	1374	1374	1374	1374	1374	1374	1374	1374	1374	1374	1374	1374	1374	1374	1374	1379	1379	1379	1379	1385	1390	1390	1390	1390	1385	1385	1385	1385	1385	1385	1385	1390	1396	1396	1396	1402	1402	1402	1402	1402	1402	1407	1407	1407	1407	1407	1407	1413	1413	1413	1413	1413	1413	1419	1419	1419	1419	1419	1419	1419	1419	1419	1419	1419	1419	1419	1419	1425	1425	1425	1425	1431	1431	1437	1437	1437	1316	1316	1321	1316	1316	1321	1321	1321	1321	1321	1321	1321	1321	1321	1326	1326	1326	1326	1326	1326	1326	1326	1326	1326	1331	1331	1331	1331	1331	1326	1321	1291	1291	1301	1301	1306	1306	1306	1306	1311	1311	1311	1311	1311	1311	1311	1316	0	0	0	0	0	0	1750	1750	1759	1759	1759	1759	1759	1759	1768	1768	1768	1768	1768	1777	1777	1768	1768	1768	1768	1777	1777	1777	1777	1777	1786	1786	1786	1786	1795	1795	1795	1795	1795	1795	1804	1804	1795	1795	1045	1042	1039	1030	1026	1023	1020	1017	1014	1014	1014	1011	1008	1006	1006	1003	1003	1003	1003	1003	1000	997	997	997	991	991	991	988	988	988	985	983	980	980	980	980	980	980	980	980	983	983	983	985	985	985	985	988	988	988	988	988	988	988	991	991	991	991	991	991	991	994	994	994	997	1000	1000	1003	1006	1006	1008	1008	1011	1011	1011	1014	1014	1017	1017	1020	0	0	0	0	0	0	0	0	0	0	0	0	0	0	0	0	0	0	0	0	0	1915	1915	1915	1915	1915	1925	1936	1936	1936	1936	1936	1947	1947	1936	1936	1947	1947	1947	1947	1947	1947	1947	1947	1947	1947	1958	1958	1947	1947	1947	1947	1947	1947	1947	1947	1947	1947	1947	1947	1947	1958	1958	1958	1969	1969	1969	1969	1980	1980	1980	1980	1980	1980	1992	1992	1992	1992	1992	1992	1992	1992	1992	1992	1992	2003	2003	2003	2003	2015	2015	2015	2015	2015	2015	2015	2027	2027	2027	2027	2027	2027	2027	2027	2027	2027	2039	2039	2039	2039	2039	2039	2039	2039	2039	2051	2051	2051	2051	2051	2063	2063	2063	2076	2076	2076	2076	2076	2076	2076	2076	2076	2076	2076	2063	2063	2051	2051	2051	2039	2039	2039	2027	2027	2027	2027	2015	2015	2015	0	0	0	0	0	0	0	0	0	0	0	0	0	0	0	0	0	0	0	0	0	0	0	0	0	0	0	0	0	0	0	0	0	0	0	0	0	0	0	0	0	0	0	0	0	0	0	0	0	0	0	0	0	0	0	0	0	0	0	0	0	0	0	0	0	0	0	0	0	0	0	0	0	0	0	0	0	0	0	0	0	0	0	0	0	0	0	0	0	0	0	0	0	0	0	0	0	0	0	0	0	0	0	0	0	0	0	0	0	0	0	0	0
0	0	0	0	0	0	0	1142	1142	1142	1146	1146	1146	1150	1146	1146	1150	1150	1150	1150	1150	1150	1150	1150	1153	1153	1157	1157	1157	1161	1161	1161	1161	1161	1161	1161	1161	1165	1165	1165	1169	1173	1173	1173	1173	1177	1177	0	0	0	0	0	0	0	0	0	0	0	1363	1363	1363	1363	1368	1368	1368	1368	1374	1374	1374	1374	1379	1379	1379	1385	1385	1385	1385	1385	1240	1240	1240	1385	1385	1385	1385	1385	1390	1232	1232	1236	1236	1232	1232	1236	1374	1374	1374	1374	1379	1245	1245	1240	1240	1236	1236	1236	1352	1352	1352	1352	1352	1352	1254	1249	1249	1358	1358	1358	1363	1363	1363	1368	1368	1368	1368	1363	1363	1363	1363	1363	1374	1374	1374	1374	1374	1374	1374	1374	1374	1374	1374	1374	1374	1374	1374	1374	1379	1379	1379	1379	1385	1390	1390	1390	1390	1385	1385	1385	1385	1385	1385	1385	1390	1396	1396	1396	1396	1402	1402	1402	1402	1402	1407	1407	1407	1407	1413	1413	1413	1413	1413	1413	1413	1413	1419	1419	1419	1419	1419	1419	1419	1419	1419	1419	1419	1419	1419	1419	1425	1425	1425	1431	1431	1431	1437	1437	1437	1316	1316	1321	1316	1316	1321	1321	1321	1321	1321	1321	1321	1321	1321	1326	1326	1326	1326	1326	1326	1326	1326	1331	1331	1331	1331	1331	1331	1331	1326	1321	1291	1291	1301	1301	1306	1306	1306	1306	1311	1311	1311	1311	1311	1311	1316	1316	0	0	0	0	0	1759	1759	1759	1759	1759	1759	1759	1759	1759	1768	1768	1768	1768	1768	1768	1777	1777	1777	1777	1777	1777	1777	1777	1777	1777	1786	1786	1786	1786	1786	1786	1795	1795	1795	1795	1546	1546	1546	1795	1045	1045	1042	1036	1026	1023	1020	1017	1017	1014	1014	1011	1011	1008	1006	1003	1003	1003	1003	1003	1000	997	997	994	991	991	991	988	988	988	988	985	980	980	980	983	983	980	980	983	983	985	985	988	988	988	988	988	988	988	988	988	988	991	991	991	991	991	991	991	994	997	997	997	1000	1000	1000	1003	1006	1006	1008	1008	1011	1014	1014	1017	1017	1020	1023	1023	0	0	0	0	0	0	0	0	0	0	0	0	0	0	0	0	0	0	0	0	0	1915	1915	1915	1915	1915	1915	1925	1925	1936	1936	1936	1936	1947	1947	1947	1947	1947	1947	1947	1947	1947	1947	1947	1947	1947	1947	1958	1947	1947	1947	1947	1947	1947	1947	1947	1947	1947	1947	1947	1947	1958	1958	1958	1969	1969	1969	1980	1980	1980	1980	1980	1980	1980	1992	1992	1992	1992	1992	1992	1992	1992	1992	1992	2003	2003	2003	2003	2003	2015	2015	2015	2015	2015	2015	2015	2027	2027	2027	2027	2027	2027	2027	2027	2027	2027	2039	2039	2039	2039	2039	2039	2039	2039	2051	2051	2051	2051	2051	2051	2063	2063	2063	2076	2076	2076	2076	2076	2076	2076	2076	2076	2076	2076	2063	2063	2051	2051	2051	2039	2039	2039	2027	2027	2015	2015	2003	2003	2015	0	0	0	0	0	0	0	0	0	0	0	0	0	0	0	0	0	0	0	0	0	0	0	0	0	0	0	0	0	0	0	0	0	0	0	0	0	0	0	0	0	0	0	0	0	0	0	0	0	0	0	0	0	0	0	0	0	0	0	0	0	0	0	0	0	0	0	0	0	0	0	0	0	0	0	0	0	0	0	0	0	0	0	0	0	0	0	0	0	0	0	0	0	0	0	0	0	0	0	0	0	0	0	0	0	0	0	0	0	0	0	0	0
0	0	0	0	0	0	0	1142	1142	1142	1146	1146	1146	1150	1150	1150	1150	1150	1150	1150	1150	1150	1150	1153	1153	1157	1157	1157	1157	1161	1161	1161	1161	1161	1161	1161	1161	1165	1165	1165	1169	1173	1173	1173	1173	1177	1177	0	0	0	0	0	0	0	0	0	0	0	1368	1363	1363	1363	1368	1368	1368	1374	1374	1374	1374	1379	1379	1379	1379	1385	1385	1385	1236	1236	1240	1240	1240	1385	1385	1385	1390	1390	1227	1227	1232	1232	1232	1232	1232	1236	1236	1236	1374	1374	1245	1245	1245	1240	1240	1236	1236	1236	1358	1352	1352	1352	1352	1352	1352	1249	1249	1358	1358	1358	1363	1363	1363	1368	1368	1368	1368	1363	1363	1363	1363	1363	1374	1374	1374	1374	1374	1374	1374	1374	1374	1374	1374	1374	1374	1374	1374	1374	1379	1379	1379	1379	1385	1390	1390	1390	1390	1385	1385	1385	1385	1385	1385	1385	1390	1396	1396	1396	1396	1402	1402	1402	1402	1402	1407	1407	1407	1407	1407	1413	1413	1413	1413	1413	1413	1419	1419	1419	1419	1419	1419	1419	1419	1419	1419	1419	1419	1419	1419	1419	1425	1425	1425	1431	1437	1437	1437	1437	1437	1321	1321	1326	1321	1321	1321	1321	1321	1321	1321	1321	1321	1321	1321	1326	1326	1326	1326	1326	1326	1326	1326	1326	1326	1331	1331	1331	1331	1331	1331	1326	1296	1296	1301	1306	1306	1306	1306	1306	1311	1311	1311	1311	1311	1316	1316	0	0	0	0	0	0	1759	1759	1759	1759	1759	1759	1759	1768	1768	1768	1768	1768	1768	1768	1768	1777	1777	1777	1777	1777	1777	1777	1777	1777	1777	1777	1553	1546	1546	1546	1546	1546	1546	1546	1546	1546	1546	1546	1546	1045	1045	1042	1033	1026	1023	1020	1017	1017	1017	1014	1014	1011	1008	1006	1006	1006	1006	1003	1003	1000	1000	997	994	991	991	991	991	988	988	988	985	983	980	980	983	983	983	983	983	983	985	985	985	985	988	988	988	988	988	988	988	988	991	991	991	991	991	994	994	994	997	997	997	1000	1000	1000	1003	1008	1008	1011	1011	1011	1014	1014	1020	1020	1026	1033	0	0	0	0	0	0	0	0	0	0	0	0	0	0	0	0	0	0	0	0	0	1915	1915	1915	1915	1915	1915	1915	1925	1925	1936	1936	1936	1936	1947	1947	1947	1947	1947	1947	1947	1947	1947	1947	1947	1947	1947	1947	1958	1947	1947	1947	1947	1947	1947	1947	1947	1947	1947	1947	1947	1958	1958	1958	1958	1969	1969	1969	1980	1980	1980	1980	1980	1980	1980	1992	1992	1992	1992	1992	1992	1992	1992	1992	1992	2003	2003	2003	2003	2003	2015	2015	2015	2015	2015	2015	2015	2027	2027	2027	2027	2027	2027	2027	2027	2027	2027	2039	2039	2039	2039	2039	2039	2039	2039	2051	2051	2051	2051	2051	2051	2051	2063	2063	2076	2076	2076	2076	2076	2076	2076	2076	2076	2076	2076	2076	2063	2063	2051	2051	2039	2039	2039	2027	2015	2015	2003	1992	1992	1992	0	0	0	0	0	0	0	0	0	0	0	0	0	0	0	0	0	0	0	0	0	0	0	0	0	0	0	0	0	0	0	0	0	0	0	0	0	0	0	0	0	0	0	0	0	0	0	0	0	0	0	0	0	0	0	0	0	0	0	0	0	0	0	0	0	0	0	0	0	0	0	0	0	0	0	0	0	0	0	0	0	0	0	0	0	0	0	0	0	0	0	0	0	0	0	0	0	0	0	0	0	0	0	0	0	0	0	0	0	0	0	0	0
0	0	0	0	0	0	0	1146	1146	1146	1146	1146	1146	1146	1146	1146	1146	1146	1150	1150	1146	1146	1150	1150	1153	1153	1157	1157	1157	1157	1161	1161	1161	1161	1161	1161	1161	1165	1165	1169	1169	1173	1173	1173	1177	1177	1181	0	0	0	0	0	0	0	0	0	0	1358	1358	1363	1363	1368	1368	1374	1374	1374	1379	1379	1379	1379	1379	1385	1385	1385	1385	1385	1236	1236	1240	1240	1385	1385	1385	1385	1385	1390	1227	1227	1232	1232	1232	1232	1232	1236	1236	1236	1374	1374	1245	1245	1245	1245	1240	1236	1236	1236	1236	1236	1352	1352	1352	1352	1352	1358	1358	1358	1358	1358	1363	1363	1368	1368	1374	1368	1368	1368	1363	1363	1363	1363	1374	1374	1374	1374	1374	1374	1374	1374	1374	1374	1374	1374	1374	1374	1374	1374	1379	1379	1379	1385	1390	1390	1390	1390	1390	1390	1385	1385	1385	1385	1385	1385	1390	1396	1396	1402	1402	1402	1402	1402	1402	1402	1407	1407	1407	1407	1407	1407	1413	1413	1413	1419	1419	1419	1419	1419	1419	1419	1419	1419	1419	1419	1419	1419	1419	1419	1425	1425	1425	1425	1425	1431	1437	1437	1437	1437	1437	1321	1321	1321	1311	1311	1316	1316	1321	1321	1321	1321	1321	1321	1321	1321	1326	1326	1326	1326	1326	1326	1326	1326	1326	1326	1331	1331	1331	1331	1331	1326	1301	1301	1301	1306	1306	1306	1306	1306	1306	1311	1311	1311	1316	1316	1316	0	0	0	0	0	0	1759	1759	1759	1759	1759	1759	1759	1768	1768	1768	1768	1768	1768	1768	1768	1777	1777	1777	1777	1777	1786	1574	1567	1567	1567	1567	1553	1546	1546	1546	1546	1546	1546	1546	1546	1546	1546	1553	1546	1546	1546	1546	1030	1026	1023	1023	1020	1020	1017	1017	1014	1014	1011	1008	1006	1006	1006	1006	1003	1000	1000	997	997	994	991	991	991	988	988	988	985	985	985	985	985	983	983	983	983	983	985	985	985	985	988	988	988	988	988	988	988	991	991	991	991	991	991	991	994	994	997	997	997	1000	1000	1003	1003	1011	1011	1011	1014	1014	1014	1017	1020	1023	1026	1033	1039	0	0	0	0	0	0	0	0	0	0	0	0	0	0	0	0	0	0	0	0	1915	1915	1915	1915	1915	1915	1915	1925	1925	1936	1936	1936	1936	1947	1947	1947	1947	1947	1947	1947	1947	1947	1947	1947	1947	1947	1947	1958	1947	1947	1947	1947	1947	1947	1947	1947	1947	1958	1958	1958	1958	1958	1958	1969	1969	1969	1969	1980	1980	1980	1980	1980	1980	1980	1992	1992	1992	1992	1992	1992	1992	1992	1992	1992	2003	2003	2015	2003	2003	2015	2015	2015	2015	2015	2015	2015	2027	2027	2027	2027	2027	2027	2027	2027	2027	2027	2027	2027	2039	2039	2039	2039	2039	2039	2039	2051	2051	2051	2051	2051	2051	2063	2063	2063	2063	2076	2076	2076	2076	2076	2076	2076	2076	2076	2063	2063	2063	2051	2039	2039	2039	2039	2027	2015	2003	1992	1992	1992	1992	0	0	0	0	0	0	0	0	0	0	0	0	0	0	0	0	0	0	0	0	0	0	0	0	0	0	0	0	0	0	0	0	0	0	0	0	0	0	0	0	0	0	0	0	0	0	0	0	0	0	0	0	0	0	0	0	0	0	0	0	0	0	0	0	0	0	0	0	0	0	0	0	0	0	0	0	0	0	0	0	0	0	0	0	0	0	0	0	0	0	0	0	0	0	0	0	0	0	0	0	0	0	0	0	0	0	0	0	0	0	0	0	0
0	0	0	0	0	0	0	1146	1146	1146	1146	1146	1146	1146	1146	1146	1146	1146	1146	1146	1146	1146	1146	1146	1150	1153	1153	1157	1157	1157	1161	1161	1161	1161	1161	1161	1161	1165	1169	1169	1169	1173	1173	1173	1177	1177	1181	0	0	0	0	0	0	0	0	0	0	1358	1358	1363	1363	1368	1374	1374	1374	1374	1379	1379	1379	1379	1379	1379	1379	1379	1385	1385	1236	1236	1240	1240	1385	1385	1385	1385	1385	1390	1390	1227	1227	1232	1232	1232	1232	1236	1240	1240	1374	1374	1245	1245	1245	1245	1240	1236	1236	1236	1236	1236	1236	1352	1352	1352	1358	1358	1358	1358	1358	1363	1368	1368	1368	1368	1374	1374	1368	1368	1363	1363	1363	1368	1374	1374	1374	1374	1379	1379	1379	1374	1374	1374	1379	1379	1379	1379	1379	1379	1379	1379	1385	1385	1390	1390	1390	1396	1396	1390	1390	1385	1385	1390	1390	1390	1390	1396	1396	1396	1402	1402	1402	1402	1402	1402	1407	1407	1407	1407	1407	1407	1413	1413	1413	1419	1419	1419	1425	1419	1419	1419	1419	1419	1419	1419	1419	1419	1419	1419	1425	1425	1425	1425	1425	1431	1437	1437	1437	1437	1437	1321	1321	1321	1311	1311	1316	1316	1321	1321	1321	1321	1321	1321	1321	1321	1326	1326	1326	1326	1326	1326	1326	1326	1326	1326	1331	1331	1336	1336	1331	1331	1306	1306	1306	1306	1306	1306	1306	1306	1306	1311	1311	1311	1316	1316	1316	1321	0	0	0	0	0	1759	1750	1750	1759	1759	1759	1759	1768	1768	1768	1768	1768	1768	1768	1768	1777	1777	1777	1777	1786	1574	1574	1567	1567	1567	1567	1560	1553	1546	1546	1546	1546	1546	1546	1546	1546	1553	1553	1553	1553	1546	1546	1030	1026	1026	1023	1020	1020	1017	1017	1017	1014	1011	1011	1008	1008	1006	1006	1003	1000	1000	997	997	994	991	991	991	991	988	988	988	985	985	985	985	985	985	985	983	983	985	985	985	985	988	988	988	988	988	988	988	988	991	991	991	991	991	991	994	994	997	997	1000	1003	1003	1003	1008	1011	1011	1011	1014	1014	1014	1020	1023	1026	1030	1036	1039	0	0	0	0	0	0	0	0	0	0	0	0	0	0	0	0	0	0	0	1915	1915	1915	1915	1915	1915	1915	1925	1925	1925	1936	1936	1936	1936	1947	1947	1947	1947	1947	1947	1947	1947	1947	1947	1947	1947	1947	1947	1958	1947	1947	1947	1947	1947	1947	1958	1958	1958	1958	1958	1958	1958	1958	1958	1969	1969	1969	1969	1980	1980	1980	1980	1980	1980	1980	1992	1992	1992	1992	1992	1992	1992	1992	1992	1992	2003	2003	2015	2003	2003	2015	2015	2015	2015	2015	2015	2015	2027	2027	2027	2027	2027	2027	2027	2027	2027	2027	2027	2027	2039	2039	2039	2039	2039	2039	2039	2051	2051	2051	2051	2051	2051	2051	2063	2063	2063	2063	2076	2076	2076	2076	2076	2076	2076	2076	2063	2063	2063	2051	2039	2039	2039	2039	2027	2015	2003	1992	1992	1992	1992	0	0	0	0	0	0	0	0	0	0	0	0	0	0	0	0	0	0	0	0	0	0	0	0	0	0	0	0	0	0	0	0	0	0	0	0	0	0	0	0	0	0	0	0	0	0	0	0	0	0	0	0	0	0	0	0	0	0	0	0	0	0	0	0	0	0	0	0	0	0	0	0	0	0	0	0	0	0	0	0	0	0	0	0	0	0	0	0	0	0	0	0	0	0	0	0	0	0	0	0	0	0	0	0	0	0	0	0	0	0	0	0	0
0	0	0	0	0	0	0	1142	1142	1146	1146	1146	1146	1146	1146	1146	1146	1146	1146	1146	1146	1146	1146	1146	1150	1153	1153	1157	1157	1157	1157	1157	1157	1161	1161	1161	1161	1165	1169	1169	1169	1173	1173	1173	1177	1177	1177	1177	0	0	0	0	0	0	0	0	0	1358	1358	1363	1363	1368	1374	1374	1379	1379	1379	1379	1379	1379	1379	1379	1379	1379	1385	1385	1385	1385	1385	1385	1385	1385	1385	1385	1385	1390	1390	1227	1227	1232	1232	1232	1232	1236	1236	1240	1379	1379	1245	1245	1245	1245	1240	1236	1236	1236	1236	1236	1236	1358	1352	1352	1358	1358	1358	1358	1358	1363	1368	1368	1368	1368	1374	1374	1368	1368	1363	1363	1363	1368	1368	1374	1374	1374	1374	1374	1379	1374	1374	1374	1374	1374	1379	1379	1379	1379	1379	1379	1385	1385	1390	1390	1390	1396	1396	1390	1390	1385	1385	1390	1390	1390	1390	1396	1396	1396	1396	1396	1402	1402	1402	1402	1407	1407	1407	1407	1407	1413	1413	1413	1413	1419	1413	1413	1419	1419	1419	1419	1419	1419	1419	1419	1419	1419	1419	1419	1425	1425	1425	1425	1425	1431	1437	1437	1437	1437	1443	1321	1321	1321	1316	1316	1316	1316	1321	1321	1321	1321	1321	1321	1326	1326	1326	1326	1326	1326	1326	1326	1326	1331	1331	1331	1331	1336	1336	1336	1331	1331	1311	1306	1306	1306	1306	1306	1306	1306	1306	1311	1311	1311	1316	1316	1316	1321	0	0	0	0	0	0	1750	1750	1750	1759	1759	1759	1768	1768	1768	1768	1768	1768	1768	1768	1777	1777	1786	1786	1795	1574	1574	1574	1574	1567	1567	1560	1553	1553	1553	1553	1546	1546	1546	1546	1553	1553	1553	1553	1553	1553	1546	1546	1546	1026	1026	1020	1020	1020	1017	1017	1014	1014	1011	1008	1008	1008	1006	1003	1000	1000	1000	997	994	994	991	991	991	991	988	988	988	988	988	988	985	985	985	985	985	985	985	985	985	988	988	988	988	988	988	988	988	991	991	994	994	994	997	997	997	1000	1000	1003	1003	1003	1006	1008	1011	1011	1011	1014	1014	1017	1020	1023	1026	1033	1039	1039	0	0	0	0	0	0	0	0	0	0	0	0	0	0	0	0	0	0	0	1915	1915	1915	1915	1915	1915	1915	1925	1925	1925	1936	1936	1936	1936	1947	1936	1936	1947	1947	1947	1947	1947	1947	1947	1947	1947	1947	1947	1958	1947	1947	1947	1947	1947	1947	1947	1958	1958	1958	1958	1958	1958	1969	1969	1969	1969	1969	1980	1980	1980	1980	1980	1980	1980	1992	1992	1992	1992	1992	1992	1992	1992	1992	1992	1992	2003	2003	2015	2003	2003	2015	2015	2015	2015	2015	2015	2015	2027	2027	2027	2027	2027	2027	2027	2027	2027	2027	2027	2027	2039	2039	2039	2039	2039	2039	2051	2051	2051	2051	2051	2051	2051	2051	2063	2063	2063	2063	2076	2076	2076	2076	2076	2076	2076	2076	2063	2063	2051	2051	2039	2039	2039	2039	2027	2015	2015	2003	1992	1992	1992	0	0	0	0	0	0	0	0	0	0	0	0	0	0	0	0	0	0	0	0	0	0	0	0	0	0	0	0	0	0	0	0	0	0	0	0	0	0	0	0	0	0	0	0	0	0	0	0	0	0	0	0	0	0	0	0	0	0	0	0	0	0	0	0	0	0	0	0	0	0	0	0	0	0	0	0	0	0	0	0	0	0	0	0	0	0	0	0	0	0	0	0	0	0	0	0	0	0	0	0	0	0	0	0	0	0	0	0	0	0	0	0	0
0	0	0	0	0	0	0	1142	1142	1146	1146	1146	1146	1146	1146	1146	1146	1146	1146	1150	1146	1146	1150	1150	1153	1153	1153	1157	1157	1157	1157	1157	1157	1157	1157	1161	1165	1165	1169	1169	1173	1173	1173	1173	1177	1177	1177	1177	0	0	0	0	0	0	0	0	0	1363	1363	1368	1368	1368	1374	1379	1379	1379	1379	1379	1379	1379	1385	1379	1379	1379	1385	1385	1385	1385	1385	1385	1385	1390	1390	1390	1390	1390	1390	1396	1232	1232	1232	1232	1232	1236	1236	1240	1379	1379	1374	1249	1249	1245	1240	1236	1236	1236	1236	1236	1236	1240	1358	1358	1358	1358	1358	1358	1358	1363	1368	1368	1368	1368	1374	1374	1374	1374	1368	1363	1363	1368	1368	1374	1374	1374	1374	1374	1379	1379	1374	1374	1374	1374	1379	1379	1379	1379	1379	1385	1390	1390	1390	1390	1390	1396	1396	1390	1390	1385	1385	1385	1385	1390	1390	1390	1390	1396	1396	1396	1402	1402	1402	1402	1407	1407	1407	1407	1407	1413	1413	1413	1413	1419	1413	1413	1419	1419	1419	1419	1419	1419	1419	1419	1425	1419	1419	1419	1425	1425	1425	1425	1431	1431	1437	1437	1443	1443	1443	1326	1326	1321	1316	1316	1316	1321	1321	1321	1321	1321	1321	1321	1326	1326	1326	1326	1326	1326	1326	1326	1326	1331	1331	1331	1331	1331	1336	1331	1331	1326	1316	1306	1306	1306	1306	1306	1306	1306	1306	1311	1311	1311	1316	1316	1316	1321	0	0	0	0	0	0	1750	1750	1750	1759	1759	1759	1768	1768	1768	1768	1768	1768	1768	1777	1777	1777	1786	1786	1795	1574	1574	1574	1574	1567	1567	1560	1553	1553	1553	1553	1546	1546	1546	1546	1553	1553	1553	1553	1560	1560	1546	1546	1546	1030	1026	1026	1026	1023	1020	1017	1017	1014	1014	1014	1008	1008	1006	1003	1000	1000	1000	997	994	994	994	994	991	991	991	988	988	988	988	988	988	988	988	988	988	988	988	988	988	988	988	988	988	988	991	991	991	991	994	994	994	997	997	997	1000	1000	1000	1003	1003	1003	1006	1008	1011	1011	1014	1014	1020	1023	1023	1030	1033	1036	1039	1039	0	0	0	0	0	0	0	0	0	0	0	0	0	0	0	0	0	0	0	1915	1915	1915	1915	1915	1915	1915	1925	1925	1925	1925	1936	1936	1936	1936	1936	1936	1947	1947	1947	1947	1947	1947	1958	1947	1947	1947	1947	1958	1947	1947	1947	1947	1947	1947	1947	1958	1958	1958	1958	1958	1958	1969	1969	1969	1980	1980	1980	1980	1980	1980	1980	1980	1980	1980	1992	1992	1992	1992	1992	1992	1992	1992	1992	1992	2003	2003	2015	2003	2003	2015	2015	2015	2015	2015	2015	2015	2015	2015	2015	2027	2027	2027	2027	2027	2027	2027	2027	2039	2039	2039	2039	2039	2039	2039	2051	2051	2051	2051	2051	2051	2051	2063	2063	2063	2063	2063	2076	2076	2076	2076	2076	2076	2076	2076	2063	2063	2051	2051	2039	2039	2039	2039	2027	2015	2015	2003	1992	1992	1992	1992	0	0	0	0	0	0	0	0	0	0	0	0	0	0	0	0	0	0	0	0	0	0	0	0	0	0	0	0	0	0	0	0	0	0	0	0	0	0	0	0	0	0	0	0	0	0	0	0	0	0	0	0	0	0	0	0	0	0	0	0	0	0	0	0	0	0	0	0	0	0	0	0	0	0	0	0	0	0	0	0	0	0	0	0	0	0	0	0	0	0	0	0	0	0	0	0	0	0	0	0	0	0	0	0	0	0	0	0	0	0	0	0
0	0	0	0	0	0	0	1142	1142	1146	1146	1146	1146	1146	1146	1150	1150	1150	1150	1150	1150	1150	1150	1150	1153	1157	1157	1157	1157	1157	1157	1157	1157	1157	1157	1161	1165	1169	1169	1173	1173	1173	1173	1173	1173	1173	1173	1173	0	0	0	0	0	0	0	0	0	0	1374	1368	1368	1368	1374	1374	1379	1379	1379	1379	1379	1379	1385	1385	1385	1385	1385	1385	1385	1385	1379	1379	1379	1390	1390	1390	1390	1390	1396	1396	1402	1232	1232	1232	1232	1236	1236	1240	1240	1240	1240	1240	1245	1245	1240	1236	1236	1236	1236	1236	1240	1240	1358	1358	1358	1358	1358	1358	1358	1363	1368	1368	1368	1374	1374	1374	1368	1368	1368	1363	1363	1368	1368	1368	1374	1374	1374	1374	1379	1379	1374	1374	1374	1374	1379	1379	1379	1379	1379	1385	1390	1390	1390	1390	1390	1396	1396	1390	1390	1385	1385	1385	1385	1385	1390	1390	1390	1396	1396	1396	1402	1402	1402	1402	1407	1407	1413	1407	1407	1413	1413	1413	1419	1419	1419	1419	1419	1419	1419	1425	1425	1425	1425	1425	1425	1419	1419	1419	1425	1425	1425	1425	1425	1431	1437	1443	1443	1443	1443	1326	1326	1321	1321	1316	1316	1321	1321	1321	1321	1321	1326	1326	1326	1326	1326	1326	1331	1326	1326	1326	1331	1331	1331	1331	1331	1331	1331	1331	1331	1326	1316	1306	1306	1306	1306	1306	1306	1306	1306	1311	1311	1311	1316	1316	1316	1321	0	0	0	0	0	0	1750	1750	1759	1759	1759	1759	1768	1768	1768	1768	1768	1768	1768	1777	1777	1777	1786	1786	1795	1574	1574	1574	1574	1567	1560	1560	1553	1546	1546	1546	1546	1546	1546	1546	1546	1553	1553	1553	1553	1560	1546	1546	1553	1030	1030	1030	1026	1023	1020	1020	1017	1017	1014	1014	1014	1011	1008	1006	1003	1000	1000	1000	997	997	994	994	994	991	991	991	988	988	988	988	988	988	988	988	988	985	985	988	988	988	988	988	988	991	991	991	991	991	994	994	997	997	997	1000	1000	1000	1000	1003	1006	1006	1008	1008	1011	1014	1014	1017	1020	1023	1026	1030	1033	1036	1039	1039	0	0	0	0	0	0	0	0	0	0	0	0	0	0	0	0	0	0	0	1925	1915	1915	1915	1915	1915	1915	1925	1925	1925	1925	1936	1936	1936	1936	1947	1947	1947	1947	1947	1947	1947	1947	1947	1947	1947	1947	1947	1958	1947	1947	1947	1947	1947	1947	1958	1958	1958	1958	1958	1958	1958	1969	1969	1969	1980	1980	1980	1980	1980	1980	1980	1980	1980	1980	1980	1980	1980	1992	1992	1992	1992	1992	1992	1992	2003	2003	2003	2003	2003	2015	2015	2015	2015	2015	2015	2015	2015	2015	2015	2027	2027	2027	2027	2027	2027	2027	2027	2039	2039	2039	2039	2039	2039	2051	2051	2051	2051	2051	2051	2051	2051	2063	2063	2063	2063	2063	2076	2076	2076	2076	2076	2076	2076	2076	2063	2063	2051	2051	2039	2039	2039	2039	2027	2015	2015	2003	1992	1992	1992	1992	0	0	0	0	0	0	0	0	0	0	0	0	0	0	0	0	0	0	0	0	0	0	0	0	0	0	0	0	0	0	0	0	0	0	0	0	0	0	0	0	0	0	0	0	0	0	0	0	0	0	0	0	0	0	0	0	0	0	0	0	0	0	0	0	0	0	0	0	0	0	0	0	0	0	0	0	0	0	0	0	0	0	0	0	0	0	0	0	0	0	0	0	0	0	0	0	0	0	0	0	0	0	0	0	0	0	0	0	0	0	0	0
0	0	0	0	0	0	0	1142	1142	1146	1146	1146	1146	1146	1146	1150	1150	1150	1150	1153	1153	1153	1153	1153	1157	1157	1157	1157	1157	1157	1157	1161	1161	1161	1161	1161	1165	1169	1173	1169	1169	1173	1173	1173	1173	1173	1173	1173	0	0	0	0	0	0	0	0	0	0	0	1368	1368	1368	1374	1374	1379	1379	1379	1379	1379	1379	1385	0	0	0	0	0	0	0	1379	1379	1379	0	0	0	1390	1390	1396	1396	1402	1232	1232	1232	1232	1236	1240	1240	1240	1240	1240	1240	1245	1245	1240	1240	1240	1240	1240	1240	1240	1240	1358	1358	1358	1358	1358	1358	1358	1368	1368	1368	1374	1374	1374	1368	1363	1363	1363	1358	1358	1363	1368	1368	1374	1374	1374	1379	1379	1379	1374	1374	1374	1374	1379	1379	1379	1379	1379	1385	1390	1390	1390	1390	1390	1396	1396	1390	1385	1385	1385	1385	1385	1385	1385	1390	1396	1396	1396	1396	1402	1402	1402	1402	1407	1407	1413	1407	1407	1413	1413	1413	1419	1419	1419	1419	1419	1419	1419	1425	1425	1425	1425	1425	1425	1425	1419	1419	1425	1425	1425	1425	1425	1431	1437	1443	1443	1443	1443	1326	1326	1321	1316	1316	1316	1316	1316	1316	1321	1321	1321	1321	1326	1326	1326	1326	1326	1326	1326	1326	1331	1331	1331	1331	1331	1331	1331	1331	1331	1326	1316	1306	1306	1306	1306	1306	1306	1306	1306	1311	1311	1311	1316	1316	1316	1321	1326	0	0	0	0	0	1750	1750	1750	1759	1759	1759	1768	1768	1768	1768	1768	1768	1768	1768	1768	1777	1786	1786	1795	1574	1574	1567	1567	1567	1560	1553	1553	1546	1546	1546	1546	1546	1546	1546	1546	1546	1546	1553	1553	1560	1553	1553	1560	1560	1033	1030	1026	1026	1023	1020	1020	1017	1017	1014	1014	1014	1008	1006	1003	1003	1003	1000	1000	997	997	994	994	991	991	991	988	988	988	988	988	988	988	988	988	985	985	988	988	988	988	988	991	991	991	991	991	994	994	994	997	997	1000	1000	1000	1000	1003	1003	1006	1006	1008	1008	1011	1014	1017	1017	1020	1023	1026	1030	1036	1036	1039	1042	1052	1058	0	0	0	0	0	0	0	0	0	0	0	0	0	0	0	0	0	1925	1915	1915	1915	1915	1915	1915	1925	1925	1925	1925	1936	1936	1936	1936	1947	1947	1947	1947	1947	1947	1947	1947	1947	1947	1947	1947	1947	1958	1947	1947	1947	1947	1947	1947	1947	1958	1958	1958	1958	1958	1969	1969	1969	1969	1980	1980	1980	1980	1980	1980	1980	1980	1980	1980	1980	1980	1980	1980	1980	1992	1992	1992	1992	1992	2003	2003	2003	2003	2003	2015	2015	2015	2015	2015	2015	2015	2015	2015	2015	2027	2027	2027	2027	2027	2027	2027	2039	2039	2039	2039	2039	2039	2039	2051	2051	2051	2051	2051	2051	2051	2063	2063	2063	2063	2076	2076	2076	2076	2076	2076	2076	2076	2076	2076	2063	2063	2051	2051	2039	2039	2039	2039	2027	2027	2027	2003	2003	2003	2003	0	0	0	0	0	0	0	0	0	0	0	0	0	0	0	0	0	0	0	0	0	0	0	0	0	0	0	0	0	0	0	0	0	0	0	0	0	0	0	0	0	0	0	0	0	0	0	0	0	0	0	0	0	0	0	0	0	0	0	0	0	0	0	0	0	0	0	0	0	0	0	0	0	0	0	0	0	0	0	0	0	0	0	0	0	0	0	0	0	0	0	0	0	0	0	0	0	0	0	0	0	0	0	0	0	0	0	0	0	0	0	0	0
0	0	0	0	0	0	0	1142	1142	1146	1146	1146	1146	1146	1146	1146	1150	1150	1150	1153	1153	1153	1153	1157	1157	1157	1157	1157	1157	1157	1157	1157	1157	1161	1161	1161	1165	1169	1173	1169	1169	1173	1173	1173	1173	1173	1173	1173	1177	1259	1259	1263	1263	1263	1263	1263	1263	1263	0	0	1374	1374	1379	1379	1379	1379	1379	1379	1379	1379	1385	0	0	0	0	0	0	0	0	0	0	0	0	0	0	0	1402	1402	1402	1232	1232	1236	1236	1236	1240	1240	1240	1240	1240	1240	1245	1245	1240	1240	1240	1240	1240	1240	1240	1240	1358	1358	1358	1352	1352	1358	1358	1368	1368	1368	1368	1368	1368	1368	1363	1363	1363	1358	1358	1363	1368	1368	1374	1374	1379	1379	1379	1379	1374	1374	1379	1379	1379	1379	1379	1379	1379	1390	1390	1396	1396	1396	1396	1396	1396	1390	1385	1385	1385	1385	1385	1385	1385	1390	1396	1396	1396	1396	1402	1402	1402	1407	1407	1407	1413	1407	1407	1413	1413	1413	1413	1413	1413	1419	1419	1419	1419	1425	1425	1425	1425	1425	1425	1425	1419	1419	1425	1425	1425	1425	1431	1431	1437	1437	1437	1437	1437	1443	1321	1321	1316	1311	1311	1316	1316	1316	1321	1321	1321	1321	1326	1326	1326	1326	1326	1326	1326	1326	1331	1331	1331	1331	1331	1336	1336	1331	1331	1326	1316	1306	1306	1306	1306	1306	1306	1306	1306	1311	1311	1311	1316	1316	1316	1316	1326	0	0	0	0	0	1750	1750	1750	1750	1759	1759	1768	1768	1768	1768	1768	1768	1768	1768	1768	1777	1786	1786	1574	1574	1574	1567	1567	1567	1560	1553	1553	1546	1546	1546	1546	1546	1546	1546	1546	1546	1546	1553	1553	1553	1560	1560	1567	1567	1033	1030	1026	1026	1023	1020	1020	1020	1017	1017	1014	1014	1011	1008	1006	1003	1003	1003	1000	1000	1000	997	997	994	994	991	988	988	988	988	988	988	988	988	988	985	985	988	988	988	988	988	991	991	991	991	991	994	997	997	997	997	1000	1000	1000	1000	1003	1006	1008	1008	1008	1011	1011	1014	1017	1020	1023	1026	1030	1033	1036	1039	1045	1048	1052	1058	1064	0	0	0	0	0	0	0	0	0	0	0	0	0	0	0	0	1915	1915	1915	1915	1915	1915	1915	1925	1925	1925	1925	1936	1936	1936	1936	1947	1947	1947	1947	1947	1947	1947	1947	1947	1947	1947	1947	1947	1958	1947	1947	1947	1947	1947	1947	1947	1958	1958	1958	1969	1969	1969	1969	1969	1980	1969	1969	1980	1980	1980	1980	1980	1980	1980	1980	1980	1980	1992	1980	1980	1992	1992	1992	1992	1992	2003	2003	2003	2003	2003	2015	2015	2015	2015	2015	2015	2015	2027	2027	2027	2027	2027	2027	2027	2027	2027	2027	2039	2039	2039	2039	2039	2039	2039	2051	2051	2051	2051	2051	2051	2051	2063	2076	2076	2076	2076	2076	2076	2076	2076	2076	2076	2076	2076	2063	2063	2063	2051	2051	2039	2039	2039	2039	2027	2027	2027	2015	2015	2015	2015	2027	0	0	0	0	0	0	0	0	0	0	0	0	0	0	0	0	0	0	0	0	0	0	0	0	0	0	0	0	0	0	0	0	0	0	0	0	0	0	0	0	0	0	0	0	0	0	0	0	0	0	0	0	0	0	0	0	0	0	0	0	0	0	0	0	0	0	0	0	0	0	0	0	0	0	0	0	0	0	0	0	0	0	0	0	0	0	0	0	0	0	0	0	0	0	0	0	0	0	0	0	0	0	0	0	0	0	0	0	0	0	0	0
0	0	0	0	0	0	0	1142	1142	1142	1146	1146	1142	1142	1146	1146	1150	1150	1150	1153	1153	1153	1157	1157	1157	1157	1157	1157	1157	1157	1157	1157	1157	1161	1161	1161	1169	1169	1169	1169	1169	1173	1173	1173	1173	1173	1173	1173	1177	1259	1259	1263	1263	1263	1263	1263	1263	1263	0	1374	1374	1374	1379	1379	1379	1379	1379	1379	1379	1379	1385	0	0	0	0	0	0	0	0	0	0	0	0	0	0	0	0	0	0	0	0	1236	1236	1236	1236	1240	1240	1240	1240	1240	1245	1245	1240	1240	1240	1240	1240	1240	1240	1240	1240	1358	1358	1352	1352	1358	1358	1368	1368	1368	1368	1368	1368	1363	1363	1363	1363	1363	1363	1363	1368	1368	1374	1374	1379	1379	1379	1379	1379	1379	1379	1379	1379	1379	1379	1379	1385	1390	1390	1396	1396	1396	1396	1396	1396	1396	1385	1385	1385	1385	1385	1390	1390	1390	1396	1396	1396	1396	1402	1402	1402	1407	1407	1407	1413	1407	1407	1413	1413	1413	1413	1413	1413	1413	1419	1419	1419	1425	1425	1425	1425	1425	1425	1425	1419	1419	1425	1425	1425	1425	1431	1431	1437	1437	1437	1437	1437	1437	1321	1321	1311	1311	1311	1316	1316	1316	1321	1321	1321	1321	1326	1326	1326	1326	1326	1326	1326	1331	1331	1331	1331	1331	1331	1336	1336	1331	1331	1326	1316	1306	1306	1306	1306	1306	1306	1306	1306	1311	1311	1311	1316	1316	1316	1316	1321	0	0	0	0	0	1750	1750	1750	1750	1759	1759	1768	1768	1768	1768	1768	1768	1768	1768	1768	1777	1777	1786	1574	1567	1567	1567	1567	1560	1560	1553	1553	1546	1546	1546	1546	1546	1546	1546	1546	1546	1546	1553	1553	1553	1560	1560	1567	1567	1036	1030	1030	1026	1026	1023	1020	1020	1017	1017	1017	1014	1011	1008	1006	1006	1003	1003	1000	1000	1000	1000	997	997	994	991	991	988	988	988	988	988	988	988	988	988	988	988	988	988	988	988	991	991	991	994	994	997	997	997	997	1000	1000	1000	1003	1003	1006	1008	1011	1011	1011	1011	1014	1014	1017	1023	1030	1033	1036	1039	1039	1042	1048	1052	1055	1061	1064	1068	0	0	0	0	0	0	0	0	0	0	0	0	0	0	0	1915	1915	1915	1915	1915	1915	1915	1925	1925	1925	1936	1936	1936	1936	1947	1947	1947	1947	1947	1947	1947	1947	1947	1947	1947	1958	1947	1947	1958	1947	1947	1947	1947	1947	1947	1947	1958	1958	1958	1969	1969	1969	1969	1969	1969	1969	1969	1980	1980	1980	1980	1980	1980	1980	1980	1980	1980	1980	1980	1980	1992	1992	1992	1992	1992	1992	1992	2003	2003	2003	2003	2015	2015	2015	2015	2015	2015	2027	2027	2027	2027	2027	2027	2027	2027	2027	2039	2039	2039	2039	2039	2039	2039	2051	2051	2051	2051	2051	2051	2051	2063	2063	2076	2076	2076	2076	2076	2076	2076	2076	2076	2076	2076	2076	2063	2063	2051	2051	2051	2051	2039	2039	2039	2039	2027	2027	2027	2027	2027	2027	2027	0	0	0	0	0	0	0	0	0	0	0	0	0	0	0	0	0	0	0	0	0	0	0	0	0	0	0	0	0	0	0	0	0	0	0	0	0	0	0	0	0	0	0	0	0	0	0	0	0	0	0	0	0	0	0	0	0	0	0	0	0	0	0	0	0	0	0	0	0	0	0	0	0	0	0	0	0	0	0	0	0	0	0	0	0	0	0	0	0	0	0	0	0	0	0	0	0	0	0	0	0	0	0	0	0	0	0	0	0	0	0	0
0	0	0	0	0	0	0	1142	1142	1142	1146	1146	1142	1142	1146	1146	1150	1150	1150	1153	1153	1153	1157	1157	1157	1157	1157	1157	1157	1157	1157	1157	1161	1161	1161	1169	1169	1169	1169	1169	1169	1169	1169	1173	1173	1173	1173	1173	1177	1259	1259	1263	1263	1263	1263	1263	1263	1263	1263	0	1379	1379	1379	1379	1379	1379	1379	1379	1379	1379	1379	0	0	0	0	0	0	0	0	0	0	0	0	0	0	0	0	0	0	0	0	0	1240	1236	1236	1240	1240	1240	1379	1379	1385	1385	1240	1240	1240	1240	1240	1240	1240	1240	1240	1240	1352	1352	1352	1358	1358	1368	1368	1254	1254	1259	1259	1363	1363	1363	1363	1363	1363	1363	1368	1368	1374	1374	1379	1379	1379	1379	1379	1379	1379	1379	1379	1379	1379	1385	1385	1390	1390	1390	1390	1396	1396	1396	1396	1396	1390	1390	1390	1385	1385	1390	1396	1396	1396	1396	1396	1396	1402	1402	1402	1407	1407	1413	1413	1407	1407	1413	1419	1419	1413	1413	1413	1413	1419	1419	1419	1425	1425	1425	1425	1425	1425	1425	1419	1419	1425	1425	1431	1431	1431	1431	1437	1437	1437	1437	1437	1443	1321	1321	1311	1311	1311	1316	1316	1321	1321	1321	1321	1326	1326	1326	1326	1326	1326	1326	1331	1331	1331	1331	1331	1331	1331	1336	1336	1331	1331	1326	1321	1306	1306	1306	1306	1306	1306	1306	1306	1311	1311	1311	1311	1311	1311	1316	1321	0	0	0	0	0	1750	1750	1750	1750	1759	1759	1768	1768	1768	1768	1768	1768	1768	1768	1768	1777	1777	1786	1786	1567	1567	1567	1567	1560	1553	1553	1546	1546	1546	1546	1546	1546	1546	1546	1546	1546	1546	1553	1553	1560	1560	1560	1567	1567	1574	1030	1030	1026	1026	1023	1023	1020	1020	1017	1017	1014	1014	1011	1008	1006	1006	1003	1003	1003	1003	1000	1000	997	994	994	991	988	988	988	988	988	988	988	988	988	988	988	988	988	988	991	991	991	991	994	997	1000	1000	1000	1000	1000	1003	1003	1003	1003	1006	1008	1011	1011	1011	1014	1014	1014	1023	1026	1033	1036	1039	1042	1045	1048	1052	1055	1058	1061	1064	1068	0	0	0	0	0	0	0	0	0	0	0	0	0	0	0	1915	1915	1915	1915	1915	1915	1915	1915	1925	1925	1925	1936	1936	1936	1947	1947	1947	1947	1947	1947	1947	1947	1947	1947	1958	1958	1947	1947	1958	1947	1947	1947	1947	1947	1947	1947	1958	1958	1958	1958	1969	1969	1969	1969	1969	1969	1969	1969	1980	1980	1980	1980	1980	1980	1980	1980	1980	1980	1980	1980	1980	1992	1992	1992	1992	1992	1992	2003	2003	2003	2003	2015	2015	2015	2015	2015	2015	2027	2027	2027	2027	2027	2027	2027	2027	2027	2039	2039	2039	2039	2039	2039	2039	2051	2051	2051	2063	2063	2051	2051	2063	2063	2063	2063	2063	2076	2076	2076	2076	2076	2076	2076	2076	2076	2063	2063	2051	2051	2051	2051	2051	2039	2039	2039	2027	2027	2027	2027	2027	2027	2027	0	0	0	0	0	0	0	0	0	0	0	0	0	0	0	0	0	0	0	0	0	0	0	0	0	0	0	0	0	0	0	0	0	0	0	0	0	0	0	0	0	0	0	0	0	0	0	0	0	0	0	0	0	0	0	0	0	0	0	0	0	0	0	0	0	0	0	0	0	0	0	0	0	0	0	0	0	0	0	0	0	0	0	0	0	0	0	0	0	0	0	0	0	0	0	0	0	0	0	0	0	0	0	0	0	0	0	0	0	0	0	0
0	0	0	0	0	0	0	1142	1142	1146	1146	1146	1146	1146	1146	1146	1150	1150	1150	1153	1153	1157	1157	1157	1157	1157	1157	1157	1157	1157	1157	1161	1161	1161	1161	1165	1169	1169	1169	1169	1169	1169	1169	1173	1173	1173	1173	1173	1177	1259	1259	1263	1263	1263	1263	1263	1263	1263	0	1263	0	1379	1379	1379	1379	1379	1379	1379	1379	1379	0	0	0	0	0	0	0	0	0	0	0	0	0	0	0	0	0	0	0	0	0	0	0	1236	1236	1236	1236	1240	1379	1379	1385	1385	1379	1374	1374	1240	1240	1240	1240	1240	1240	1240	1240	1240	1352	1358	1358	1254	1254	1254	1254	1259	1259	1363	1363	1363	1363	1363	1363	1363	1368	1368	1374	1379	1379	1379	1379	1379	1379	1379	1379	1379	1379	1379	1379	1385	1385	1390	1396	1390	1390	1396	1396	1396	1396	1396	1390	1390	1390	1385	1385	1390	1390	1390	1396	1396	1396	1396	1402	1402	1407	1407	1407	1413	1413	1407	1407	1413	1419	1419	1413	1413	1413	1419	1425	1419	1419	1425	1425	1425	1425	1425	1425	1425	1425	1425	1425	1425	1431	1431	1431	1431	1437	1437	1437	1437	1437	1443	1321	1321	1311	1311	1311	1316	1316	1321	1321	1321	1321	1326	1326	1326	1326	1326	1326	1326	1326	1331	1331	1331	1331	1331	1331	1336	1336	1331	1331	1326	1316	1311	1311	1311	1306	1306	1306	1306	1306	1311	1311	1311	1311	1311	1311	1316	0	0	0	0	0	0	1759	1759	1759	1759	1759	1768	1768	1768	1768	1768	1768	1768	1768	1768	1768	1777	1777	1786	1786	1567	1567	1567	1560	1553	1553	1553	1546	1546	1546	1546	1546	1546	1546	1546	1546	1553	1553	1553	1553	1560	1567	1567	1574	1574	1574	1574	1030	1030	1026	1026	1023	1023	1020	1020	1020	1017	1014	1014	1008	1008	1006	1006	1003	1003	1003	1000	1000	997	994	994	991	991	991	991	988	988	988	988	988	988	988	988	988	988	991	991	991	991	991	994	997	1000	1000	1000	1000	1003	1003	1006	1006	1008	1008	1011	1011	1011	1014	1014	1017	1020	1030	1033	1036	1039	1039	1042	1048	1052	1055	1058	1061	1061	1064	1068	0	0	0	0	0	0	0	0	0	0	0	0	0	0	0	1915	1915	1915	1915	1915	1915	1915	1915	1925	1925	1925	1936	1936	1936	1947	1947	1947	1947	1947	1947	1947	1947	1947	1958	1958	1958	1958	1958	1958	1947	1947	1947	1947	1947	1947	1947	1947	1947	1947	1958	1958	1958	1958	1969	1969	1969	1969	1969	1980	1980	1980	1980	1980	1980	1980	1980	1980	1980	1980	1980	1980	1992	1992	1992	1992	1992	1992	2003	2003	2003	2003	2015	2015	2015	2015	2015	2015	2015	2027	2027	2027	2027	2027	2027	2027	2039	2039	2039	2039	2039	2039	2039	2039	2051	2051	2051	2051	2063	2051	2051	2063	2063	2063	2063	2063	2076	2076	2076	2076	2076	2076	2076	2076	2076	2076	2063	2063	2051	2051	2051	2051	2039	2039	2039	2027	2027	2027	2027	2015	2015	2027	0	0	0	0	0	0	0	0	0	0	0	0	0	0	0	0	0	0	0	0	0	0	0	0	0	0	0	0	0	0	0	0	0	0	0	0	0	0	0	0	0	0	0	0	0	0	0	0	0	0	0	0	0	0	0	0	0	0	0	0	0	0	0	0	0	0	0	0	0	0	0	0	0	0	0	0	0	0	0	0	0	0	0	0	0	0	0	0	0	0	0	0	0	0	0	0	0	0	0	0	0	0	0	0	0	0	0	0	0	0	0	0
0	0	0	0	0	0	0	1142	1142	1146	1146	1146	1146	1146	1146	1146	1150	1150	1153	1153	1157	1157	1157	1157	1157	1157	1157	1157	1157	1157	1157	1161	1161	1161	1161	1165	1165	1169	1169	1169	1169	1169	1169	1169	1169	1173	1173	1173	1177	1259	1259	1259	1263	1263	1268	1268	1268	1268	1268	0	1385	1385	1374	1374	1379	1379	1379	1379	1379	1385	0	0	0	0	0	0	0	0	0	0	0	0	0	0	0	0	0	0	0	0	0	0	1240	1236	1236	1236	1236	1240	1379	1379	1385	1390	1385	1379	1374	1374	1240	1240	1236	1236	1236	1240	1240	1240	1240	1254	1254	1254	1254	1254	1254	1254	1254	1368	1363	1363	1363	1363	1368	1368	1368	1368	1374	1374	1379	1379	1379	1379	1379	1379	1379	1379	1379	1379	1379	1385	1385	1390	1396	1396	1396	1396	1396	1396	1396	1396	1390	1390	1390	1385	1385	1390	1390	1390	1396	1396	1396	1396	1402	1402	1407	1407	1407	1413	1413	1407	1407	1413	1419	1419	1413	1413	1419	1419	1425	1419	1419	1425	1425	1425	1425	1425	1425	1425	1425	1425	1425	1425	1431	1431	1431	1431	1437	1437	1437	1443	1443	1443	1321	1321	1311	1311	1311	1316	1321	1321	1321	1321	1321	1326	1326	1326	1326	1326	1326	1326	1326	1331	1331	1331	1331	1331	1331	1331	1331	1331	1331	1326	1316	1311	1311	1306	1306	1306	1306	1306	1306	1311	1311	1311	1311	1311	1316	1316	0	0	0	0	0	0	1759	1759	1759	1759	1759	1768	1768	1768	1768	1768	1768	1768	1768	1768	1768	1768	1777	1777	1786	1786	1567	1567	1546	1546	1553	1553	1546	1546	1546	1546	1546	1546	1546	1546	1546	1553	1553	1560	1560	1567	1567	1567	1574	1574	1574	1574	1574	1030	1026	1026	1026	1026	1023	1020	1020	1017	1014	1014	1011	1008	1006	1006	1003	1003	1003	1003	1000	1000	994	994	994	991	991	991	988	988	988	988	988	988	988	991	991	991	991	991	991	994	994	994	1000	1000	1000	1003	1003	1003	1006	1008	1008	1011	1011	1014	1014	1014	1017	1020	1020	1023	1030	1033	1036	1039	1042	1045	1048	1055	1055	1058	1061	1064	1064	1068	0	0	0	0	0	0	0	0	0	0	0	0	0	0	0	1904	1904	1915	1915	1915	1915	1915	1925	1925	1925	1925	1936	1936	1947	1947	1947	1947	1947	1947	1947	1947	1947	1958	1958	1958	1958	1958	1958	1958	1947	1947	1947	1947	1947	1947	1947	1947	1947	1947	1958	1958	1958	1958	1969	1969	1969	1969	1969	1969	1969	1980	1980	1980	1980	1980	1980	1980	1980	1980	1980	1980	1992	1992	1992	1992	1992	1992	2003	2003	2003	2003	2015	2015	2015	2027	2015	2015	2015	2015	2027	2027	2027	2027	2027	2039	2039	2039	2039	2039	2039	2039	2039	2039	2039	2039	2039	2051	2051	2051	2051	2063	2063	2063	2063	2063	2063	2063	2076	2076	2076	2076	2076	2076	2076	2076	2063	2063	2051	2051	2051	2051	2039	2039	2039	2027	2027	2027	2027	2015	2015	0	0	0	0	0	0	0	0	0	0	0	0	0	0	0	0	0	0	0	0	0	0	0	0	0	0	0	0	0	0	0	0	0	0	0	0	0	0	0	0	0	0	0	0	0	0	0	0	0	0	0	0	0	0	0	0	0	0	0	0	0	0	0	0	0	0	0	0	0	0	0	0	0	0	0	0	0	0	0	0	0	0	0	0	0	0	0	0	0	0	0	0	0	0	0	0	0	0	0	0	0	0	0	0	0	0	0	0	0	0	0	0	0
0	0	0	0	0	0	0	1142	1142	1146	1146	1146	1146	1146	1150	1150	1146	1146	1153	1153	1153	1157	1157	1157	1157	1157	1157	1157	1157	1157	1157	1161	1161	1161	1165	1165	1165	1169	1169	1169	1169	1169	1169	1169	1169	1173	1173	1173	1177	1254	1254	1259	1263	1263	1268	1277	1277	1277	0	0	1385	1385	1374	1374	1379	1379	1379	1379	1379	1385	1385	1385	1227	1227	0	0	0	0	0	0	0	0	0	0	0	0	0	0	0	0	0	0	1240	1240	1236	1236	1236	1240	1245	1379	1385	1390	1385	1379	1379	1249	1240	1240	1236	1236	1236	1240	1240	1245	1245	1254	1254	1254	1254	1254	1254	1254	1254	1368	1363	1363	1363	1363	1368	1368	1368	1368	1374	1374	1379	1379	1379	1379	1379	1379	1379	1379	1379	1379	1379	1385	1385	1390	1396	1396	1396	1396	1402	1396	1396	1396	1390	1390	1390	1390	1390	1396	1396	1396	1396	1402	1402	1402	1402	1402	1407	1407	1407	1407	1413	1407	1407	1413	1419	1419	1413	1413	1419	1419	1425	1425	1425	1425	1425	1425	1425	1425	1425	1425	1425	1431	1425	1425	1431	1431	1431	1431	1437	1437	1437	1443	1443	1443	1316	1316	1311	1311	1311	1316	1321	1321	1321	1321	1326	1326	1326	1326	1326	1326	1326	1326	1331	1331	1331	1331	1331	1331	1331	1331	1331	1331	1331	1326	1316	1311	1311	1306	1306	1306	1306	1306	1306	1311	1311	1311	1311	1311	1316	1316	0	0	0	0	0	0	1768	1759	1759	1759	1759	1768	1768	1768	1768	1768	1768	1768	1768	1768	1768	1768	1777	1777	1777	1777	1777	1777	1546	1546	1553	1553	1546	1546	1546	1546	1546	1546	1546	1546	1546	1553	1553	1560	1567	1567	1574	1574	1574	1574	1574	1574	1574	1574	1030	1026	1026	1026	1023	1023	1020	1020	1017	1014	1011	1011	1008	1008	1006	1006	1003	1003	1003	1000	994	994	994	991	991	991	988	988	988	988	988	988	988	991	991	991	991	991	994	994	994	997	1000	1000	1003	1003	1003	1006	1006	1008	1011	1011	1014	1014	1017	1017	1020	1023	1026	1026	1033	1036	1039	1042	1042	1048	1052	1055	1058	1058	1061	1061	1064	1064	0	0	0	0	0	0	0	0	0	0	0	0	0	0	0	1904	1904	1904	1904	1904	1915	1915	1925	1925	1925	1925	1936	1936	1936	1947	1947	1947	1947	1947	1947	1947	1947	1958	1958	1958	1958	1958	1958	1958	1947	1947	1947	1947	1947	1947	1947	1947	1947	1947	1958	1958	1958	1969	1969	1969	1969	1969	1969	1969	1969	1980	1980	1980	1980	1980	1980	1980	1980	1980	1980	1980	1992	1992	1992	1992	1992	1992	2003	2003	2003	2003	2015	2015	2015	2027	2015	2015	2015	2015	2027	2027	2027	2027	2027	2039	2039	2039	2039	2039	2039	2039	2039	2039	2039	2039	2039	2051	2051	2051	2051	2051	2063	2063	2063	2063	2063	2063	2076	2076	2076	2076	2076	2076	2076	2076	2063	2063	2063	2051	2051	2051	2039	2039	2027	2027	2027	2027	2027	2027	0	0	0	0	0	0	0	0	0	0	0	0	0	0	0	0	0	0	0	0	0	0	0	0	0	0	0	0	0	0	0	0	0	0	0	0	0	0	0	0	0	0	0	0	0	0	0	0	0	0	0	0	0	0	0	0	0	0	0	0	0	0	0	0	0	0	0	0	0	0	0	0	0	0	0	0	0	0	0	0	0	0	0	0	0	0	0	0	0	0	0	0	0	0	0	0	0	0	0	0	0	0	0	0	0	0	0	0	0	0	0	0	0	0
0	0	0	0	0	0	0	1146	1146	1146	1142	1142	1146	1146	1146	1146	1146	1146	1153	1153	1153	1157	1157	1157	1157	1157	1157	1157	1157	1157	1157	1161	1161	1161	1165	1169	1169	1169	1169	1169	1169	1169	1169	1169	1173	1173	1177	1177	1177	1254	1254	1259	1263	1263	1268	1272	1277	1277	0	0	1385	1385	1379	1379	1379	1379	1379	1379	1379	1379	1240	1236	1227	1227	0	0	0	0	0	0	0	0	0	0	0	0	0	0	0	0	0	1245	1245	1245	1240	1240	1240	1240	1245	1385	1385	1396	1390	1379	1379	1249	1245	1245	1245	1245	1245	1245	1245	1245	1249	1249	1249	1254	1254	1254	1254	1254	1368	1368	1363	1363	1363	1363	1363	1368	1368	1368	1374	1374	1379	1379	1379	1379	1379	1379	1379	1379	1379	1379	1379	1385	1390	1390	1396	1396	1396	1396	1402	1396	1396	1396	1390	1390	1390	1390	1390	1396	1396	1396	1402	1402	1402	1402	1402	1402	1407	1407	1407	1407	1413	1413	1413	1413	1419	1419	1419	1419	1419	1419	1425	1419	1419	1425	1425	1425	1431	1425	1425	1431	1431	1437	1431	1431	1431	1431	1431	1431	1437	1437	1437	1443	1443	1443	1316	1316	1311	1311	1311	1316	1321	1321	1321	1321	1326	1326	1326	1331	1331	1326	1326	1326	1331	1331	1331	1331	1331	1331	1331	1331	1331	1331	1331	1326	1316	1311	1311	1306	1306	1306	1306	1306	1306	1311	1311	1311	1311	1311	1316	1316	0	0	0	0	0	0	1768	1759	1759	1759	1759	1768	1759	1759	1759	1768	1768	1768	1768	1768	1768	1768	1777	1777	1777	1777	1777	1786	1795	1553	1553	1553	1546	1546	1546	1546	1546	1546	1546	1546	1546	1560	1567	1574	1574	1574	1574	1574	1574	1574	1574	1567	1567	1574	1574	1026	1026	1026	1026	1026	1026	1020	1017	1017	1014	1011	1008	1008	1006	1006	1003	1003	1003	1000	997	994	994	994	991	991	991	991	991	991	991	991	991	991	991	991	991	994	994	994	997	997	1000	1000	1003	1003	1006	1006	1008	1011	1011	1014	1014	1017	1017	1020	1023	1026	1030	1033	1036	1036	1039	1045	1048	1052	1052	1055	1058	1058	1061	1061	1064	1064	0	0	0	0	0	0	0	0	0	0	0	0	0	0	0	1904	1904	1904	1904	1904	1915	1915	1925	1925	1925	1925	1936	1936	1936	1936	1936	1947	1947	1947	1947	1947	1947	1958	1958	1958	1958	1958	1958	1958	1947	1947	1947	1947	1947	1947	1947	1947	1947	1947	1958	1958	1958	1969	1969	1969	1969	1969	1969	1969	1969	1980	1980	1980	1980	1980	1980	1980	1980	1980	1980	1980	1992	1992	1992	1992	1992	1992	2003	2003	2003	2003	2015	2015	2015	2015	2015	2015	2015	2027	2027	2027	2027	2027	2027	2039	2039	2039	2039	2039	2039	2039	2039	2039	2039	2039	2039	2051	2051	2051	2051	2051	2063	2063	2063	2063	2063	2063	2063	2076	2076	2076	2076	2076	2076	2076	2076	2063	2063	2051	2051	2051	2039	2039	2027	2027	2027	2015	2015	2015	0	0	0	0	0	0	0	0	0	0	0	0	0	0	0	0	0	0	0	0	0	0	0	0	0	0	0	0	0	0	0	0	0	0	0	0	0	0	0	0	0	0	0	0	0	0	0	0	0	0	0	0	0	0	0	0	0	0	0	0	0	0	0	0	0	0	0	0	0	0	0	0	0	0	0	0	0	0	0	0	0	0	0	0	0	0	0	0	0	0	0	0	0	0	0	0	0	0	0	0	0	0	0	0	0	0	0	0	0	0	0	0	0	0
