0	0	0	0	0	0	0	0	0	0	0	0	0	0	0	0	0	0	0	0	0	0	0	0	0	1443	1443	1437	1437	1443	1443	1437	1437	1437	1437	1437	1431	1431	1431	1431	1431	1431	1431	1437	1437	1431	1431	1431	1431	1425	1425	1425	1425	1425	1425	1425	1425	1425	1425	1425	1425	1425	1425	1425	1425	1425	1425	1425	1425	1425	1425	1425	1425	1425	1425	1425	1425	1425	1419	1419	1419	1419	1419	1419	1413	1413	1413	1413	1413	1413	1413	1413	1413	1413	1413	1413	1413	1413	1413	1407	1407	1407	1407	1407	1407	1407	1407	1407	1402	1402	1402	1402	1402	1402	1402	1402	1402	1402	1402	1396	1396	1396	1396	1396	1396	1396	1396	1396	1396	1396	1396	1396	1396	1396	1396	1396	1390	1390	1390	1390	1390	1390	1390	1390	1390	1390	1390	1390	1390	1385	1385	1385	1385	1379	1379	1379	1379	1379	1379	1379	1379	1379	1379	1379	1379	1379	1379	1374	1374	1374	1374	1374	1374	1374	1374	1374	1374	1368	1368	1368	1363	1363	1363	1363	1363	1363	1363	1363	1363	1358	1358	1358	1358	1358	1358	1358	1358	1358	1358	1358	1352	1352	1352	1352	1352	1352	1347	1347	1347	1347	1347	1347	1347	1347	1347	1347	1347	1347	1342	1342	1342	1342	1342	1342	1342	1336	1336	1336	1336	1336	1336	1331	1331	1331	1331	1331	1331	1331	1331	1331	1326	1326	1326	1326	1326	1326	1326	1326	1326	1321	1321	1321	1321	1321	1321	1321	1321	1321	1316	1316	1316	1316	1311	1311	1311	1311	1311	1311	1311	1311	1311	1306	1306	1306	1306	1306	1306	1301	1301	1301	1301	1296	1296	1296	1296	1296	1296	1296	1296	1296	1296	1296	1291	1291	1291	1291	1287	1287	1287	1287	1287	1282	1282	1282	1282	1277	1277	1272	1272	1272	1272	1272	1272	1272	1272	1272	1272	1268	1268	1263	1263	1263	1263	1263	1263	1263	1263	1259	1259	1259	1259	1259	1259	1259	1254	1254	1249	1249	1249	1245	1245	1245	1245	1245	1240	1240	1240	1240	1240	1240	1240	1236	1236	1236	1236	1232	1232	1232	1232	1232	1232	1232	1227	1227	1227	1227	1227	1223	1223	1223	1219	1219	1219	1219	1214	1214	1214	1214	1214	1214	1214	1214	1210	1210	1210	1210	1210	1206	1206	1206	1206	1206	1206	1202	1197	1197	1197	1197	1197	1197	1197	1197	1193	1193	1193	1193	1193	1193	1189	1189	1189	1189	1189	1189	1189	1189	1185	1185	1181	1181	1177	1177	1177	1177	1177	1177	1177	1173	1173	1173	1169	1169	1169	1165	1165	1165	1165	1165	1165	1161	1157	1157	1157	1157	1157	1153	1153	1150	1150	1150	1150	1146	1146	1146	1146	1146	1146	1146	1146	1142	1142	1142	1142	1138	1138	1138	1138	1134	1134	1134	1134	1134	1131	1131	1131	1131	1127	1127	1127	1127	1127	1127	1123	1123	1120	1120	1116	1116	1116	1116	1116	1116	1113	1113	1113	1113	1113	1113	1113	1109	1109	1105	1105	1102	1102	1102	1098	1098	1098	1098	1098	1098	1095	1095	1095	1095	1095	1095	1095	1095	1091	1091	1091	1091	1088	1088	1088	1088	1085	1085	1085	1085	1085	1085	1085	1081	1081	1081	1081	1078	1078	1074	1074	1074	1074	1074	1074	1071	1071	1071	1071	1071	1068	1068	1068	1068	1068	1068	1068	1068	1061	1061	1061	1061	1061	1061	1061	1061	1061	1058	1058	1058	1058	1058	1058	1055	1055	1055	1055	1055	1055	1055	1055	1169	1169	1169	1169	1169	1165	1165	1165	1169	1165	1165	1165	1165	1165	1161	1157	1157	1153	1150	1150	1150	1150	1150	1150	1150	1150	1150	1146	1146	1146	1142	1142	1138	1138	1138	1138	1138	1138	1138	0	0	0	0	0	0	0	0	0	0	0	0	0	0	0	0	0	0
0	0	0	0	0	0	0	0	0	0	0	0	0	0	0	0	0	0	0	0	0	0	0	0	0	1443	1443	1437	1437	1443	1443	1437	1437	1437	1437	1437	1431	1431	1431	1431	1431	1431	1431	1431	1437	1431	1431	1431	1431	1431	1425	1425	1425	1425	1425	1425	1425	1425	1425	1425	1425	1425	1425	1425	1425	1425	1425	1425	1425	1425	1425	1425	1425	1425	1425	1425	1425	1425	1419	1419	1419	1419	1419	1419	1413	1413	1413	1413	1413	1413	1413	1413	1413	1413	1413	1413	1413	1413	1413	1407	1407	1407	1407	1407	1407	1407	1407	1407	1402	1402	1402	1402	1402	1402	1402	1402	1402	1402	1402	1396	1396	1396	1396	1396	1396	1396	1396	1396	1396	1396	1396	1396	1396	1396	1396	1390	1390	1390	1390	1390	1385	1385	1385	1390	1385	1385	1390	1390	1385	1385	1385	1385	1385	1379	1379	1379	1379	1379	1379	1379	1379	1379	1379	1379	1379	1379	1374	1374	1374	1374	1374	1374	1374	1374	1374	1374	1374	1368	1368	1368	1363	1363	1363	1363	1363	1358	1358	1358	1358	1358	1358	1358	1358	1358	1358	1358	1358	1358	1358	1358	1352	1352	1352	1352	1352	1352	1347	1347	1347	1347	1347	1347	1347	1347	1347	1347	1347	1347	1347	1347	1342	1342	1342	1342	1342	1336	1336	1336	1336	1336	1336	1331	1331	1331	1331	1331	1331	1331	1331	1331	1326	1326	1326	1326	1326	1326	1326	1326	1326	1321	1321	1321	1321	1321	1321	1321	1316	1316	1316	1316	1316	1311	1311	1311	1311	1311	1311	1311	1311	1311	1311	1306	1306	1306	1306	1306	1306	1301	1301	1301	1301	1296	1296	1296	1296	1296	1296	1296	1296	1296	1296	1291	1291	1291	1291	1291	1287	1287	1287	1287	1287	1282	1282	1282	1282	1277	1277	1272	1272	1272	1272	1272	1272	1272	1272	1272	1272	1268	1268	1263	1263	1263	1263	1263	1263	1263	1263	1259	1259	1259	1259	1259	1259	1259	1254	1254	1249	1249	1249	1245	1245	1245	1245	1240	1240	1240	1240	1240	1240	1240	1240	1236	1236	1236	1236	1236	1232	1232	1232	1232	1232	1232	1227	1227	1227	1227	1227	1223	1223	1223	1219	1219	1219	1219	1214	1214	1214	1214	1214	1214	1214	1214	1210	1210	1210	1210	1210	1206	1206	1206	1206	1202	1206	1202	1197	1197	1197	1197	1197	1197	1197	1197	1193	1193	1193	1193	1193	1193	1189	1189	1189	1189	1189	1189	1185	1185	1185	1181	1181	1181	1177	1177	1177	1177	1177	1177	1177	1173	1173	1173	1169	1169	1169	1165	1165	1165	1165	1165	1165	1161	1157	1157	1157	1157	1157	1153	1153	1150	1150	1150	1150	1146	1146	1146	1146	1146	1146	1146	1146	1142	1142	1142	1142	1138	1138	1138	1138	1134	1134	1134	1134	1131	1131	1131	1131	1131	1127	1127	1127	1127	1123	1123	1123	1123	1120	1120	1116	1116	1116	1116	1116	1116	1116	1113	1113	1113	1113	1113	1113	1109	1109	1105	1105	1102	1102	1102	1098	1098	1098	1098	1098	1098	1095	1095	1095	1095	1095	1095	1091	1091	1091	1091	1091	1091	1088	1088	1088	1088	1085	1085	1085	1085	1085	1085	1085	1081	1081	1081	1081	1078	1078	1074	1074	1074	1074	1074	1074	1071	1071	1071	1071	1071	1068	1068	1068	1068	1068	1068	1068	1068	1064	1064	1064	1061	1061	1061	1061	1061	1061	1061	1058	1058	1058	1058	1058	1055	1055	1055	1055	1055	1055	1058	1058	1169	1169	1169	1169	1169	1165	1165	1165	1169	1165	1165	1165	1165	1161	1161	1157	1157	1153	1153	1150	1150	1150	1150	1150	1150	1150	1150	1146	1146	1146	1146	1142	1142	1142	1142	1142	1142	1142	1142	0	0	0	0	0	0	0	0	0	0	0	0	0	0	0	0	0	0
0	0	0	0	0	0	0	0	0	0	0	0	0	0	0	0	0	0	0	0	0	0	0	0	0	1443	1443	1443	1443	1443	1443	1437	1437	1437	1437	1431	1431	1431	1431	1431	1431	1431	1431	1431	1431	1431	1431	1431	1425	1425	1425	1425	1425	1425	1425	1425	1425	1425	1425	1425	1425	1419	1419	1425	1425	1425	1425	1425	1425	1425	1425	1425	1425	1425	1425	1425	1425	1425	1419	1419	1419	1419	1413	1413	1413	1413	1413	1413	1413	1413	1413	1413	1413	1413	1413	1413	1407	1407	1407	1407	1407	1407	1407	1407	1407	1407	1407	1402	1402	1402	1402	1402	1402	1402	1402	1402	1402	1402	1402	1402	1396	1396	1396	1396	1396	1396	1396	1396	1396	1396	1396	1396	1396	1396	1396	1390	1390	1390	1390	1385	1385	1385	1385	1390	1385	1385	1390	1390	1385	1385	1385	1385	1379	1379	1379	1379	1374	1374	1374	1374	1379	1379	1379	1379	1379	1379	1374	1374	1374	1374	1374	1374	1374	1374	1368	1368	1368	1368	1368	1368	1363	1363	1363	1363	1363	1358	1358	1358	1358	1358	1358	1358	1358	1358	1358	1358	1358	1358	1358	1358	1352	1347	1347	1347	1347	1347	1347	1347	1347	1347	1347	1347	1347	1347	1347	1347	1347	1347	1347	1347	1347	1347	1342	1342	1342	1336	1336	1336	1336	1336	1336	1331	1331	1331	1331	1331	1331	1326	1326	1331	1326	1326	1326	1326	1326	1326	1326	1326	1326	1326	1321	1321	1321	1321	1321	1321	1316	1316	1316	1316	1316	1311	1311	1311	1311	1311	1311	1311	1311	1311	1306	1306	1306	1306	1306	1306	1306	1301	1301	1301	1301	1296	1296	1296	1296	1296	1296	1296	1296	1296	1296	1291	1291	1291	1291	1291	1287	1287	1287	1287	1287	1282	1282	1282	1277	1277	1272	1272	1272	1272	1272	1272	1272	1272	1272	1272	1272	1268	1268	1263	1263	1263	1263	1263	1263	1263	1259	1259	1259	1259	1259	1259	1259	1259	1254	1254	1249	1249	1249	1245	1245	1245	1245	1240	1240	1240	1240	1240	1240	1240	1240	1236	1236	1236	1232	1232	1232	1232	1232	1232	1232	1227	1227	1227	1227	1227	1227	1227	1223	1223	1219	1219	1219	1219	1219	1219	1214	1214	1214	1214	1214	1214	1210	1210	1210	1210	1210	1206	1206	1206	1206	1202	1206	1202	1202	1197	1197	1197	1197	1197	1197	1197	1193	1193	1193	1193	1193	1193	1193	1189	1189	1189	1189	1189	1185	1185	1181	1181	1181	1181	1181	1177	1177	1177	1177	1177	1173	1173	1173	1173	1169	1169	1169	1165	1165	1165	1165	1165	1165	1161	1157	1157	1157	1157	1153	1153	1150	1150	1150	1150	1146	1146	1146	1146	1146	1146	1146	1146	1146	1142	1142	1142	1142	1138	1138	1138	1134	1134	1134	1134	1131	1131	1131	1131	1131	1131	1127	1127	1127	1127	1123	1123	1120	1120	1120	1120	1116	1116	1116	1116	1116	1116	1116	1113	1113	1113	1113	1109	1109	1109	1105	1105	1105	1102	1102	1102	1098	1098	1098	1098	1098	1098	1098	1098	1095	1095	1095	1095	1091	1091	1091	1091	1091	1091	1091	1091	1088	1088	1085	1085	1085	1085	1081	1081	1081	1081	1081	1081	1081	1078	1078	1074	1074	1074	1074	1074	1074	1071	1071	1071	1071	1071	1068	1068	1068	1068	1068	1068	1068	1064	1064	1061	1061	1061	1061	1061	1061	1058	1058	1058	1058	1058	1058	1058	1058	1055	1055	1055	1055	1055	1055	1058	1058	1169	1169	1169	1169	1165	1161	1161	1165	1169	1165	1165	1165	1165	1161	1161	1157	1157	1157	1157	1150	1150	1150	1150	1150	1150	1150	1146	1146	1146	1146	1146	1142	1142	1142	1142	1142	1142	1142	1142	0	0	0	0	0	0	0	0	0	0	0	0	0	0	0	0	0	0
0	0	0	0	0	0	0	0	0	0	0	0	0	0	0	0	0	0	0	0	0	0	0	0	0	1443	1443	1437	1437	1443	1437	1437	1431	1431	1431	1431	1431	1431	1431	1431	1431	1431	1431	1431	1431	1431	1431	1431	1425	1425	1425	1425	1425	1425	1425	1425	1425	1425	1425	1425	1425	1419	1419	1425	1425	1425	1425	1425	1425	1425	1425	1425	1425	1425	1425	1425	1425	1425	1419	1419	1419	1413	1413	1413	1413	1413	1413	1413	1413	1413	1413	1413	1413	1413	1413	1413	1407	1407	1407	1407	1407	1407	1402	1402	1402	1407	1402	1402	1402	1402	1402	1402	1402	1402	1402	1402	1402	1402	1402	1402	1396	1396	1396	1396	1396	1396	1396	1396	1396	1396	1396	1396	1396	1396	1396	1390	1390	1390	1390	1385	1385	1385	1385	1385	1385	1385	1385	1385	1390	1385	1385	1385	1379	1379	1379	1379	1374	1374	1374	1374	1379	1379	1379	1379	1374	1374	1374	1374	1374	1374	1374	1374	1374	1374	1368	1368	1368	1368	1368	1368	1363	1363	1363	1363	1363	1358	1358	1358	1358	1358	1358	1358	1358	1358	1358	1358	1358	1358	1358	1352	1347	1347	1347	1347	1347	1347	1347	1347	1347	1347	1347	1347	1347	1347	1347	1347	1347	1347	1347	1347	1347	1347	1342	1342	1342	1342	1336	1336	1336	1336	1336	1331	1331	1331	1331	1331	1331	1326	1326	1331	1326	1326	1326	1326	1326	1326	1326	1326	1326	1321	1321	1321	1321	1321	1321	1321	1316	1316	1316	1311	1311	1311	1311	1311	1311	1311	1311	1311	1311	1306	1306	1306	1306	1306	1306	1306	1306	1301	1301	1301	1301	1296	1296	1296	1296	1296	1296	1296	1296	1296	1296	1291	1291	1291	1291	1291	1287	1287	1287	1287	1282	1282	1282	1277	1277	1272	1272	1272	1272	1272	1272	1272	1272	1272	1272	1272	1272	1268	1268	1263	1263	1263	1263	1263	1263	1259	1259	1259	1259	1259	1259	1259	1259	1259	1254	1254	1249	1249	1249	1245	1245	1245	1240	1240	1240	1240	1240	1236	1236	1240	1236	1236	1236	1236	1232	1232	1232	1232	1232	1232	1232	1227	1227	1227	1227	1227	1227	1223	1223	1223	1223	1219	1219	1219	1219	1219	1214	1214	1214	1214	1214	1210	1210	1210	1210	1210	1210	1206	1206	1206	1206	1202	1202	1197	1197	1197	1197	1197	1197	1197	1197	1193	1193	1193	1193	1193	1193	1193	1193	1189	1189	1189	1189	1185	1185	1185	1181	1181	1181	1181	1181	1177	1177	1177	1177	1177	1173	1173	1173	1173	1169	1169	1169	1165	1165	1165	1165	1165	1165	1157	1157	1157	1157	1157	1153	1153	1150	1150	1146	1146	1146	1146	1146	1146	1146	1146	1146	1146	1146	1142	1142	1142	1138	1138	1138	1138	1134	1131	1131	1131	1131	1131	1131	1131	1131	1131	1127	1127	1127	1123	1123	1123	1120	1120	1120	1120	1116	1116	1116	1116	1116	1116	1116	1113	1113	1113	1113	1109	1109	1109	1105	1105	1105	1102	1102	1102	1098	1098	1098	1098	1098	1098	1098	1095	1095	1095	1095	1091	1091	1091	1091	1091	1091	1088	1088	1088	1088	1088	1085	1085	1085	1085	1081	1081	1081	1081	1081	1081	1078	1078	1078	1074	1074	1074	1074	1074	1074	1071	1071	1071	1071	1071	1068	1068	1068	1068	1068	1068	1068	1064	1064	1061	1061	1061	1061	1061	1061	1058	1058	1058	1058	1058	1058	1058	1058	1058	1058	1058	1058	1058	1058	1058	1058	1058	1169	1169	1165	1165	1161	1161	1165	1165	1165	1165	1165	1165	1161	1161	1157	1157	1157	1153	1150	1146	1146	1146	1146	1146	1146	1146	1146	1146	1146	1146	1142	1142	1142	1142	1142	1138	1138	1138	0	0	0	0	0	0	0	0	0	0	0	0	0	0	0	0	0	0
0	0	0	0	0	0	0	0	0	0	0	0	0	0	0	0	0	0	0	0	0	0	0	0	0	1443	1443	1437	1437	1443	1437	1437	1431	1431	1431	1431	1431	1431	1431	1431	1431	1431	1431	1431	1431	1431	1431	1425	1425	1425	1425	1425	1425	1425	1425	1425	1425	1425	1425	1425	1425	1419	1419	1425	1425	1425	1425	1425	1425	1425	1425	1419	1419	1425	1425	1425	1425	1425	1419	1419	1413	1413	1413	1413	1413	1413	1413	1413	1413	1413	1413	1413	1407	1407	1407	1413	1407	1407	1407	1407	1407	1407	1402	1402	1402	1402	1402	1402	1402	1402	1402	1402	1402	1402	1402	1402	1402	1402	1402	1402	1396	1396	1396	1396	1396	1396	1396	1396	1396	1396	1396	1396	1396	1396	1390	1390	1390	1390	1390	1385	1385	1385	1385	1385	1385	1385	1385	1385	1385	1385	1379	1379	1379	1379	1379	1379	1374	1374	1374	1374	1379	1379	1379	1379	1374	1374	1374	1374	1374	1374	1374	1374	1374	1368	1368	1368	1368	1363	1363	1363	1363	1363	1363	1358	1358	1358	1358	1358	1358	1358	1358	1358	1358	1358	1358	1358	1358	1358	1352	1352	1347	1347	1347	1347	1347	1347	1347	1347	1347	1347	1347	1347	1347	1347	1347	1347	1347	1347	1347	1347	1347	1347	1342	1342	1342	1342	1342	1336	1336	1336	1336	1331	1331	1331	1331	1331	1331	1326	1326	1326	1326	1326	1326	1326	1326	1326	1326	1326	1321	1321	1321	1321	1321	1316	1316	1316	1316	1316	1316	1311	1311	1311	1311	1311	1311	1311	1311	1311	1311	1306	1306	1306	1306	1306	1306	1306	1306	1301	1301	1301	1301	1296	1296	1296	1296	1296	1296	1296	1296	1296	1296	1291	1291	1291	1291	1291	1287	1287	1287	1287	1282	1282	1277	1277	1277	1272	1272	1272	1272	1272	1272	1272	1272	1272	1272	1272	1272	1268	1268	1263	1263	1263	1263	1263	1263	1259	1259	1259	1254	1254	1254	1254	1254	1254	1254	1254	1249	1249	1249	1245	1245	1245	1240	1240	1240	1240	1240	1236	1236	1240	1236	1236	1236	1236	1236	1232	1232	1232	1232	1232	1227	1227	1227	1227	1227	1227	1227	1223	1223	1223	1223	1219	1219	1219	1219	1214	1214	1214	1214	1214	1210	1210	1210	1210	1210	1210	1210	1206	1206	1206	1206	1202	1202	1197	1197	1197	1197	1197	1197	1197	1197	1193	1193	1193	1193	1189	1189	1189	1189	1189	1189	1189	1189	1185	1185	1181	1181	1181	1181	1181	1177	1177	1177	1177	1177	1177	1173	1173	1173	1173	1169	1169	1165	1165	1165	1165	1165	1161	1161	1157	1157	1157	1157	1157	1153	1150	1150	1150	1146	1146	1146	1146	1146	1146	1146	1146	1146	1146	1142	1142	1142	1142	1138	1138	1138	1134	1134	1131	1131	1131	1131	1131	1131	1131	1127	1127	1127	1127	1127	1123	1123	1123	1120	1120	1120	1116	1116	1116	1116	1116	1116	1116	1116	1116	1113	1113	1113	1109	1109	1109	1105	1105	1105	1102	1102	1102	1098	1098	1098	1098	1098	1098	1098	1095	1095	1095	1095	1091	1091	1091	1091	1091	1091	1088	1088	1088	1088	1088	1085	1085	1085	1085	1081	1081	1081	1081	1081	1081	1078	1078	1078	1074	1074	1074	1074	1074	1074	1071	1071	1071	1071	1071	1068	1068	1068	1068	1068	1068	1068	1068	1064	1064	1064	1061	1061	1061	1061	1061	1061	1058	1058	1058	1058	1058	1058	1058	1058	1058	1055	1055	1058	1058	1058	1058	1169	1165	1165	1165	1165	1165	1165	1165	1165	1165	1165	1165	1161	1161	1157	1157	1157	1153	1153	1146	1146	1146	1146	1146	1146	1146	1146	1146	1146	1146	1142	1142	1142	1142	1142	1138	1138	1138	0	0	0	0	0	0	0	0	0	0	0	0	0	0	0	0	0	0
0	0	0	0	0	0	0	0	0	0	0	0	0	0	0	0	0	0	0	0	0	0	0	0	0	1443	1443	1437	1437	1437	1437	1437	1431	1431	1431	1431	1431	1431	1431	1431	1431	1431	1431	1431	1431	1431	1431	1425	1425	1425	1425	1425	1425	1425	1431	1425	1425	1425	1425	1425	1425	1425	1425	1425	1425	1425	1425	1425	1425	1425	1425	1419	1419	1425	1425	1425	1425	1425	1413	1413	1413	1413	1413	1413	1413	1413	1413	1413	1413	1413	1413	1413	1407	1407	1407	1413	1407	1407	1407	1407	1407	1407	1402	1402	1402	1402	1402	1402	1402	1402	1402	1402	1402	1402	1402	1402	1402	1402	1402	1402	1396	1396	1396	1396	1396	1396	1396	1396	1396	1396	1396	1396	1396	1390	1390	1390	1390	1390	1390	1385	1385	1385	1385	1385	1385	1385	1385	1385	1385	1385	1379	1379	1379	1379	1379	1379	1374	1374	1374	1374	1379	1379	1379	1379	1374	1374	1374	1374	1374	1374	1374	1374	1374	1368	1368	1368	1363	1363	1363	1363	1363	1363	1363	1358	1358	1358	1358	1358	1358	1358	1358	1358	1358	1358	1358	1358	1358	1358	1352	1352	1347	1347	1347	1347	1347	1347	1347	1347	1342	1342	1342	1342	1342	1342	1347	1347	1347	1347	1347	1347	1347	1347	1342	1342	1342	1336	1336	1336	1336	1336	1336	1331	1331	1331	1331	1331	1331	1326	1326	1326	1326	1326	1326	1326	1326	1326	1326	1326	1321	1321	1321	1316	1316	1316	1316	1316	1316	1316	1316	1311	1311	1311	1311	1311	1311	1311	1311	1311	1311	1306	1306	1306	1306	1306	1306	1306	1306	1301	1301	1301	1296	1296	1296	1296	1296	1296	1296	1296	1291	1291	1296	1291	1291	1291	1291	1291	1287	1287	1287	1287	1282	1282	1277	1277	1272	1272	1272	1272	1272	1272	1272	1272	1272	1272	1272	1272	1272	1268	1268	1263	1263	1263	1263	1263	1263	1259	1259	1254	1254	1254	1254	1254	1254	1254	1254	1254	1249	1249	1249	1245	1245	1245	1240	1240	1240	1240	1240	1236	1236	1236	1236	1236	1236	1236	1232	1232	1232	1232	1232	1232	1227	1227	1227	1227	1227	1227	1227	1223	1223	1223	1223	1219	1219	1219	1219	1214	1214	1214	1214	1214	1210	1210	1210	1210	1210	1210	1210	1206	1206	1206	1206	1202	1202	1197	1197	1197	1197	1197	1197	1197	1197	1193	1193	1193	1193	1189	1189	1189	1189	1189	1189	1185	1185	1185	1185	1181	1181	1181	1181	1177	1177	1177	1177	1177	1177	1177	1173	1173	1173	1169	1169	1169	1165	1165	1165	1165	1165	1161	1161	1157	1157	1157	1157	1157	1153	1150	1150	1150	1146	1146	1146	1146	1146	1146	1146	1146	1146	1146	1142	1142	1142	1142	1138	1138	1138	1134	1134	1131	1131	1131	1131	1131	1131	1131	1127	1127	1127	1127	1123	1123	1123	1123	1120	1116	1116	1116	1116	1116	1116	1116	1116	1116	1116	1113	1113	1113	1113	1109	1109	1105	1105	1105	1102	1102	1102	1102	1102	1102	1098	1098	1098	1098	1098	1095	1095	1095	1095	1095	1091	1091	1091	1091	1091	1088	1088	1088	1085	1085	1085	1085	1085	1081	1081	1081	1081	1081	1081	1081	1078	1078	1078	1074	1074	1074	1074	1074	1074	1071	1071	1071	1071	1071	1068	1068	1068	1068	1068	1068	1068	1068	1064	1064	1064	1064	1064	1061	1061	1061	1061	1058	1058	1058	1058	1058	1058	1058	1058	1058	1055	1055	1058	1058	1058	1169	1169	1165	1165	1165	1165	1165	1165	1165	1165	1165	1165	1161	1161	1161	1157	1157	1153	1153	1153	1150	1150	1150	1146	1146	1146	1146	1146	1146	1146	1146	1142	1142	1142	1142	1142	1138	1138	1138	0	0	0	0	0	0	0	0	0	0	0	0	0	0	0	0	0	0
0	0	0	0	0	0	0	0	0	0	0	0	0	0	0	0	0	0	0	0	0	0	0	0	0	1443	1443	1437	1437	1437	1437	1431	1431	1431	1431	1431	1431	1431	1431	1431	1431	1431	1431	1431	1431	1431	1431	1431	1425	1425	1431	1425	1425	1425	1431	1425	1425	1425	1425	1425	1425	1425	1425	1425	1425	1425	1425	1425	1425	1425	1425	1419	1419	1419	1419	1425	1419	1419	1413	1413	1413	1413	1413	1413	1413	1413	1413	1413	1413	1413	1413	1413	1413	1407	1407	1407	1407	1407	1407	1407	1407	1407	1402	1402	1402	1402	1402	1402	1402	1402	1402	1402	1402	1402	1402	1402	1396	1396	1402	1396	1396	1396	1396	1396	1396	1396	1396	1396	1396	1396	1396	1390	1390	1390	1390	1390	1390	1390	1385	1385	1385	1379	1379	1385	1385	1385	1385	1385	1385	1385	1379	1379	1379	1379	1379	1379	1374	1374	1374	1374	1374	1374	1374	1374	1374	1374	1374	1374	1374	1374	1374	1374	1374	1368	1368	1368	1363	1363	1363	1363	1363	1363	1363	1358	1358	1358	1358	1358	1358	1358	1358	1358	1358	1358	1358	1358	1358	1352	1352	1352	1347	1347	1347	1347	1347	1347	1347	1347	1342	1342	1342	1342	1342	1342	1342	1347	1347	1347	1347	1347	1347	1342	1342	1342	1336	1336	1336	1331	1331	1331	1331	1331	1331	1331	1331	1331	1331	1326	1326	1326	1326	1326	1326	1326	1326	1326	1326	1326	1326	1321	1321	1316	1316	1316	1316	1316	1311	1311	1316	1311	1311	1311	1311	1311	1311	1311	1311	1311	1306	1306	1306	1306	1306	1306	1306	1306	1306	1301	1301	1301	1296	1296	1296	1296	1296	1296	1296	1296	1291	1291	1291	1291	1291	1291	1291	1287	1287	1287	1287	1287	1287	1282	1277	1277	1272	1272	1272	1272	1272	1272	1272	1272	1272	1272	1272	1272	1272	1268	1268	1263	1263	1263	1263	1263	1263	1259	1259	1254	1254	1254	1254	1254	1254	1254	1249	1249	1249	1249	1249	1245	1245	1245	1240	1240	1240	1240	1240	1236	1236	1236	1236	1236	1232	1232	1232	1232	1232	1232	1232	1232	1227	1227	1227	1227	1227	1227	1227	1223	1223	1223	1219	1219	1219	1219	1219	1214	1214	1214	1214	1214	1210	1210	1210	1210	1210	1210	1206	1206	1206	1206	1206	1202	1202	1197	1197	1197	1197	1197	1197	1197	1197	1193	1193	1193	1193	1189	1189	1189	1189	1189	1185	1185	1185	1185	1185	1181	1181	1181	1181	1177	1177	1173	1173	1177	1177	1177	1173	1173	1173	1169	1169	1169	1165	1165	1165	1165	1161	1161	1161	1157	1157	1157	1157	1157	1153	1150	1150	1150	1146	1146	1146	1146	1146	1146	1146	1146	1146	1142	1142	1142	1142	1142	1138	1138	1138	1134	1134	1131	1131	1131	1131	1131	1131	1131	1131	1131	1127	1127	1123	1123	1120	1120	1120	1116	1116	1116	1116	1116	1116	1116	1116	1113	1113	1113	1113	1113	1113	1109	1109	1105	1105	1105	1102	1102	1102	1102	1102	1102	1098	1098	1098	1098	1098	1098	1095	1095	1095	1095	1091	1091	1088	1088	1088	1088	1085	1085	1085	1085	1085	1085	1085	1081	1081	1081	1081	1081	1078	1078	1078	1078	1078	1074	1074	1074	1074	1074	1074	1071	1071	1071	1071	1071	1064	1064	1068	1068	1064	1064	1064	1064	1064	1064	1064	1064	1064	1064	1061	1058	1058	1058	1058	1058	1058	1058	1058	1058	1058	1058	1055	1055	1058	1058	1058	1169	1169	1165	1165	1165	1165	1161	1161	1161	1165	1165	1161	1157	1157	1157	1157	1157	1153	1153	1153	1150	1150	1150	1146	1146	1146	1146	1146	1146	1146	1146	1146	1142	1142	1142	1142	1138	1138	1138	0	0	0	0	0	0	0	0	0	0	0	0	0	0	0	0	0	0
0	0	0	0	0	0	0	0	0	0	0	0	0	0	0	0	0	0	0	0	0	0	0	0	0	1443	1443	1431	1431	1431	1431	1431	1431	1431	1431	1431	1431	1431	1431	1431	1431	1431	1431	1431	1431	1431	1431	1431	1425	1425	1425	1425	1431	1425	1431	1425	1425	1425	1425	1425	1425	1425	1425	1419	1419	1419	1419	1419	1419	1419	1419	1419	1419	1419	1419	1425	1419	1419	1413	1413	1413	1413	1413	1413	1413	1413	1413	1407	1407	1407	1407	1407	1407	1407	1407	1407	1407	1407	1407	1407	1407	1402	1402	1402	1402	1402	1402	1402	1402	1402	1402	1402	1402	1402	1402	1402	1396	1396	1396	1396	1396	1396	1396	1396	1396	1396	1396	1396	1396	1396	1396	1390	1390	1390	1390	1390	1390	1385	1385	1385	1385	1379	1379	1385	1385	1385	1385	1385	1385	1385	1379	1379	1379	1379	1379	1379	1374	1374	1374	1374	1374	1374	1374	1374	1374	1374	1374	1374	1374	1374	1374	1374	1374	1374	1368	1368	1363	1363	1363	1363	1363	1363	1363	1358	1358	1358	1358	1358	1358	1358	1358	1358	1358	1358	1358	1358	1358	1352	1352	1352	1347	1347	1347	1347	1347	1347	1347	1342	1342	1342	1342	1342	1342	1342	1342	1342	1342	1342	1342	1342	1342	1342	1342	1342	1336	1336	1336	1331	1331	1331	1331	1331	1331	1331	1331	1331	1331	1326	1326	1326	1326	1326	1326	1326	1326	1326	1326	1326	1326	1321	1321	1316	1316	1316	1316	1311	1311	1311	1311	1311	1311	1311	1311	1311	1311	1311	1306	1306	1306	1306	1306	1306	1306	1306	1306	1306	1306	1301	1301	1301	1301	1296	1296	1291	1291	1291	1291	1291	1291	1291	1291	1291	1291	1291	1291	1287	1287	1287	1287	1287	1287	1282	1277	1277	1272	1272	1272	1272	1272	1272	1272	1272	1272	1272	1272	1272	1272	1268	1268	1263	1263	1263	1263	1263	1263	1259	1259	1259	1254	1254	1254	1254	1254	1254	1249	1249	1249	1249	1245	1245	1245	1245	1245	1240	1240	1240	1240	1240	1240	1236	1236	1236	1232	1232	1232	1232	1232	1232	1232	1232	1227	1227	1227	1227	1227	1227	1223	1223	1223	1223	1219	1219	1219	1219	1219	1214	1214	1214	1210	1210	1210	1210	1210	1210	1210	1206	1206	1206	1206	1206	1206	1202	1202	1197	1197	1197	1197	1197	1197	1197	1197	1193	1193	1193	1193	1189	1189	1189	1189	1185	1185	1181	1181	1181	1181	1181	1181	1181	1177	1177	1177	1173	1173	1177	1177	1173	1173	1173	1173	1169	1169	1169	1165	1165	1165	1165	1161	1161	1161	1157	1157	1157	1157	1157	1153	1150	1150	1150	1146	1146	1146	1146	1146	1146	1146	1146	1142	1142	1142	1142	1142	1138	1138	1138	1134	1134	1134	1131	1131	1131	1131	1131	1131	1131	1127	1127	1127	1127	1123	1123	1120	1120	1120	1120	1116	1116	1116	1116	1116	1116	1116	1113	1113	1113	1113	1113	1109	1109	1105	1105	1105	1105	1102	1102	1102	1102	1102	1102	1098	1098	1098	1098	1098	1095	1095	1095	1095	1095	1091	1091	1088	1088	1088	1085	1085	1085	1085	1085	1085	1085	1085	1085	1081	1081	1081	1081	1078	1078	1078	1074	1074	1074	1074	1074	1074	1074	1074	1071	1071	1071	1071	1071	1064	1064	1068	1068	1064	1064	1064	1064	1064	1061	1061	1064	1064	1061	1061	1058	1058	1058	1058	1058	1058	1058	1058	1058	1058	1058	1055	1055	1055	1058	1058	1169	1169	1165	1165	1165	1161	1161	1161	1165	1165	1165	1161	1161	1157	1157	1157	1157	1153	1153	1153	1150	1150	1150	1150	1150	1150	1146	1146	1146	1146	1146	1146	1146	1142	1142	1142	1138	1138	1138	0	0	0	0	0	0	0	0	0	0	0	0	0	0	0	0	0	0
0	0	0	0	0	0	0	0	0	0	0	0	0	0	0	0	0	0	0	0	0	0	0	0	0	1443	1443	1431	1431	1431	1431	1431	1431	1431	1431	1431	1431	1431	1431	1431	1431	1431	1431	1431	1431	1431	1425	1425	1425	1425	1425	1425	1425	1425	1425	1425	1425	1425	1425	1425	1425	1425	1425	1419	1419	1419	1419	1419	1419	1419	1419	1419	1419	1419	1419	1419	1419	1419	1413	1413	1413	1407	1407	1407	1407	1407	1407	1407	1407	1407	1407	1407	1407	1407	1407	1407	1407	1407	1407	1407	1402	1402	1402	1402	1402	1402	1396	1396	1396	1402	1396	1396	1402	1396	1396	1396	1396	1396	1396	1396	1396	1396	1396	1396	1396	1396	1396	1396	1396	1396	1390	1390	1390	1390	1390	1385	1385	1385	1385	1385	1379	1379	1379	1385	1385	1385	1385	1385	1385	1379	1379	1379	1379	1379	1379	1379	1374	1374	1374	1374	1374	1374	1374	1374	1374	1374	1374	1374	1374	1374	1374	1374	1374	1374	1368	1368	1368	1363	1363	1363	1363	1363	1358	1358	1358	1358	1358	1358	1358	1358	1358	1358	1358	1358	1358	1358	1358	1352	1352	1352	1347	1347	1347	1347	1347	1347	1347	1342	1342	1342	1342	1342	1342	1342	1342	1342	1342	1342	1342	1342	1336	1336	1336	1336	1336	1336	1336	1331	1331	1331	1331	1331	1331	1331	1331	1331	1331	1326	1326	1326	1326	1326	1326	1326	1326	1326	1326	1326	1326	1321	1321	1316	1316	1316	1316	1311	1311	1311	1311	1311	1311	1311	1311	1311	1311	1311	1306	1306	1306	1306	1306	1306	1306	1306	1306	1306	1306	1306	1301	1301	1301	1301	1296	1291	1291	1291	1291	1291	1291	1291	1291	1291	1291	1287	1287	1287	1287	1287	1287	1282	1282	1282	1277	1277	1272	1272	1272	1272	1272	1272	1272	1272	1272	1272	1272	1272	1268	1268	1268	1263	1263	1263	1263	1263	1263	1259	1259	1259	1259	1254	1254	1254	1249	1249	1249	1249	1249	1245	1245	1245	1245	1245	1245	1240	1240	1240	1240	1240	1240	1236	1236	1236	1232	1232	1232	1232	1232	1232	1232	1232	1227	1227	1227	1227	1227	1227	1223	1223	1219	1219	1219	1219	1219	1219	1214	1214	1214	1214	1210	1210	1210	1210	1210	1210	1210	1206	1206	1206	1206	1202	1202	1202	1202	1197	1197	1197	1197	1197	1197	1197	1197	1193	1193	1193	1193	1189	1189	1189	1185	1185	1185	1181	1181	1181	1181	1181	1181	1181	1177	1177	1177	1173	1173	1173	1173	1173	1173	1173	1173	1169	1169	1169	1165	1165	1165	1165	1165	1161	1161	1157	1157	1157	1157	1157	1153	1150	1146	1146	1146	1146	1146	1146	1146	1146	1146	1142	1142	1142	1142	1142	1142	1138	1138	1138	1134	1134	1134	1131	1131	1131	1131	1131	1131	1131	1127	1127	1127	1127	1123	1123	1120	1120	1120	1120	1116	1116	1116	1116	1116	1116	1116	1113	1113	1113	1109	1109	1109	1105	1105	1105	1105	1105	1102	1102	1102	1102	1102	1102	1098	1098	1098	1098	1098	1095	1095	1095	1095	1095	1095	1091	1088	1088	1088	1088	1085	1085	1085	1085	1085	1085	1085	1085	1081	1081	1081	1078	1078	1078	1078	1074	1074	1074	1074	1074	1074	1074	1074	1071	1071	1071	1071	1071	1064	1064	1064	1064	1061	1061	1064	1064	1061	1061	1061	1061	1061	1061	1058	1058	1058	1058	1058	1058	1058	1058	1058	1058	1058	1058	1055	1055	1055	1055	1055	1169	1169	1165	1165	1165	1161	1161	1161	1165	1165	1165	1161	1157	1157	1157	1157	1157	1157	1153	1153	1153	1150	1150	1150	1150	1150	1146	1146	1146	1146	1146	1146	1146	1142	1142	1142	1138	1138	1138	0	0	0	0	0	0	0	0	0	0	0	0	0	0	0	0	0	0
0	0	0	0	0	0	0	0	0	0	0	0	0	0	0	0	0	0	0	0	0	0	0	0	0	1437	1437	1431	1431	1437	1431	1431	1431	1431	1431	1431	1431	1431	1431	1431	1431	1431	1431	1431	1425	1425	1425	1425	1425	1425	1425	1425	1425	1425	1425	1425	1425	1425	1425	1425	1425	1425	1425	1419	1419	1425	1419	1419	1419	1419	1419	1419	1419	1419	1419	1419	1419	1419	1413	1407	1407	1407	1407	1407	1407	1407	1407	1407	1407	1407	1407	1407	1407	1407	1407	1407	1407	1407	1407	1407	1402	1402	1402	1402	1402	1402	1396	1396	1396	1396	1396	1396	1396	1396	1396	1396	1396	1396	1396	1396	1396	1396	1396	1396	1396	1396	1396	1396	1396	1396	1390	1390	1385	1385	1390	1385	1385	1385	1385	1385	1379	1379	1379	1385	1385	1385	1379	1379	1385	1379	1379	1379	1379	1379	1379	1379	1374	1374	1374	1374	1374	1374	1374	1374	1374	1374	1374	1374	1374	1374	1374	1374	1374	1374	1368	1368	1368	1363	1363	1363	1363	1363	1358	1358	1358	1358	1358	1358	1358	1358	1358	1358	1358	1352	1352	1352	1352	1352	1352	1352	1347	1347	1347	1347	1347	1347	1347	1347	1342	1342	1342	1342	1342	1336	1336	1336	1336	1336	1336	1336	1336	1336	1336	1336	1336	1331	1331	1331	1331	1331	1331	1331	1331	1331	1331	1331	1331	1326	1326	1326	1326	1326	1326	1326	1326	1326	1326	1326	1326	1321	1321	1316	1316	1316	1316	1311	1311	1311	1311	1311	1311	1311	1311	1311	1311	1311	1306	1306	1306	1306	1306	1306	1306	1306	1306	1301	1301	1301	1301	1301	1301	1301	1296	1291	1291	1291	1291	1291	1287	1287	1287	1287	1287	1287	1287	1287	1287	1287	1287	1282	1282	1282	1277	1277	1272	1272	1272	1272	1272	1272	1272	1272	1272	1272	1272	1268	1268	1268	1268	1263	1263	1263	1263	1263	1263	1259	1259	1259	1259	1254	1254	1254	1249	1249	1249	1249	1249	1245	1245	1245	1245	1245	1245	1245	1245	1240	1240	1240	1240	1236	1236	1236	1232	1232	1232	1232	1232	1232	1232	1232	1227	1227	1227	1227	1227	1227	1223	1223	1219	1219	1219	1219	1219	1214	1214	1214	1214	1214	1210	1210	1210	1210	1210	1210	1206	1206	1206	1206	1206	1202	1202	1202	1197	1197	1197	1197	1197	1197	1197	1197	1197	1193	1193	1193	1193	1189	1189	1185	1185	1185	1181	1181	1181	1181	1181	1181	1181	1181	1181	1177	1177	1173	1173	1173	1173	1173	1173	1173	1173	1169	1169	1169	1165	1165	1165	1165	1165	1161	1161	1157	1157	1157	1157	1157	1153	1150	1146	1146	1146	1146	1146	1146	1146	1146	1146	1142	1142	1142	1142	1142	1142	1138	1138	1138	1134	1134	1134	1131	1131	1131	1131	1131	1127	1127	1127	1127	1127	1127	1123	1123	1120	1120	1120	1120	1116	1116	1116	1116	1116	1113	1113	1113	1113	1113	1113	1109	1109	1105	1105	1105	1105	1102	1102	1102	1102	1102	1098	1098	1098	1098	1098	1098	1098	1095	1095	1095	1095	1095	1095	1095	1091	1088	1088	1085	1085	1085	1085	1085	1085	1085	1085	1085	1081	1081	1081	1078	1078	1078	1074	1074	1074	1074	1074	1074	1074	1074	1071	1071	1071	1071	1071	1071	1064	1064	1061	1061	1061	1061	1061	1061	1061	1058	1058	1058	1058	1058	1058	1058	1058	1058	1058	1061	1058	1058	1058	1058	1058	1058	1055	1055	1055	1055	1055	1169	1169	1165	1165	1165	1165	1165	1161	1161	1161	1165	1161	1157	1157	1157	1157	1157	1153	1153	1153	1153	1150	1150	1150	1150	1150	1146	1146	1146	1146	1150	1146	1146	1142	1142	1142	1138	1138	1138	0	0	0	0	0	0	0	0	0	0	0	0	0	0	0	0	0	0
0	0	0	0	0	0	0	0	0	0	0	0	0	0	0	0	0	0	0	0	0	0	0	0	0	1437	1437	1431	1431	1437	1431	1431	1437	1437	1431	1431	1431	1431	1431	1431	1431	1431	1431	1431	1425	1425	1425	1425	1425	1425	1425	1425	1425	1425	1425	1425	1425	1425	1425	1425	1425	1425	1425	1419	1419	1425	1413	1413	1419	1419	1419	1419	1419	1419	1419	1419	1419	1419	1413	1407	1407	1407	1407	1407	1407	1407	1402	1402	1407	1407	1407	1407	1407	1407	1407	1407	1407	1402	1402	1402	1402	1402	1402	1402	1402	1402	1396	1396	1396	1396	1396	1396	1396	1396	1396	1396	1396	1396	1396	1396	1396	1396	1396	1396	1396	1396	1396	1396	1396	1390	1390	1385	1385	1385	1390	1390	1385	1385	1385	1385	1385	1379	1379	1385	1385	1385	1379	1379	1379	1379	1379	1379	1379	1379	1379	1374	1374	1374	1374	1374	1374	1374	1374	1374	1374	1374	1374	1374	1374	1374	1374	1374	1374	1374	1368	1368	1368	1368	1363	1363	1363	1363	1358	1358	1358	1358	1358	1358	1358	1358	1358	1352	1352	1352	1352	1352	1352	1352	1352	1352	1347	1347	1347	1347	1347	1347	1347	1347	1342	1342	1342	1342	1336	1336	1336	1336	1336	1336	1336	1336	1336	1336	1336	1336	1336	1331	1331	1331	1331	1331	1331	1331	1331	1331	1331	1331	1331	1326	1326	1326	1326	1326	1326	1326	1326	1326	1326	1326	1326	1321	1321	1321	1321	1316	1316	1311	1311	1311	1311	1311	1311	1311	1311	1306	1306	1306	1306	1306	1306	1306	1306	1306	1306	1301	1301	1301	1301	1301	1301	1296	1296	1296	1296	1296	1296	1291	1291	1291	1287	1287	1287	1287	1287	1287	1287	1287	1287	1287	1287	1282	1282	1282	1277	1277	1272	1272	1272	1272	1272	1272	1272	1272	1272	1272	1272	1268	1268	1268	1268	1263	1263	1263	1263	1263	1263	1259	1259	1259	1259	1259	1254	1254	1249	1249	1249	1249	1249	1245	1245	1245	1245	1245	1245	1245	1240	1240	1240	1240	1240	1236	1236	1236	1232	1232	1232	1232	1232	1232	1232	1227	1227	1227	1227	1227	1227	1223	1223	1223	1219	1219	1219	1219	1214	1214	1214	1214	1214	1210	1210	1210	1210	1210	1210	1210	1206	1206	1206	1206	1206	1202	1202	1202	1197	1197	1197	1197	1197	1197	1197	1197	1197	1193	1193	1193	1193	1189	1189	1185	1185	1185	1181	1181	1181	1181	1181	1181	1181	1181	1181	1177	1177	1177	1177	1173	1173	1173	1173	1173	1173	1169	1169	1169	1165	1165	1165	1161	1161	1161	1161	1157	1157	1157	1157	1153	1153	1150	1146	1146	1146	1146	1146	1146	1146	1146	1142	1142	1142	1142	1142	1142	1142	1138	1138	1134	1134	1131	1131	1131	1131	1131	1131	1131	1127	1127	1127	1127	1127	1123	1123	1120	1120	1120	1120	1120	1116	1116	1116	1116	1116	1113	1113	1113	1113	1113	1109	1109	1109	1105	1105	1105	1105	1102	1102	1102	1102	1102	1098	1098	1098	1098	1098	1098	1098	1095	1095	1095	1095	1095	1095	1095	1091	1088	1088	1085	1085	1085	1085	1085	1085	1085	1085	1085	1081	1081	1078	1078	1078	1078	1074	1074	1074	1074	1074	1074	1071	1071	1071	1071	1071	1071	1071	1071	1064	1064	1061	1061	1061	1061	1061	1061	1061	1058	1058	1058	1058	1058	1058	1058	1058	1058	1058	1061	1058	1058	1058	1058	1058	1058	1055	1055	1055	1052	1052	1165	1165	1165	1165	1165	1165	1165	1161	1161	1161	1165	1161	1157	1157	1157	1157	1157	1153	1153	1153	1153	1153	1150	1150	1150	1150	1146	1146	1146	1146	1150	1146	1146	1142	1142	1142	1138	1138	1138	0	0	0	0	0	0	0	0	0	0	0	0	0	0	0	0	0	0
0	0	0	0	0	0	0	0	0	0	0	0	0	0	0	0	0	0	0	0	0	0	0	0	0	1443	1443	1437	1437	1437	1437	1431	1431	1431	1431	1431	1431	1431	1431	1431	1425	1425	1425	1425	1425	1425	1425	1425	1425	1425	1425	1425	1425	1425	1425	1425	1425	1425	1425	1425	1425	1425	1425	1419	1419	1419	1413	1413	1419	1419	1419	1419	1419	1419	1419	1419	1419	1413	1413	1407	1407	1407	1407	1407	1407	1407	1402	1402	1407	1407	1407	1407	1407	1407	1407	1407	1407	1402	1402	1402	1402	1402	1402	1402	1402	1402	1396	1396	1396	1396	1396	1396	1396	1396	1396	1396	1396	1396	1396	1396	1396	1396	1396	1396	1396	1390	1390	1390	1390	1390	1390	1385	1385	1385	1385	1385	1385	1385	1385	1385	1379	1379	1379	1379	1379	1379	1379	1379	1379	1379	1379	1379	1379	1379	1379	1374	1374	1374	1374	1374	1374	1374	1374	1374	1374	1374	1374	1374	1374	1374	1374	1374	1374	1368	1368	1368	1368	1368	1363	1363	1363	1363	1358	1358	1358	1358	1358	1358	1358	1358	1358	1352	1352	1352	1352	1352	1352	1352	1352	1352	1347	1347	1347	1347	1347	1347	1347	1347	1342	1342	1342	1342	1336	1336	1336	1336	1336	1336	1336	1336	1336	1336	1336	1336	1331	1331	1331	1331	1331	1331	1331	1331	1331	1331	1331	1331	1331	1331	1331	1326	1326	1326	1326	1326	1326	1326	1326	1326	1326	1321	1321	1321	1316	1316	1311	1311	1311	1311	1311	1311	1311	1311	1306	1306	1306	1306	1306	1306	1306	1306	1306	1306	1306	1301	1301	1301	1301	1301	1301	1296	1296	1296	1296	1296	1291	1291	1291	1291	1287	1287	1287	1287	1287	1287	1287	1287	1287	1287	1287	1282	1282	1282	1277	1277	1272	1272	1272	1272	1272	1272	1272	1272	1272	1272	1272	1268	1268	1268	1268	1263	1263	1263	1263	1263	1263	1259	1259	1259	1259	1259	1254	1254	1254	1249	1249	1249	1245	1245	1245	1245	1240	1240	1240	1240	1240	1240	1240	1240	1236	1236	1236	1236	1232	1232	1232	1232	1232	1232	1232	1227	1227	1227	1227	1227	1227	1223	1223	1223	1219	1214	1214	1214	1214	1214	1214	1214	1210	1210	1210	1210	1210	1210	1206	1206	1206	1206	1206	1206	1206	1202	1202	1202	1202	1197	1197	1197	1197	1197	1197	1197	1193	1193	1193	1193	1193	1189	1185	1185	1181	1181	1181	1181	1181	1181	1181	1181	1181	1181	1181	1177	1177	1177	1177	1177	1177	1177	1173	1173	1173	1169	1169	1169	1165	1165	1165	1161	1161	1161	1161	1157	1157	1157	1153	1153	1153	1150	1150	1150	1146	1146	1146	1146	1146	1146	1142	1142	1142	1142	1142	1142	1138	1138	1134	1134	1134	1131	1131	1131	1131	1131	1131	1131	1127	1127	1127	1127	1127	1123	1123	1120	1120	1120	1120	1120	1116	1116	1116	1116	1113	1113	1113	1113	1113	1113	1109	1109	1109	1105	1105	1105	1102	1102	1102	1102	1098	1098	1098	1098	1098	1098	1098	1098	1098	1098	1095	1095	1095	1095	1095	1095	1091	1088	1088	1085	1085	1085	1085	1085	1085	1085	1085	1085	1081	1081	1078	1078	1078	1074	1074	1074	1074	1074	1074	1074	1071	1071	1071	1071	1071	1071	1071	1071	1068	1068	1064	1064	1064	1064	1064	1064	1061	1058	1058	1058	1058	1058	1058	1058	1058	1058	1058	1061	1058	1058	1058	1058	1058	1058	1055	1055	1055	1052	1052	1165	1165	1165	1165	1165	1165	1165	1165	1165	1165	1165	1161	1157	1157	1157	1157	1157	1153	1153	1153	1153	1153	1150	1150	1150	1150	1146	1146	1146	1146	1150	1146	1142	1142	1142	1142	1138	1138	1138	0	0	0	0	0	0	0	0	0	0	0	0	0	0	0	0	0	0
0	0	0	0	0	0	0	0	0	0	0	0	0	0	0	0	0	0	0	0	0	0	0	0	0	1443	1443	1437	1437	1437	1431	1431	1431	1431	1431	1431	1431	1431	1431	1425	1425	1425	1425	1425	1425	1425	1425	1425	1425	1425	1425	1425	1425	1425	1425	1425	1425	1425	1425	1419	1419	1419	1419	1419	1419	1419	1419	1419	1419	1419	1419	1419	1419	1419	1419	1419	1419	1419	1413	1407	1407	1413	1407	1407	1407	1407	1402	1402	1402	1402	1402	1402	1402	1402	1402	1402	1402	1402	1402	1402	1402	1402	1402	1402	1402	1396	1396	1396	1396	1396	1396	1396	1396	1396	1396	1396	1396	1396	1396	1396	1396	1396	1396	1390	1390	1390	1390	1390	1390	1390	1390	1385	1385	1385	1385	1385	1385	1385	1385	1385	1379	1379	1379	1379	1379	1379	1379	1379	1379	1379	1379	1379	1374	1374	1374	1374	1374	1379	1374	1374	1374	1374	1374	1374	1374	1374	1374	1374	1368	1368	1368	1368	1368	1368	1368	1368	1368	1368	1368	1363	1363	1363	1358	1358	1358	1358	1358	1358	1358	1358	1358	1352	1352	1352	1352	1352	1352	1352	1352	1352	1347	1347	1347	1347	1347	1347	1347	1347	1342	1342	1342	1336	1336	1331	1331	1331	1336	1331	1336	1336	1336	1336	1331	1331	1331	1331	1331	1331	1331	1331	1331	1331	1331	1331	1331	1331	1331	1331	1331	1326	1326	1326	1326	1326	1326	1326	1326	1326	1326	1326	1321	1321	1316	1316	1311	1311	1311	1311	1311	1311	1311	1306	1306	1306	1306	1306	1306	1306	1306	1306	1306	1306	1301	1301	1301	1301	1301	1301	1296	1296	1296	1296	1296	1296	1291	1291	1291	1291	1287	1287	1287	1287	1287	1287	1287	1287	1287	1282	1282	1282	1277	1277	1277	1272	1272	1272	1272	1272	1272	1272	1268	1268	1268	1272	1272	1268	1268	1268	1268	1263	1263	1263	1263	1263	1263	1259	1259	1259	1259	1259	1254	1254	1249	1249	1249	1249	1245	1245	1245	1245	1240	1240	1240	1240	1240	1240	1240	1240	1236	1236	1236	1236	1232	1232	1232	1232	1232	1232	1227	1227	1227	1227	1227	1227	1223	1223	1223	1223	1219	1214	1214	1214	1214	1214	1214	1210	1210	1210	1210	1210	1210	1210	1206	1206	1206	1202	1202	1202	1202	1202	1202	1202	1197	1202	1197	1197	1197	1197	1197	1197	1193	1193	1193	1193	1193	1189	1185	1185	1181	1181	1181	1181	1181	1181	1181	1181	1181	1181	1181	1181	1177	1177	1177	1177	1177	1177	1173	1173	1173	1169	1169	1169	1165	1165	1165	1165	1165	1161	1161	1157	1157	1157	1157	1157	1153	1150	1150	1150	1146	1146	1142	1142	1142	1142	1142	1142	1142	1142	1142	1142	1138	1138	1134	1134	1134	1134	1134	1131	1131	1131	1131	1131	1131	1127	1127	1127	1127	1127	1123	1120	1120	1120	1120	1120	1116	1116	1116	1116	1113	1113	1113	1113	1113	1113	1109	1109	1109	1105	1105	1105	1102	1102	1102	1102	1098	1098	1098	1098	1098	1098	1098	1098	1098	1098	1095	1095	1095	1095	1095	1091	1091	1088	1088	1085	1085	1085	1085	1085	1085	1085	1085	1085	1081	1081	1078	1078	1078	1074	1074	1074	1074	1074	1074	1074	1071	1071	1071	1071	1071	1071	1071	1071	1068	1068	1064	1064	1064	1064	1064	1064	1058	1058	1058	1058	1058	1058	1058	1058	1058	1058	1058	1058	1058	1058	1058	1058	1058	1055	1055	1055	1055	1055	1055	1165	1165	1165	1165	1165	1165	1165	1165	1165	1165	1165	1161	1157	1157	1157	1157	1157	1153	1153	1153	1153	1153	1150	1150	1150	1150	1146	1146	1146	1146	1146	1146	1142	1142	1142	1142	1142	1142	1142	0	0	0	0	0	0	0	0	0	0	0	0	0	0	0	0	0	0
0	0	0	0	0	0	0	0	0	0	0	0	0	0	0	0	0	0	0	0	0	0	0	0	0	1443	1443	1431	1431	1437	1431	1431	1431	1431	1431	1431	1431	1431	1431	1425	1425	1425	1425	1425	1425	1425	1425	1425	1425	1425	1425	1425	1425	1425	1425	1425	1425	1425	1425	1419	1419	1419	1419	1419	1419	1419	1419	1419	1419	1419	1419	1419	1419	1419	1419	1413	1413	1413	1413	1413	1413	1413	1413	1407	1407	1407	1402	1402	1402	1402	1402	1402	1402	1402	1402	1402	1402	1402	1402	1402	1402	1402	1402	1396	1396	1396	1396	1396	1396	1396	1396	1396	1396	1396	1396	1396	1396	1396	1396	1396	1396	1396	1396	1390	1390	1390	1390	1390	1390	1390	1390	1385	1385	1385	1385	1385	1385	1385	1385	1385	1379	1379	1379	1379	1379	1379	1379	1379	1379	1379	1379	1379	1374	1374	1374	1374	1374	1374	1374	1374	1374	1374	1374	1374	1374	1374	1374	1374	1368	1368	1368	1368	1368	1368	1368	1363	1363	1363	1363	1363	1358	1358	1358	1358	1358	1358	1352	1352	1358	1358	1352	1352	1352	1352	1352	1352	1352	1352	1352	1352	1347	1347	1347	1347	1347	1347	1347	1347	1342	1342	1342	1336	1336	1331	1331	1331	1331	1331	1331	1336	1336	1331	1331	1331	1331	1331	1331	1331	1331	1331	1331	1331	1331	1331	1331	1331	1331	1331	1331	1326	1326	1326	1326	1326	1326	1326	1326	1326	1326	1326	1321	1321	1316	1316	1316	1316	1311	1311	1311	1311	1311	1306	1306	1306	1306	1306	1306	1306	1306	1306	1306	1306	1301	1301	1301	1301	1301	1296	1296	1296	1296	1296	1296	1291	1291	1291	1291	1291	1287	1287	1287	1287	1287	1287	1287	1282	1282	1282	1282	1282	1277	1277	1277	1272	1272	1272	1272	1272	1272	1272	1268	1268	1268	1272	1272	1268	1268	1268	1268	1263	1263	1263	1263	1263	1263	1259	1259	1259	1259	1254	1254	1254	1249	1249	1249	1249	1245	1245	1245	1245	1240	1240	1240	1240	1240	1240	1240	1236	1236	1236	1236	1236	1232	1232	1232	1232	1232	1232	1227	1227	1227	1227	1227	1223	1223	1223	1223	1223	1219	1214	1214	1214	1214	1214	1214	1210	1210	1210	1210	1210	1210	1210	1206	1206	1206	1202	1202	1202	1202	1202	1202	1202	1197	1197	1197	1197	1197	1197	1197	1197	1193	1193	1193	1193	1193	1193	1185	1185	1185	1181	1181	1181	1181	1181	1181	1181	1181	1181	1181	1181	1177	1177	1177	1177	1177	1177	1173	1173	1173	1169	1169	1169	1165	1165	1165	1161	1161	1165	1161	1157	1157	1157	1157	1157	1153	1153	1150	1150	1146	1146	1142	1142	1142	1142	1142	1142	1142	1142	1142	1142	1138	1138	1138	1134	1134	1134	1134	1131	1131	1131	1131	1131	1127	1127	1127	1127	1127	1127	1123	1120	1120	1120	1120	1120	1116	1116	1116	1116	1113	1113	1113	1113	1113	1113	1109	1109	1109	1105	1105	1105	1105	1102	1102	1102	1098	1098	1098	1098	1098	1098	1098	1098	1098	1098	1095	1095	1095	1091	1091	1091	1091	1088	1088	1085	1085	1085	1085	1085	1085	1085	1085	1085	1081	1081	1078	1078	1078	1078	1074	1074	1074	1074	1074	1074	1071	1071	1071	1071	1071	1071	1071	1071	1071	1068	1064	1064	1064	1064	1064	1064	1058	1058	1058	1058	1058	1058	1058	1058	1058	1058	1058	1058	1058	1058	1058	1058	1055	1055	1055	1055	1055	1055	1055	1165	1165	1165	1165	1165	1165	1161	1161	1161	1165	1161	1161	1161	1157	1157	1157	1157	1153	1153	1153	1153	1153	1150	1150	1146	1146	1146	1146	1146	1146	1146	1142	1142	1142	1142	1142	1142	1142	1142	0	0	0	0	0	0	0	0	0	0	0	0	0	0	0	0	0	0
0	0	0	0	0	0	0	0	0	0	0	0	0	0	0	0	0	0	0	0	0	0	0	0	0	1443	1443	1431	1431	1431	1431	1431	1431	1431	1431	1431	1431	1431	1425	1425	1425	1425	1425	1425	1425	1425	1425	1425	1425	1425	1425	1425	1425	1425	1425	1419	1419	1425	1425	1419	1419	1419	1419	1419	1419	1419	1419	1419	1419	1419	1419	1419	1419	1419	1419	1413	1413	1413	1413	1407	1407	1413	1413	1407	1407	1407	1402	1402	1402	1402	1402	1402	1407	1407	1407	1402	1402	1402	1402	1402	1402	1402	1402	1396	1396	1396	1396	1396	1396	1396	1396	1396	1396	1396	1396	1396	1396	1396	1396	1396	1396	1396	1396	1390	1390	1390	1390	1390	1390	1390	1385	1385	1385	1385	1385	1385	1385	1385	1385	1379	1379	1379	1379	1379	1379	1379	1379	1379	1379	1379	1379	1379	1374	1374	1374	1374	1374	1374	1374	1374	1374	1374	1374	1374	1368	1368	1374	1368	1368	1368	1368	1368	1368	1368	1368	1363	1363	1363	1363	1363	1358	1358	1358	1358	1358	1358	1352	1352	1358	1358	1352	1352	1352	1352	1352	1352	1352	1352	1352	1352	1347	1347	1347	1347	1347	1347	1347	1347	1342	1342	1342	1342	1336	1331	1331	1331	1331	1331	1331	1336	1336	1331	1331	1331	1331	1331	1331	1331	1331	1331	1331	1331	1331	1331	1331	1331	1331	1331	1331	1326	1326	1326	1326	1326	1326	1326	1326	1321	1321	1326	1321	1321	1321	1316	1316	1316	1311	1311	1311	1311	1311	1306	1306	1306	1306	1306	1306	1306	1306	1306	1306	1306	1301	1301	1296	1296	1296	1296	1296	1296	1296	1296	1296	1291	1291	1291	1291	1291	1287	1287	1287	1287	1287	1287	1282	1282	1282	1282	1282	1282	1277	1277	1277	1272	1272	1272	1272	1272	1272	1272	1268	1268	1268	1268	1268	1268	1268	1268	1268	1263	1263	1263	1263	1263	1263	1259	1259	1259	1254	1254	1254	1254	1249	1249	1249	1249	1245	1245	1245	1245	1240	1240	1240	1240	1240	1236	1236	1236	1236	1236	1236	1236	1232	1232	1232	1232	1232	1232	1232	1227	1227	1227	1227	1223	1223	1223	1223	1219	1219	1214	1214	1214	1214	1214	1214	1210	1210	1210	1210	1210	1210	1210	1206	1206	1206	1202	1202	1202	1202	1202	1202	1202	1197	1197	1197	1197	1197	1197	1197	1197	1193	1193	1193	1193	1193	1193	1189	1185	1185	1181	1181	1181	1181	1181	1181	1181	1181	1181	1181	1181	1177	1177	1177	1177	1177	1177	1173	1173	1173	1169	1169	1169	1165	1165	1165	1161	1161	1161	1161	1157	1157	1157	1157	1157	1153	1153	1153	1150	1150	1146	1146	1146	1146	1142	1142	1142	1142	1142	1142	1142	1138	1138	1138	1134	1134	1134	1134	1131	1131	1131	1131	1131	1127	1127	1127	1127	1127	1127	1123	1120	1120	1123	1120	1120	1116	1116	1116	1116	1113	1113	1113	1113	1113	1113	1109	1109	1109	1109	1105	1105	1105	1102	1102	1102	1098	1098	1098	1098	1098	1098	1098	1098	1095	1095	1095	1091	1091	1091	1091	1091	1091	1088	1088	1088	1085	1085	1085	1085	1085	1085	1085	1085	1081	1081	1078	1078	1078	1078	1078	1074	1074	1074	1074	1071	1071	1071	1071	1071	1071	1071	1071	1071	1071	1068	1064	1064	1068	1068	1064	1061	1058	1058	1058	1058	1058	1058	1058	1058	1058	1058	1058	1058	1058	1058	1058	1058	1055	1055	1055	1055	1055	1052	1052	1165	1165	1165	1165	1165	1165	1161	1161	1161	1161	1161	1161	1157	1157	1157	1157	1153	1153	1153	1153	1153	1153	1146	1146	1146	1146	1146	1146	1142	1142	1142	1142	1142	1142	1142	1142	1142	1142	1142	0	0	0	0	0	0	0	0	0	0	0	0	0	0	0	0	0	0
0	0	0	0	0	0	0	0	0	0	0	0	0	0	0	0	0	0	0	0	0	0	0	0	0	1443	1443	1431	1431	1431	1431	1431	1431	1431	1431	1431	1425	1425	1425	1425	1425	1425	1425	1425	1425	1425	1425	1425	1425	1425	1425	1425	1425	1419	1419	1419	1419	1425	1425	1419	1419	1419	1413	1413	1419	1413	1413	1413	1413	1413	1413	1413	1419	1419	1419	1419	1419	1413	1413	1407	1407	1413	1407	1407	1407	1407	1402	1402	1402	1402	1402	1402	1407	1402	1402	1402	1402	1402	1402	1402	1402	1402	1402	1396	1396	1396	1396	1396	1396	1396	1396	1396	1396	1396	1396	1396	1396	1396	1396	1396	1390	1390	1396	1390	1390	1390	1390	1390	1390	1390	1385	1385	1385	1385	1385	1385	1385	1385	1385	1379	1379	1379	1379	1379	1379	1379	1379	1379	1379	1379	1379	1379	1379	1379	1374	1374	1374	1374	1374	1374	1374	1374	1374	1374	1368	1368	1374	1368	1368	1368	1368	1368	1368	1368	1363	1363	1363	1363	1368	1363	1358	1358	1358	1358	1358	1352	1352	1352	1352	1358	1352	1352	1352	1352	1352	1352	1352	1352	1352	1352	1347	1347	1347	1347	1347	1347	1347	1347	1347	1347	1342	1342	1336	1336	1336	1336	1336	1331	1336	1336	1336	1336	1331	1331	1336	1331	1331	1331	1331	1331	1331	1331	1331	1331	1331	1331	1331	1331	1326	1326	1326	1326	1326	1326	1326	1326	1326	1321	1321	1326	1321	1321	1316	1316	1316	1316	1311	1311	1311	1311	1311	1306	1306	1306	1306	1306	1306	1306	1306	1306	1306	1306	1301	1301	1296	1296	1296	1296	1291	1291	1291	1291	1296	1291	1291	1291	1291	1291	1287	1287	1287	1287	1287	1287	1282	1282	1282	1282	1282	1277	1277	1277	1277	1272	1272	1272	1268	1268	1268	1268	1268	1268	1268	1268	1268	1268	1268	1268	1268	1263	1263	1263	1263	1263	1263	1259	1259	1259	1254	1254	1254	1254	1249	1249	1249	1249	1245	1245	1245	1245	1240	1240	1236	1236	1236	1236	1236	1236	1236	1236	1232	1232	1232	1232	1232	1232	1232	1232	1227	1227	1227	1227	1227	1223	1223	1223	1223	1219	1214	1214	1214	1214	1214	1214	1214	1210	1210	1210	1210	1210	1210	1206	1206	1206	1206	1202	1202	1202	1202	1202	1202	1202	1197	1197	1197	1197	1197	1197	1197	1193	1193	1193	1193	1193	1193	1193	1189	1185	1185	1181	1181	1181	1181	1181	1181	1181	1181	1181	1181	1181	1177	1177	1177	1177	1177	1173	1173	1173	1173	1169	1169	1169	1165	1165	1165	1161	1161	1161	1161	1157	1157	1153	1153	1153	1153	1153	1153	1150	1150	1146	1146	1146	1146	1146	1142	1142	1142	1142	1142	1142	1138	1138	1134	1134	1134	1134	1134	1134	1131	1131	1131	1131	1127	1127	1123	1123	1123	1123	1123	1120	1120	1120	1120	1116	1116	1116	1116	1116	1113	1113	1113	1113	1109	1109	1109	1109	1109	1109	1105	1105	1105	1102	1102	1102	1098	1098	1098	1098	1098	1098	1098	1098	1095	1095	1091	1091	1091	1091	1091	1091	1088	1088	1088	1085	1085	1085	1085	1085	1085	1081	1081	1081	1081	1081	1078	1078	1078	1078	1078	1074	1074	1074	1071	1071	1071	1071	1071	1071	1071	1071	1071	1071	1068	1068	1064	1064	1068	1064	1064	1061	1058	1058	1058	1058	1058	1058	1058	1058	1058	1058	1058	1058	1058	1058	1058	1058	1058	1055	1055	1055	1055	1052	1052	1165	1165	1165	1165	1165	1165	1165	1161	1161	1161	1161	1161	1157	1157	1157	1157	1153	1153	1153	1153	1153	1153	1146	1146	1146	1146	1146	1142	1142	1142	1142	1142	1142	1142	1142	1142	1142	1142	1142	0	0	0	0	0	0	0	0	0	0	0	0	0	0	0	0	0	0
0	0	0	0	0	0	0	0	0	0	0	0	0	0	0	0	0	0	0	0	0	0	0	0	0	1443	1443	1431	1431	1431	1431	1431	1431	1425	1425	1431	1425	1425	1425	1425	1425	1425	1425	1425	1425	1425	1425	1425	1425	1425	1425	1425	1425	1419	1419	1419	1419	1419	1419	1419	1419	1419	1413	1413	1419	1413	1413	1413	1413	1413	1413	1413	1419	1419	1419	1413	1413	1413	1413	1407	1407	1407	1407	1407	1407	1407	1402	1402	1402	1402	1402	1402	1402	1402	1402	1402	1402	1402	1402	1402	1402	1402	1402	1396	1396	1396	1396	1396	1396	1396	1396	1396	1396	1396	1396	1396	1396	1396	1396	1396	1390	1390	1390	1396	1396	1396	1396	1390	1390	1390	1385	1385	1385	1385	1385	1385	1385	1385	1385	1379	1379	1379	1379	1379	1379	1379	1379	1379	1379	1379	1379	1379	1379	1379	1374	1374	1374	1374	1374	1374	1374	1374	1374	1374	1374	1368	1368	1368	1368	1368	1368	1368	1368	1368	1363	1363	1363	1363	1363	1363	1358	1358	1358	1358	1358	1352	1352	1352	1352	1352	1352	1352	1352	1352	1352	1352	1352	1352	1352	1352	1347	1347	1347	1347	1347	1347	1347	1347	1347	1347	1347	1342	1342	1336	1342	1342	1336	1336	1336	1336	1336	1336	1331	1331	1336	1336	1331	1331	1331	1331	1331	1331	1331	1331	1331	1331	1331	1331	1326	1326	1326	1326	1326	1326	1326	1326	1321	1321	1321	1321	1321	1321	1316	1316	1316	1311	1311	1311	1311	1311	1311	1306	1306	1306	1306	1306	1306	1306	1306	1306	1306	1306	1301	1301	1301	1296	1296	1296	1291	1291	1291	1291	1296	1291	1291	1291	1291	1291	1287	1287	1287	1287	1287	1287	1282	1282	1282	1282	1282	1277	1277	1277	1272	1272	1272	1272	1268	1268	1268	1268	1268	1268	1268	1268	1268	1268	1268	1268	1268	1263	1263	1263	1263	1263	1259	1259	1259	1254	1254	1254	1254	1249	1249	1249	1249	1249	1245	1245	1245	1245	1240	1236	1236	1236	1236	1236	1236	1236	1232	1232	1232	1232	1232	1232	1232	1232	1232	1227	1227	1227	1227	1227	1223	1223	1223	1223	1219	1219	1214	1214	1214	1214	1214	1214	1214	1210	1210	1210	1210	1210	1206	1206	1206	1202	1202	1202	1202	1202	1202	1202	1202	1197	1197	1197	1197	1197	1197	1197	1197	1193	1193	1193	1193	1193	1193	1193	1189	1189	1185	1181	1181	1181	1181	1181	1181	1181	1181	1181	1177	1177	1177	1177	1177	1173	1173	1173	1173	1169	1169	1169	1169	1169	1165	1165	1165	1161	1161	1161	1161	1157	1157	1153	1153	1153	1153	1153	1153	1153	1150	1146	1146	1146	1146	1142	1142	1142	1142	1142	1142	1142	1138	1134	1134	1134	1131	1131	1131	1131	1131	1131	1131	1131	1127	1127	1123	1123	1123	1123	1123	1123	1120	1120	1120	1116	1116	1116	1116	1116	1113	1113	1113	1113	1109	1109	1109	1109	1109	1109	1105	1105	1102	1102	1102	1102	1098	1098	1098	1098	1098	1098	1098	1098	1095	1095	1091	1091	1091	1091	1091	1091	1088	1088	1088	1085	1085	1085	1085	1085	1085	1081	1081	1081	1081	1081	1078	1078	1078	1078	1078	1078	1074	1074	1071	1071	1071	1071	1071	1071	1071	1071	1071	1068	1068	1068	1068	1068	1068	1068	1064	1064	1061	1058	1058	1058	1058	1058	1058	1058	1058	1058	1058	1058	1058	1058	1058	1058	1058	1058	1058	1055	1055	1055	1169	1165	1165	1165	1165	1165	1165	1165	1161	1161	1161	1161	1161	1161	1157	1157	1157	1157	1157	1153	1153	1153	1153	1150	1150	1146	1146	1146	1142	1142	1142	1142	1142	1142	1142	1138	1138	1142	1142	1142	0	0	0	0	0	0	0	0	0	0	0	0	0	0	0	0	0	0
0	0	0	0	0	0	0	0	0	0	0	0	0	0	0	0	0	0	0	0	0	0	0	0	0	1443	1443	1431	1431	1431	1431	1431	1431	1425	1425	1431	1425	1425	1425	1425	1425	1425	1425	1425	1425	1425	1425	1425	1425	1425	1425	1425	1425	1419	1419	1419	1419	1419	1419	1419	1419	1419	1413	1413	1413	1413	1413	1413	1413	1413	1413	1413	1413	1413	1413	1413	1413	1413	1407	1407	1407	1407	1407	1407	1402	1402	1402	1402	1402	1402	1402	1402	1402	1402	1402	1402	1402	1402	1402	1402	1402	1402	1402	1396	1396	1396	1396	1396	1396	1396	1396	1396	1396	1396	1396	1396	1396	1396	1396	1390	1390	1390	1390	1396	1396	1396	1390	1390	1390	1385	1385	1385	1385	1385	1385	1385	1385	1385	1379	1379	1379	1379	1379	1379	1379	1379	1379	1379	1379	1379	1379	1379	1379	1379	1374	1374	1374	1374	1374	1374	1374	1374	1374	1374	1374	1368	1368	1368	1368	1368	1368	1363	1368	1363	1363	1363	1363	1363	1363	1358	1358	1358	1358	1358	1358	1352	1352	1352	1352	1352	1352	1352	1352	1352	1352	1352	1352	1352	1352	1352	1347	1347	1347	1347	1347	1347	1347	1347	1347	1347	1347	1347	1342	1342	1342	1342	1336	1336	1336	1331	1331	1331	1331	1331	1336	1336	1336	1336	1331	1331	1331	1331	1331	1331	1331	1331	1326	1326	1326	1326	1326	1326	1326	1326	1326	1326	1321	1321	1321	1321	1321	1321	1316	1316	1316	1311	1311	1311	1311	1311	1311	1306	1306	1306	1306	1306	1306	1306	1306	1306	1306	1306	1301	1301	1301	1296	1296	1296	1291	1291	1291	1291	1291	1291	1291	1291	1291	1291	1287	1287	1287	1287	1287	1287	1282	1282	1282	1282	1282	1277	1272	1272	1272	1272	1272	1272	1268	1268	1268	1268	1268	1268	1268	1268	1268	1268	1268	1268	1268	1263	1263	1263	1263	1263	1259	1259	1254	1254	1254	1254	1249	1249	1249	1249	1249	1249	1245	1245	1245	1245	1240	1236	1236	1236	1236	1236	1236	1232	1232	1232	1232	1232	1227	1227	1232	1232	1232	1227	1227	1227	1227	1227	1223	1223	1223	1223	1219	1219	1214	1214	1214	1214	1214	1214	1214	1210	1210	1210	1210	1210	1206	1206	1206	1202	1202	1202	1202	1202	1197	1197	1202	1197	1197	1197	1197	1197	1197	1193	1193	1197	1193	1193	1193	1193	1193	1193	1189	1189	1185	1181	1181	1181	1181	1181	1181	1181	1181	1177	1177	1177	1177	1177	1177	1173	1173	1173	1173	1169	1169	1165	1165	1165	1165	1165	1161	1161	1161	1161	1161	1157	1157	1157	1153	1153	1153	1153	1153	1153	1150	1146	1146	1146	1146	1142	1142	1142	1142	1142	1142	1142	1138	1134	1134	1134	1131	1131	1131	1131	1131	1131	1127	1127	1127	1127	1123	1123	1123	1123	1123	1120	1120	1120	1116	1116	1116	1116	1116	1116	1113	1113	1113	1113	1113	1113	1109	1109	1109	1105	1105	1105	1102	1102	1102	1102	1102	1098	1098	1098	1098	1098	1098	1098	1095	1091	1091	1091	1088	1088	1088	1088	1088	1088	1088	1085	1085	1085	1085	1085	1085	1081	1081	1081	1081	1081	1078	1078	1078	1078	1078	1078	1074	1074	1071	1071	1071	1071	1071	1071	1071	1071	1071	1068	1068	1068	1068	1068	1068	1068	1064	1064	1061	1058	1058	1058	1058	1058	1058	1058	1058	1058	1058	1058	1058	1058	1058	1058	1058	1058	1058	1058	1058	1058	1173	1165	1165	1165	1165	1165	1165	1165	1161	1161	1165	1161	1161	1161	1157	1157	1157	1157	1157	1157	1153	1153	1153	1150	1150	1146	1146	1146	1146	1142	1142	1142	1142	1142	1142	1138	1138	1142	1142	1142	0	0	0	0	0	0	0	0	0	0	0	0	0	0	0	0	0	0
0	0	0	0	0	0	0	0	0	0	0	0	0	0	0	0	0	0	0	0	0	0	0	0	0	1443	1443	1431	1431	1431	1431	1431	1431	1425	1425	1425	1425	1425	1425	1425	1425	1425	1425	1425	1425	1425	1425	1425	1425	1425	1425	1425	1425	1419	1419	1419	1419	1419	1419	1413	1413	1413	1413	1413	1413	1413	1413	1413	1413	1413	1413	1413	1413	1413	1413	1413	1413	1413	1407	1407	1407	1407	1407	1407	1402	1402	1402	1402	1402	1402	1402	1402	1402	1402	1402	1402	1402	1402	1402	1402	1402	1396	1396	1396	1396	1396	1396	1396	1396	1396	1396	1396	1396	1396	1396	1396	1396	1396	1390	1390	1390	1390	1390	1396	1396	1396	1390	1390	1390	1385	1385	1385	1385	1385	1385	1385	1385	1385	1379	1379	1379	1379	1379	1379	1379	1379	1379	1379	1379	1379	1379	1379	1379	1379	1374	1374	1374	1374	1374	1374	1374	1374	1374	1374	1374	1368	1368	1368	1368	1368	1368	1363	1368	1363	1363	1363	1363	1363	1363	1358	1358	1358	1358	1358	1358	1352	1352	1352	1352	1352	1352	1352	1352	1352	1352	1352	1352	1352	1352	1352	1347	1347	1347	1347	1347	1347	1347	1342	1342	1342	1342	1342	1342	1342	1342	1342	1336	1336	1336	1331	1331	1331	1331	1331	1331	1331	1331	1331	1331	1331	1331	1331	1331	1326	1326	1326	1326	1326	1326	1326	1326	1326	1326	1321	1321	1321	1321	1321	1321	1321	1321	1321	1316	1316	1316	1311	1311	1311	1311	1311	1311	1306	1306	1306	1306	1306	1306	1306	1306	1306	1306	1306	1301	1301	1301	1296	1296	1296	1296	1291	1291	1291	1291	1291	1291	1291	1291	1291	1287	1287	1287	1287	1287	1287	1282	1282	1282	1282	1277	1277	1272	1272	1272	1272	1268	1268	1268	1268	1268	1268	1268	1268	1268	1268	1268	1268	1268	1268	1268	1263	1263	1263	1263	1263	1259	1259	1254	1254	1254	1254	1249	1249	1249	1249	1249	1245	1245	1245	1245	1245	1240	1236	1236	1236	1236	1236	1236	1232	1232	1232	1232	1232	1227	1227	1232	1232	1232	1227	1227	1227	1227	1227	1223	1223	1223	1223	1219	1219	1214	1214	1214	1214	1214	1214	1210	1210	1210	1210	1210	1210	1210	1206	1206	1202	1202	1202	1202	1202	1197	1197	1202	1197	1197	1197	1197	1197	1197	1193	1193	1197	1193	1193	1193	1193	1193	1193	1189	1189	1185	1181	1181	1181	1181	1181	1181	1177	1177	1177	1177	1177	1177	1177	1177	1173	1173	1173	1173	1169	1169	1165	1165	1165	1165	1165	1161	1161	1161	1161	1161	1157	1157	1157	1157	1157	1157	1153	1153	1153	1150	1146	1146	1146	1146	1146	1142	1142	1142	1142	1138	1138	1138	1134	1134	1134	1134	1131	1131	1131	1131	1131	1127	1127	1127	1127	1123	1123	1123	1123	1123	1120	1120	1120	1116	1116	1116	1116	1116	1116	1116	1113	1113	1113	1113	1113	1113	1109	1109	1102	1102	1102	1102	1102	1102	1102	1098	1098	1098	1098	1098	1098	1095	1095	1095	1091	1091	1091	1088	1088	1088	1088	1088	1088	1088	1085	1085	1085	1085	1085	1085	1081	1081	1081	1081	1081	1078	1078	1078	1078	1078	1078	1074	1074	1071	1071	1071	1071	1071	1071	1071	1071	1071	1068	1068	1068	1068	1064	1064	1064	1064	1064	1061	1058	1058	1058	1058	1058	1058	1058	1058	1058	1058	1058	1058	1058	1058	1058	1058	1058	1058	1058	1058	1058	1173	1169	1169	1165	1165	1165	1165	1165	1161	1161	1161	1161	1161	1161	1157	1157	1157	1157	1157	1157	1153	1153	1153	1150	1150	1146	1146	1146	1146	1142	1142	1142	1142	1142	1142	1138	1138	1142	1142	1142	0	0	0	0	0	0	0	0	0	0	0	0	0	0	0	0	0	0
0	0	0	0	0	0	0	0	0	0	0	0	0	0	0	0	0	0	0	0	0	0	0	0	0	1443	1437	1431	1431	1431	1431	1431	1431	1425	1425	1425	1425	1425	1425	1425	1425	1425	1425	1425	1425	1425	1425	1425	1425	1425	1419	1419	1425	1419	1419	1419	1419	1419	1413	1413	1413	1413	1413	1413	1413	1413	1413	1413	1413	1413	1413	1413	1413	1413	1413	1413	1413	1413	1407	1407	1407	1407	1407	1402	1402	1402	1402	1402	1402	1402	1402	1402	1402	1402	1402	1402	1402	1402	1402	1402	1396	1396	1396	1396	1396	1396	1396	1396	1396	1396	1396	1396	1396	1396	1396	1396	1396	1396	1390	1390	1390	1390	1390	1396	1390	1390	1390	1390	1390	1385	1385	1379	1379	1379	1379	1379	1379	1379	1379	1379	1379	1379	1379	1379	1379	1379	1379	1379	1379	1379	1379	1379	1379	1379	1374	1374	1374	1374	1374	1374	1374	1374	1374	1374	1374	1368	1368	1374	1368	1368	1368	1363	1368	1363	1363	1363	1363	1363	1363	1358	1358	1358	1358	1358	1358	1352	1352	1352	1352	1352	1352	1352	1352	1352	1347	1347	1347	1347	1347	1347	1347	1347	1347	1347	1347	1347	1342	1342	1342	1342	1342	1342	1342	1342	1342	1342	1342	1336	1336	1336	1336	1331	1331	1331	1331	1331	1331	1331	1331	1331	1331	1326	1326	1326	1326	1326	1326	1326	1326	1326	1326	1326	1326	1321	1321	1321	1321	1321	1321	1321	1321	1316	1316	1311	1311	1311	1311	1311	1311	1311	1306	1306	1306	1306	1306	1306	1306	1306	1306	1306	1306	1306	1301	1301	1301	1296	1296	1296	1296	1291	1291	1291	1291	1291	1291	1291	1291	1291	1287	1287	1287	1287	1287	1287	1282	1282	1282	1277	1277	1272	1272	1272	1272	1272	1268	1268	1268	1268	1268	1268	1268	1268	1268	1268	1268	1268	1268	1268	1268	1263	1263	1263	1263	1263	1263	1259	1259	1254	1254	1249	1249	1249	1249	1249	1245	1245	1245	1245	1245	1245	1240	1236	1236	1236	1236	1236	1236	1232	1232	1232	1232	1232	1227	1227	1227	1232	1232	1227	1227	1227	1227	1227	1223	1223	1223	1223	1219	1219	1214	1214	1214	1214	1214	1214	1210	1210	1210	1210	1210	1210	1210	1206	1206	1202	1202	1206	1202	1202	1197	1197	1202	1197	1197	1197	1197	1197	1197	1193	1193	1197	1197	1193	1193	1193	1193	1193	1189	1189	1185	1181	1181	1181	1181	1181	1181	1177	1177	1177	1177	1177	1177	1173	1177	1173	1173	1169	1169	1169	1169	1165	1165	1165	1165	1165	1161	1161	1161	1161	1161	1157	1157	1157	1157	1153	1153	1153	1153	1150	1150	1146	1146	1146	1146	1146	1146	1142	1142	1142	1138	1138	1138	1134	1134	1134	1134	1131	1131	1131	1131	1131	1127	1127	1127	1127	1123	1123	1123	1123	1123	1120	1120	1120	1116	1116	1116	1116	1116	1113	1113	1113	1113	1113	1113	1113	1109	1109	1105	1102	1102	1102	1102	1102	1102	1102	1098	1098	1098	1098	1098	1098	1095	1095	1095	1091	1091	1091	1088	1088	1088	1088	1088	1088	1088	1085	1085	1085	1085	1085	1085	1081	1081	1078	1078	1078	1078	1078	1078	1078	1078	1074	1074	1074	1071	1071	1071	1071	1071	1071	1071	1071	1071	1068	1068	1068	1068	1064	1064	1064	1064	1064	1061	1058	1058	1058	1058	1058	1058	1058	1058	1058	1058	1058	1058	1058	1058	1058	1058	1058	1058	1058	1058	1058	1173	1169	1169	1169	1165	1165	1165	1161	1161	1161	1161	1161	1161	1161	1157	1157	1157	1157	1157	1157	1153	1153	1153	1150	1150	1146	1146	1146	1146	1142	1142	1142	1142	1142	1142	1138	1138	1138	1138	1138	0	0	0	0	0	0	0	0	0	0	0	0	0	0	0	0	0	0
0	0	0	0	0	0	0	0	0	0	0	0	0	0	0	0	0	0	0	0	0	0	0	0	0	1437	1437	1431	1431	1431	1431	1431	1431	1431	1431	1431	1425	1425	1425	1425	1425	1425	1425	1425	1425	1425	1425	1425	1419	1419	1419	1425	1419	1419	1419	1419	1419	1419	1413	1413	1413	1413	1413	1413	1413	1413	1413	1413	1413	1413	1413	1413	1413	1413	1413	1413	1413	1407	1407	1407	1402	1402	1402	1402	1402	1402	1402	1402	1402	1402	1402	1402	1402	1402	1402	1402	1402	1402	1402	1402	1396	1396	1396	1396	1396	1396	1396	1396	1396	1396	1396	1396	1396	1396	1396	1396	1396	1396	1390	1390	1390	1390	1396	1396	1390	1390	1390	1390	1390	1385	1385	1379	1379	1379	1379	1379	1379	1379	1379	1379	1379	1379	1379	1379	1379	1379	1379	1379	1379	1379	1379	1379	1379	1379	1374	1374	1374	1374	1374	1374	1374	1374	1374	1374	1374	1368	1368	1374	1368	1368	1368	1363	1368	1363	1363	1363	1363	1363	1363	1358	1358	1358	1358	1352	1352	1352	1352	1352	1352	1352	1352	1352	1352	1352	1347	1347	1347	1347	1347	1347	1347	1347	1347	1347	1342	1342	1342	1342	1342	1342	1342	1342	1342	1342	1342	1342	1342	1336	1336	1336	1336	1336	1331	1331	1331	1331	1331	1331	1331	1331	1331	1326	1326	1326	1326	1326	1326	1326	1326	1326	1326	1326	1321	1321	1321	1321	1316	1316	1321	1321	1316	1316	1316	1311	1311	1311	1311	1311	1311	1311	1306	1306	1306	1306	1306	1306	1306	1306	1306	1306	1306	1306	1306	1301	1301	1301	1301	1296	1296	1296	1291	1291	1291	1291	1291	1291	1291	1291	1287	1287	1287	1287	1287	1282	1282	1282	1282	1277	1277	1272	1272	1272	1272	1272	1268	1268	1268	1268	1268	1268	1268	1268	1268	1268	1268	1268	1268	1268	1268	1263	1263	1263	1263	1263	1263	1259	1259	1254	1254	1249	1249	1249	1249	1249	1245	1245	1245	1245	1245	1245	1240	1240	1240	1236	1236	1236	1236	1232	1232	1232	1232	1232	1232	1227	1227	1232	1227	1227	1227	1227	1227	1227	1223	1223	1223	1223	1219	1219	1214	1214	1214	1214	1214	1214	1210	1210	1210	1210	1210	1210	1206	1206	1206	1202	1202	1206	1202	1202	1197	1197	1202	1197	1197	1197	1197	1197	1197	1193	1193	1193	1193	1193	1193	1193	1193	1193	1189	1185	1185	1181	1181	1181	1181	1181	1181	1177	1177	1177	1177	1177	1177	1173	1173	1173	1169	1169	1169	1169	1165	1165	1165	1165	1165	1165	1161	1161	1161	1161	1161	1157	1157	1153	1153	1153	1153	1150	1150	1150	1146	1146	1146	1146	1146	1146	1146	1142	1142	1142	1138	1138	1138	1134	1134	1134	1134	1134	1131	1131	1131	1131	1127	1127	1127	1127	1123	1123	1123	1123	1120	1120	1120	1120	1116	1116	1116	1116	1116	1113	1113	1113	1113	1113	1113	1109	1109	1105	1105	1102	1102	1102	1102	1102	1102	1102	1102	1098	1098	1098	1095	1095	1095	1095	1091	1091	1091	1091	1088	1088	1088	1088	1088	1088	1088	1085	1085	1085	1085	1085	1085	1081	1081	1078	1078	1078	1078	1078	1074	1074	1074	1074	1074	1074	1071	1071	1071	1071	1071	1071	1071	1071	1068	1068	1068	1068	1064	1064	1064	1064	1064	1064	1061	1058	1058	1058	1058	1058	1058	1058	1058	1058	1058	1058	1058	1058	1058	1058	1058	1058	1058	1058	1058	1173	1173	1173	1169	1169	1165	1165	1165	1161	1161	1161	1161	1161	1161	1161	1157	1157	1157	1157	1157	1157	1153	1153	1153	1150	1150	1150	1146	1146	1146	1142	1142	1142	1142	1142	1142	1138	1138	1138	1138	1138	0	0	0	0	0	0	0	0	0	0	0	0	0	0	0	0	0	0
0	0	0	0	0	0	0	0	0	0	0	0	0	0	0	0	0	0	0	0	0	0	0	0	0	1437	1437	1431	1431	1431	1431	1431	1431	1431	1431	1431	1425	1425	1425	1425	1425	1425	1419	1419	1425	1425	1419	1419	1419	1419	1419	1419	1419	1419	1419	1419	1419	1419	1413	1413	1413	1413	1413	1413	1413	1413	1413	1413	1413	1413	1413	1413	1413	1413	1413	1413	1413	1407	1402	1402	1402	1402	1402	1402	1402	1402	1402	1402	1402	1402	1402	1402	1402	1402	1402	1396	1396	1402	1402	1396	1396	1396	1396	1396	1396	1396	1396	1396	1396	1396	1396	1396	1396	1396	1396	1396	1396	1396	1390	1390	1390	1390	1396	1396	1390	1390	1390	1390	1385	1385	1385	1379	1379	1379	1379	1379	1379	1379	1379	1379	1379	1379	1379	1379	1379	1379	1379	1379	1379	1379	1379	1379	1379	1379	1374	1374	1374	1374	1374	1374	1374	1374	1374	1374	1374	1368	1368	1368	1368	1368	1363	1363	1363	1363	1363	1363	1363	1363	1363	1358	1358	1358	1358	1352	1352	1352	1352	1352	1352	1352	1352	1347	1347	1347	1347	1347	1347	1352	1347	1347	1347	1347	1347	1347	1342	1342	1342	1342	1342	1342	1342	1336	1336	1336	1336	1342	1342	1336	1336	1336	1336	1331	1331	1331	1331	1331	1331	1331	1331	1331	1326	1326	1326	1326	1326	1326	1326	1326	1326	1326	1326	1326	1321	1321	1321	1321	1316	1316	1321	1316	1316	1316	1311	1311	1311	1311	1311	1311	1311	1306	1306	1306	1306	1306	1306	1306	1306	1306	1306	1306	1306	1306	1306	1301	1301	1301	1301	1296	1296	1296	1291	1291	1291	1291	1291	1291	1291	1291	1287	1287	1287	1287	1287	1282	1282	1277	1277	1277	1272	1272	1272	1272	1272	1272	1268	1268	1268	1268	1268	1268	1268	1268	1268	1268	1268	1268	1263	1263	1263	1263	1263	1263	1263	1259	1259	1259	1259	1254	1254	1249	1249	1249	1249	1249	1245	1245	1245	1245	1245	1240	1240	1236	1236	1236	1236	1236	1232	1232	1232	1232	1232	1232	1232	1232	1232	1232	1227	1227	1227	1227	1227	1227	1227	1223	1223	1223	1219	1219	1214	1214	1214	1214	1214	1210	1210	1210	1210	1206	1206	1206	1206	1206	1206	1206	1206	1206	1202	1202	1202	1202	1202	1197	1197	1197	1197	1197	1197	1193	1193	1193	1193	1193	1193	1193	1193	1193	1189	1185	1181	1181	1181	1181	1181	1181	1181	1177	1177	1177	1177	1177	1177	1173	1173	1173	1169	1169	1169	1165	1165	1165	1165	1165	1165	1165	1161	1161	1161	1161	1161	1157	1153	1153	1153	1153	1153	1150	1150	1150	1146	1146	1146	1142	1142	1142	1142	1142	1142	1142	1138	1138	1138	1134	1134	1134	1134	1131	1131	1131	1131	1131	1127	1127	1127	1127	1123	1123	1123	1123	1120	1120	1120	1120	1116	1116	1116	1116	1116	1113	1113	1113	1113	1113	1113	1109	1105	1105	1102	1102	1102	1102	1102	1102	1102	1098	1098	1098	1098	1098	1095	1095	1095	1095	1091	1091	1091	1091	1088	1088	1088	1088	1088	1088	1088	1085	1085	1085	1085	1085	1085	1081	1081	1078	1078	1078	1078	1078	1074	1074	1074	1074	1074	1071	1071	1071	1071	1071	1071	1071	1071	1071	1068	1068	1068	1064	1064	1064	1064	1064	1064	1064	1061	1058	1058	1058	1058	1058	1058	1058	1058	1058	1058	1058	1058	1058	1058	1058	1058	1058	1058	1058	1058	1058	1173	1173	1173	1173	1169	1169	1165	1165	1161	1161	1161	1161	1165	1165	1161	1157	1157	1157	1157	1157	1153	1153	1153	1150	1150	1150	1146	1146	1146	1142	1142	1142	1142	1142	1142	1138	1138	1138	1138	1138	0	0	0	0	0	0	0	0	0	0	0	0	0	0	0	0	0	0
0	0	0	0	0	0	0	0	0	0	0	0	0	0	0	0	0	0	0	0	0	0	0	0	0	1443	1437	1431	1431	1431	1431	1431	1431	1431	1431	1431	1425	1425	1425	1425	1425	1425	1419	1419	1425	1425	1419	1419	1419	1419	1419	1419	1419	1419	1419	1419	1419	1419	1413	1413	1413	1413	1413	1413	1413	1413	1413	1413	1413	1413	1413	1413	1413	1413	1413	1407	1407	1407	1402	1402	1402	1402	1402	1402	1402	1402	1402	1402	1402	1402	1402	1402	1402	1396	1396	1396	1396	1396	1396	1396	1396	1396	1396	1396	1396	1396	1396	1396	1396	1396	1396	1396	1396	1396	1396	1396	1396	1396	1390	1390	1390	1390	1396	1390	1390	1390	1390	1385	1385	1385	1385	1379	1379	1379	1379	1379	1379	1379	1379	1379	1379	1379	1379	1379	1379	1379	1379	1379	1379	1379	1379	1379	1379	1379	1374	1374	1374	1374	1374	1374	1374	1374	1374	1374	1374	1368	1368	1368	1368	1363	1363	1363	1363	1363	1363	1363	1363	1363	1363	1358	1358	1358	1358	1352	1352	1352	1352	1352	1352	1352	1352	1347	1347	1347	1347	1347	1347	1352	1347	1347	1347	1347	1347	1347	1342	1342	1342	1342	1342	1342	1336	1336	1336	1336	1336	1336	1336	1336	1336	1336	1336	1331	1331	1331	1331	1331	1331	1331	1331	1326	1326	1326	1326	1326	1326	1326	1326	1326	1326	1326	1326	1326	1321	1321	1321	1321	1316	1316	1316	1316	1316	1316	1311	1311	1311	1311	1311	1311	1311	1306	1306	1306	1306	1306	1306	1306	1306	1306	1306	1306	1306	1306	1306	1301	1301	1301	1301	1296	1296	1296	1296	1296	1296	1291	1291	1291	1291	1291	1287	1287	1287	1287	1287	1282	1282	1277	1277	1272	1272	1272	1272	1272	1272	1272	1272	1268	1268	1268	1268	1268	1268	1268	1268	1268	1268	1268	1263	1263	1263	1263	1263	1263	1259	1259	1259	1254	1254	1254	1254	1249	1249	1249	1249	1249	1245	1245	1245	1245	1245	1240	1240	1236	1236	1236	1236	1236	1232	1232	1232	1232	1232	1232	1232	1232	1232	1227	1227	1227	1227	1227	1227	1227	1227	1223	1223	1223	1219	1219	1214	1214	1214	1214	1214	1210	1210	1210	1210	1206	1206	1206	1206	1206	1206	1206	1206	1206	1202	1202	1202	1197	1197	1197	1197	1197	1197	1197	1197	1193	1193	1193	1193	1193	1193	1193	1193	1189	1189	1185	1181	1181	1181	1181	1181	1181	1181	1177	1177	1177	1177	1177	1177	1173	1173	1173	1169	1169	1169	1165	1165	1165	1165	1165	1165	1165	1165	1161	1161	1161	1161	1157	1153	1153	1153	1153	1153	1150	1150	1146	1146	1146	1142	1142	1142	1142	1142	1142	1142	1142	1138	1138	1138	1134	1131	1131	1131	1131	1131	1131	1131	1127	1127	1127	1127	1127	1127	1123	1123	1123	1123	1120	1116	1116	1116	1116	1116	1116	1113	1113	1113	1113	1113	1113	1113	1109	1105	1105	1102	1102	1102	1102	1102	1102	1102	1098	1098	1098	1098	1095	1095	1095	1095	1095	1095	1091	1091	1091	1091	1091	1091	1088	1088	1088	1088	1085	1085	1085	1085	1085	1085	1085	1081	1078	1078	1078	1078	1078	1074	1074	1074	1074	1074	1071	1071	1071	1071	1071	1071	1071	1071	1071	1068	1068	1068	1064	1064	1064	1064	1064	1064	1064	1061	1058	1058	1058	1058	1058	1058	1058	1058	1058	1058	1058	1058	1058	1058	1058	1055	1055	1055	1055	1055	1055	1169	1173	1169	1169	1169	1169	1169	1157	1157	1157	1161	1161	1165	1165	1161	1157	1157	1161	1157	1157	1153	1153	1153	1150	1150	1150	1146	1146	1146	1146	1142	1142	1142	1142	1138	1138	1138	1138	1138	1138	0	0	0	0	0	0	0	0	0	0	0	0	0	0	0	0	0	0
0	0	0	0	0	0	0	0	0	0	0	0	0	0	0	0	0	0	0	0	0	0	0	0	0	1443	1437	1431	1431	1431	1431	1431	1431	1431	1431	1431	1425	1425	1425	1425	1425	1425	1419	1419	1425	1419	1419	1419	1419	1419	1419	1419	1419	1425	1419	1419	1419	1419	1413	1413	1413	1413	1413	1413	1413	1413	1413	1413	1413	1413	1413	1413	1413	1413	1413	1407	1407	1407	1402	1402	1402	1402	1402	1402	1402	1402	1402	1402	1402	1402	1402	1402	1402	1396	1396	1396	1396	1396	1396	1396	1396	1396	1396	1396	1396	1396	1396	1396	1390	1390	1390	1396	1396	1396	1396	1396	1396	1396	1396	1396	1396	1396	1396	1390	1390	1390	1390	1385	1385	1385	1385	1379	1379	1379	1379	1379	1379	1379	1379	1379	1379	1379	1379	1379	1379	1379	1379	1379	1379	1379	1379	1379	1379	1379	1374	1374	1374	1374	1374	1374	1374	1374	1374	1374	1374	1368	1368	1368	1368	1363	1363	1363	1363	1363	1363	1363	1363	1363	1363	1358	1358	1358	1358	1352	1352	1352	1352	1352	1352	1352	1352	1347	1347	1347	1347	1347	1347	1347	1347	1347	1347	1347	1347	1347	1342	1342	1342	1342	1336	1336	1336	1336	1336	1336	1336	1336	1336	1336	1336	1336	1336	1331	1331	1331	1331	1331	1331	1331	1331	1326	1326	1326	1326	1326	1326	1326	1326	1326	1326	1326	1326	1326	1321	1321	1321	1321	1316	1316	1316	1316	1316	1316	1311	1311	1311	1311	1311	1311	1306	1306	1306	1306	1306	1306	1306	1306	1306	1306	1306	1306	1306	1306	1301	1301	1301	1296	1296	1296	1296	1296	1296	1296	1296	1291	1291	1291	1291	1291	1287	1287	1287	1287	1282	1282	1282	1272	1272	1272	1272	1272	1272	1272	1272	1272	1272	1268	1268	1268	1268	1268	1268	1268	1268	1268	1268	1268	1268	1268	1268	1263	1259	1259	1259	1259	1259	1254	1254	1254	1249	1249	1249	1249	1249	1245	1245	1245	1245	1245	1245	1245	1240	1240	1240	1236	1236	1236	1232	1232	1232	1236	1232	1232	1232	1232	1232	1227	1227	1227	1227	1227	1227	1227	1227	1223	1223	1219	1219	1214	1214	1214	1214	1210	1210	1210	1210	1210	1210	1210	1210	1210	1206	1206	1206	1206	1206	1206	1202	1197	1197	1197	1197	1197	1197	1197	1197	1197	1193	1193	1193	1193	1193	1193	1193	1193	1193	1189	1189	1185	1181	1181	1181	1181	1181	1181	1181	1181	1177	1177	1177	1177	1177	1173	1173	1173	1169	1169	1169	1165	1165	1165	1165	1165	1165	1165	1165	1165	1161	1161	1161	1157	1153	1153	1157	1153	1153	1150	1150	1146	1146	1146	1142	1142	1142	1142	1142	1142	1142	1138	1138	1138	1134	1134	1131	1131	1131	1131	1131	1131	1127	1127	1127	1127	1127	1127	1127	1127	1123	1123	1123	1120	1120	1116	1116	1116	1116	1116	1113	1113	1113	1113	1113	1113	1113	1109	1109	1105	1102	1102	1102	1102	1102	1102	1102	1098	1098	1098	1098	1095	1095	1095	1095	1095	1095	1095	1091	1091	1091	1091	1088	1088	1088	1088	1085	1085	1085	1085	1085	1085	1085	1085	1081	1078	1078	1078	1078	1074	1074	1074	1074	1074	1071	1071	1071	1071	1071	1071	1071	1071	1071	1071	1068	1068	1068	1068	1068	1064	1064	1064	1064	1064	1061	1058	1058	1058	1058	1058	1058	1058	1058	1058	1058	1058	1058	1058	1058	1058	1055	1055	1055	1055	1055	1055	1169	1169	1169	1169	1169	1169	1169	1157	1157	1165	1165	1165	1165	1165	1161	1161	1161	1161	1157	1157	1153	1153	1153	1153	1150	1150	1150	1150	1146	1146	1142	1142	1142	1142	1138	1138	1138	1138	1138	1138	0	0	0	0	0	0	0	0	0	0	0	0	0	0	0	0	0	0
0	0	0	0	0	0	0	0	0	0	0	0	0	0	0	0	0	0	0	0	0	0	0	0	0	1437	1431	1431	1431	1431	1431	1431	1431	1431	1431	1431	1425	1425	1425	1425	1425	1425	1419	1419	1425	1419	1419	1419	1419	1419	1419	1419	1419	1419	1419	1419	1413	1413	1413	1413	1413	1413	1413	1413	1413	1413	1413	1413	1413	1413	1407	1407	1413	1413	1413	1407	1407	1407	1402	1402	1402	1402	1402	1402	1402	1402	1402	1402	1402	1402	1402	1402	1402	1396	1396	1396	1396	1396	1396	1396	1396	1396	1396	1396	1396	1396	1396	1396	1390	1390	1390	1396	1396	1396	1396	1396	1396	1396	1390	1390	1390	1390	1390	1390	1390	1390	1390	1385	1385	1385	1385	1385	1385	1379	1379	1379	1379	1374	1374	1379	1374	1374	1379	1379	1379	1379	1379	1379	1379	1379	1379	1379	1379	1379	1374	1374	1374	1374	1374	1374	1374	1374	1374	1374	1368	1368	1368	1368	1363	1363	1363	1363	1363	1363	1363	1363	1363	1363	1363	1358	1358	1358	1358	1352	1352	1352	1352	1352	1352	1352	1352	1347	1347	1347	1347	1347	1347	1347	1347	1347	1347	1347	1347	1347	1342	1342	1342	1342	1336	1336	1336	1336	1336	1336	1336	1336	1331	1331	1331	1336	1331	1331	1331	1331	1331	1331	1331	1331	1331	1326	1326	1326	1326	1326	1326	1326	1326	1326	1326	1326	1321	1321	1321	1316	1316	1316	1316	1316	1316	1311	1311	1311	1311	1311	1311	1311	1311	1311	1306	1306	1311	1306	1306	1306	1306	1306	1306	1306	1306	1306	1306	1306	1301	1301	1301	1296	1296	1296	1296	1296	1296	1296	1296	1291	1291	1291	1291	1291	1287	1287	1287	1287	1282	1282	1277	1272	1272	1272	1272	1272	1272	1272	1272	1272	1272	1268	1268	1268	1268	1268	1268	1268	1268	1268	1268	1268	1268	1268	1268	1263	1259	1259	1259	1259	1259	1254	1254	1249	1249	1249	1249	1249	1249	1245	1245	1245	1245	1245	1245	1245	1240	1240	1240	1236	1236	1236	1232	1232	1232	1236	1232	1232	1232	1232	1232	1227	1227	1227	1227	1227	1227	1223	1223	1223	1219	1219	1219	1214	1214	1214	1214	1210	1210	1210	1210	1210	1210	1210	1210	1210	1206	1206	1206	1206	1206	1206	1202	1197	1197	1197	1197	1197	1197	1197	1197	1193	1193	1193	1193	1193	1193	1193	1193	1189	1189	1189	1185	1181	1181	1181	1181	1181	1181	1181	1181	1181	1177	1177	1177	1177	1177	1173	1173	1173	1173	1169	1169	1165	1165	1165	1165	1165	1165	1165	1165	1161	1161	1161	1161	1153	1153	1153	1153	1153	1150	1150	1150	1146	1146	1146	1142	1142	1142	1142	1142	1142	1138	1138	1134	1134	1134	1134	1131	1131	1131	1131	1131	1131	1127	1127	1127	1127	1127	1127	1127	1127	1123	1123	1120	1120	1116	1116	1116	1116	1116	1113	1113	1113	1113	1113	1113	1109	1109	1109	1105	1105	1105	1102	1102	1102	1102	1102	1102	1098	1098	1098	1098	1098	1095	1095	1095	1095	1095	1095	1091	1091	1091	1088	1088	1088	1088	1088	1085	1085	1085	1085	1085	1085	1081	1081	1081	1078	1078	1074	1074	1074	1074	1074	1074	1074	1071	1071	1071	1071	1071	1071	1071	1071	1071	1071	1068	1068	1068	1068	1064	1061	1061	1064	1064	1064	1058	1058	1058	1058	1058	1058	1058	1058	1058	1058	1058	1058	1058	1058	1058	1058	1055	1055	1055	1055	1055	1055	1165	1169	1169	1169	1169	1169	1169	1169	1165	1165	1165	1165	1165	1161	1161	1161	1161	1157	1157	1157	1153	1153	1153	1153	1150	1150	1150	1150	1146	1146	1142	1142	1142	1142	1138	1138	1138	1138	1138	1138	0	0	0	0	0	0	0	0	0	0	0	0	0	0	0	0	0	0
0	0	0	0	0	0	0	0	0	0	0	0	0	0	0	0	0	0	0	0	0	0	0	0	0	1431	1431	1431	1431	1431	1431	1431	1431	1431	1431	1431	1425	1425	1425	1425	1425	1425	1419	1419	1425	1419	1419	1419	1419	1425	1419	1419	1419	1419	1419	1413	1413	1413	1413	1413	1407	1407	1407	1413	1413	1413	1413	1413	1413	1413	1407	1407	1407	1407	1407	1407	1407	1402	1402	1402	1402	1402	1402	1402	1402	1402	1402	1402	1402	1402	1402	1402	1402	1396	1396	1396	1396	1396	1396	1396	1396	1396	1396	1396	1396	1396	1396	1396	1396	1396	1396	1396	1396	1396	1396	1396	1396	1396	1390	1390	1390	1390	1390	1390	1390	1390	1390	1385	1385	1385	1385	1385	1385	1379	1379	1379	1379	1374	1374	1374	1374	1374	1374	1374	1374	1374	1374	1374	1379	1379	1379	1379	1379	1379	1374	1374	1374	1374	1374	1374	1374	1374	1374	1374	1374	1368	1368	1368	1363	1363	1363	1363	1363	1363	1363	1363	1363	1363	1363	1358	1358	1358	1358	1352	1352	1352	1352	1352	1352	1352	1352	1347	1347	1347	1347	1347	1347	1347	1347	1347	1347	1347	1347	1347	1342	1342	1342	1342	1342	1342	1336	1336	1336	1336	1336	1336	1331	1331	1331	1336	1331	1331	1331	1331	1331	1331	1331	1331	1331	1326	1326	1326	1326	1326	1326	1326	1326	1326	1326	1326	1321	1321	1321	1316	1316	1316	1316	1316	1311	1311	1311	1311	1311	1311	1311	1311	1311	1311	1306	1306	1306	1306	1306	1306	1306	1306	1306	1306	1306	1306	1306	1301	1301	1301	1301	1296	1296	1296	1296	1296	1296	1296	1291	1291	1291	1291	1291	1291	1287	1287	1287	1287	1282	1282	1277	1272	1272	1272	1272	1272	1272	1272	1272	1272	1272	1268	1268	1268	1268	1268	1268	1268	1268	1268	1268	1268	1268	1268	1268	1263	1259	1259	1259	1259	1254	1254	1254	1249	1249	1249	1249	1249	1245	1245	1245	1245	1245	1245	1245	1240	1240	1240	1236	1236	1236	1236	1236	1236	1236	1236	1232	1232	1232	1232	1232	1227	1227	1227	1227	1227	1227	1223	1223	1223	1219	1219	1214	1214	1214	1214	1214	1210	1210	1210	1210	1210	1210	1210	1210	1210	1206	1206	1206	1206	1206	1206	1202	1197	1197	1197	1197	1197	1197	1197	1193	1193	1193	1193	1193	1193	1193	1193	1193	1189	1189	1189	1185	1181	1181	1181	1181	1181	1181	1181	1181	1181	1177	1177	1177	1177	1177	1173	1173	1173	1169	1169	1169	1165	1165	1165	1165	1165	1165	1165	1165	1161	1161	1161	1161	1153	1153	1153	1153	1150	1150	1150	1150	1146	1146	1146	1142	1142	1142	1142	1142	1138	1138	1138	1134	1134	1134	1134	1134	1134	1131	1131	1131	1131	1131	1127	1127	1127	1127	1127	1123	1123	1123	1120	1120	1120	1116	1116	1116	1116	1116	1113	1113	1113	1113	1113	1109	1109	1109	1109	1105	1105	1105	1102	1102	1102	1102	1102	1102	1098	1098	1098	1098	1098	1095	1095	1095	1095	1095	1095	1091	1088	1088	1088	1088	1085	1085	1088	1085	1085	1085	1085	1085	1085	1081	1081	1081	1078	1078	1078	1074	1074	1074	1074	1074	1074	1074	1071	1071	1071	1071	1071	1071	1071	1071	1071	1068	1068	1068	1068	1064	1061	1061	1064	1064	1064	1058	1058	1058	1058	1058	1058	1058	1058	1058	1058	1058	1058	1058	1058	1058	1058	1055	1055	1055	1055	1055	1055	1165	1169	1169	1169	1169	1169	1169	1169	1165	1165	1165	1165	1165	1161	1161	1161	1157	1157	1157	1157	1153	1153	1153	1153	1150	1150	1150	1150	1146	1146	1146	1142	1142	1142	1142	1138	1138	1138	1138	1138	0	0	0	0	0	0	0	0	0	0	0	0	0	0	0	0	0	0
0	0	0	0	0	0	0	0	0	0	0	0	0	0	0	0	0	0	0	0	0	0	0	0	0	1431	1431	1431	1431	1431	1431	1431	1425	1425	1425	1425	1425	1425	1425	1425	1425	1425	1419	1419	1425	1419	1419	1419	1425	1419	1419	1419	1419	1419	1419	1413	1413	1413	1413	1413	1407	1407	1407	1413	1413	1413	1413	1413	1413	1407	1407	1407	1407	1407	1407	1407	1407	1402	1402	1402	1402	1402	1402	1402	1402	1402	1402	1402	1402	1402	1402	1402	1402	1396	1396	1396	1396	1396	1396	1396	1396	1396	1396	1396	1396	1396	1396	1396	1396	1390	1390	1390	1390	1390	1390	1390	1396	1396	1396	1396	1396	1390	1390	1390	1390	1390	1390	1385	1385	1385	1385	1385	1385	1379	1379	1379	1379	1379	1379	1374	1374	1374	1374	1374	1374	1374	1374	1374	1379	1379	1379	1379	1379	1379	1374	1374	1374	1374	1374	1374	1374	1374	1374	1368	1368	1368	1368	1368	1363	1363	1363	1363	1363	1363	1363	1363	1363	1358	1358	1358	1358	1352	1352	1352	1352	1352	1352	1352	1352	1352	1347	1347	1347	1347	1347	1347	1347	1347	1347	1347	1347	1347	1347	1347	1347	1347	1347	1342	1342	1342	1336	1336	1336	1331	1331	1331	1331	1331	1331	1331	1331	1331	1331	1331	1331	1331	1331	1331	1331	1326	1326	1326	1326	1326	1326	1326	1326	1326	1326	1326	1321	1321	1321	1316	1316	1316	1316	1316	1311	1311	1311	1311	1311	1311	1311	1306	1306	1306	1306	1306	1306	1306	1306	1306	1306	1306	1306	1306	1306	1306	1306	1301	1301	1301	1296	1296	1296	1291	1291	1291	1291	1291	1291	1291	1291	1291	1291	1291	1287	1287	1287	1287	1282	1282	1277	1277	1277	1272	1272	1272	1272	1272	1272	1272	1272	1268	1268	1268	1268	1268	1268	1268	1268	1268	1268	1268	1268	1268	1268	1263	1259	1259	1259	1259	1254	1254	1254	1249	1249	1249	1249	1249	1245	1245	1245	1245	1245	1245	1240	1240	1240	1240	1236	1236	1236	1236	1236	1232	1232	1232	1232	1232	1232	1232	1232	1227	1227	1227	1227	1227	1227	1227	1227	1223	1219	1219	1214	1214	1214	1214	1210	1210	1210	1210	1210	1210	1210	1210	1210	1210	1206	1206	1206	1206	1206	1206	1202	1197	1197	1197	1197	1197	1197	1197	1193	1193	1193	1193	1193	1193	1189	1189	1189	1189	1189	1189	1185	1181	1181	1181	1181	1181	1181	1181	1181	1181	1177	1177	1177	1177	1177	1173	1173	1169	1169	1169	1169	1169	1165	1165	1165	1165	1165	1165	1165	1165	1161	1161	1157	1153	1150	1150	1150	1150	1150	1146	1146	1146	1146	1146	1142	1142	1142	1138	1138	1138	1138	1138	1134	1134	1134	1134	1134	1131	1131	1131	1131	1131	1127	1127	1127	1127	1127	1123	1123	1123	1123	1120	1120	1120	1116	1116	1116	1116	1113	1113	1113	1113	1113	1113	1109	1109	1109	1109	1105	1105	1105	1102	1102	1102	1102	1102	1102	1098	1098	1098	1098	1098	1098	1095	1095	1095	1095	1095	1091	1088	1088	1088	1088	1085	1085	1085	1085	1085	1085	1085	1085	1085	1085	1081	1081	1078	1078	1078	1078	1074	1074	1074	1074	1074	1074	1071	1071	1071	1071	1071	1071	1071	1071	1071	1068	1068	1068	1068	1068	1064	1064	1064	1064	1064	1058	1058	1058	1058	1058	1058	1058	1058	1058	1058	1058	1058	1058	1058	1058	1058	1055	1055	1055	1055	1055	1055	1055	1169	1169	1169	1169	1169	1169	1169	1169	1169	1169	1165	1165	1165	1165	1161	1157	1157	1157	1157	1153	1153	1153	1153	1153	1150	1150	1150	1146	1146	1146	1142	1142	1142	1142	1138	1138	1138	1138	1138	0	0	0	0	0	0	0	0	0	0	0	0	0	0	0	0	0	0
0	0	0	0	0	0	0	0	0	0	0	0	0	0	0	0	0	0	0	0	0	0	0	0	0	1431	1431	1431	1431	1431	1431	1431	1425	1425	1425	1425	1425	1425	1425	1425	1425	1419	1419	1419	1425	1419	1419	1419	1425	1419	1419	1419	1419	1419	1419	1413	1413	1413	1413	1407	1407	1407	1407	1407	1407	1407	1407	1407	1407	1407	1407	1413	1413	1413	1413	1413	1407	1402	1402	1402	1402	1402	1402	1402	1402	1402	1402	1402	1402	1402	1402	1402	1402	1396	1396	1396	1396	1396	1396	1396	1396	1396	1396	1396	1396	1396	1396	1396	1396	1390	1390	1390	1390	1390	1390	1390	1396	1396	1396	1396	1396	1390	1390	1390	1390	1390	1390	1385	1385	1385	1385	1385	1385	1385	1379	1379	1379	1374	1374	1374	1374	1374	1374	1374	1374	1374	1379	1379	1374	1374	1374	1374	1374	1374	1374	1374	1374	1374	1374	1374	1374	1374	1374	1368	1368	1368	1368	1368	1363	1363	1363	1363	1363	1363	1363	1363	1358	1358	1358	1358	1358	1352	1352	1352	1352	1352	1352	1352	1352	1352	1347	1347	1347	1347	1347	1347	1347	1347	1347	1347	1347	1347	1347	1347	1347	1347	1347	1347	1342	1342	1336	1336	1336	1331	1331	1331	1331	1331	1331	1331	1331	1331	1331	1331	1331	1331	1331	1331	1331	1326	1326	1326	1326	1326	1326	1326	1326	1326	1326	1321	1321	1321	1321	1316	1316	1316	1311	1311	1311	1311	1311	1311	1311	1311	1311	1306	1306	1306	1306	1306	1306	1311	1306	1306	1306	1306	1306	1306	1306	1306	1301	1301	1296	1296	1296	1296	1296	1291	1291	1291	1291	1291	1291	1291	1291	1291	1291	1291	1287	1287	1287	1287	1282	1282	1277	1277	1277	1272	1272	1272	1272	1272	1272	1272	1272	1272	1268	1268	1268	1268	1268	1268	1268	1268	1268	1268	1268	1268	1268	1263	1259	1259	1259	1259	1254	1254	1254	1249	1249	1249	1249	1245	1245	1245	1245	1245	1245	1245	1240	1240	1240	1236	1236	1236	1232	1232	1232	1232	1232	1232	1232	1232	1232	1232	1232	1227	1227	1227	1227	1227	1227	1227	1227	1223	1223	1219	1214	1214	1214	1214	1210	1210	1210	1210	1210	1210	1210	1210	1210	1210	1206	1206	1206	1206	1206	1206	1202	1202	1197	1197	1197	1197	1197	1197	1193	1193	1193	1193	1193	1189	1189	1189	1189	1189	1185	1185	1185	1181	1181	1181	1181	1181	1181	1181	1181	1181	1177	1177	1177	1177	1177	1173	1169	1169	1169	1169	1169	1169	1165	1165	1165	1165	1165	1165	1165	1161	1161	1161	1157	1153	1150	1150	1150	1150	1146	1146	1146	1146	1146	1146	1142	1142	1142	1138	1138	1138	1134	1134	1134	1134	1134	1131	1131	1131	1131	1131	1127	1127	1127	1127	1127	1127	1127	1123	1123	1123	1123	1120	1120	1120	1116	1116	1116	1116	1113	1113	1113	1113	1113	1113	1113	1109	1109	1109	1109	1105	1105	1105	1102	1102	1102	1102	1102	1098	1098	1098	1098	1098	1098	1095	1095	1095	1095	1095	1091	1088	1088	1088	1088	1085	1085	1085	1085	1085	1085	1085	1085	1085	1085	1081	1081	1078	1078	1078	1078	1078	1078	1074	1074	1074	1074	1071	1071	1071	1071	1071	1071	1071	1071	1071	1071	1068	1068	1068	1064	1064	1064	1064	1064	1064	1058	1058	1058	1058	1058	1058	1058	1058	1058	1058	1058	1058	1058	1058	1055	1055	1055	1055	1055	1055	1055	1055	1055	1169	1169	1169	1173	1169	1169	1169	1169	1169	1169	1165	1165	1165	1165	1161	1157	1157	1157	1157	1153	1153	1153	1153	1153	1153	1150	1150	1146	1146	1146	1142	1142	1142	1142	1138	1138	1134	1134	1134	0	0	0	0	0	0	0	0	0	0	0	0	0	0	0	0	0	0
0	0	0	0	0	0	0	0	0	0	0	0	0	0	0	0	0	0	0	0	0	0	0	0	0	1431	1431	1431	1431	1431	1431	1431	1425	1425	1425	1425	1425	1425	1425	1419	1419	1419	1419	1419	1419	1419	1419	1419	1419	1419	1419	1419	1419	1419	1419	1413	1413	1413	1413	1407	1407	1407	1407	1407	1407	1407	1407	1407	1407	1407	1407	1413	1413	1413	1407	1407	1407	1402	1402	1402	1402	1402	1402	1402	1402	1402	1402	1402	1402	1402	1402	1402	1402	1396	1396	1396	1396	1396	1396	1396	1396	1396	1396	1396	1396	1396	1396	1396	1396	1390	1390	1390	1390	1396	1396	1396	1396	1396	1396	1396	1396	1390	1390	1390	1390	1385	1385	1385	1385	1385	1385	1379	1379	1385	1379	1379	1379	1374	1374	1374	1374	1374	1374	1374	1374	1374	1379	1379	1374	1374	1374	1374	1374	1374	1374	1374	1374	1374	1374	1374	1374	1374	1374	1374	1368	1368	1363	1363	1363	1363	1363	1363	1363	1363	1363	1363	1358	1358	1358	1358	1358	1352	1352	1352	1352	1352	1352	1352	1352	1352	1347	1347	1347	1347	1347	1347	1347	1347	1347	1352	1347	1347	1347	1347	1347	1347	1347	1347	1342	1342	1342	1336	1331	1331	1331	1331	1331	1331	1331	1331	1331	1331	1331	1331	1331	1331	1331	1331	1331	1326	1326	1326	1326	1321	1321	1321	1326	1326	1321	1321	1321	1321	1316	1316	1311	1311	1311	1311	1311	1311	1311	1311	1311	1311	1311	1306	1306	1306	1306	1306	1306	1306	1306	1306	1306	1306	1306	1306	1306	1301	1301	1301	1296	1296	1296	1296	1291	1291	1291	1291	1291	1291	1291	1291	1291	1291	1291	1287	1287	1287	1287	1282	1282	1282	1277	1277	1277	1277	1272	1272	1272	1272	1272	1272	1272	1272	1268	1268	1268	1268	1268	1268	1268	1268	1268	1268	1268	1268	1268	1263	1259	1259	1254	1254	1254	1254	1254	1249	1249	1249	1249	1245	1245	1245	1245	1245	1245	1245	1240	1240	1240	1236	1236	1236	1232	1232	1232	1232	1232	1232	1232	1232	1232	1232	1227	1227	1227	1227	1227	1227	1227	1223	1223	1223	1223	1219	1214	1214	1214	1214	1210	1210	1210	1210	1210	1210	1210	1210	1210	1206	1206	1206	1206	1206	1206	1206	1202	1202	1197	1197	1197	1197	1197	1197	1193	1193	1193	1193	1189	1189	1189	1189	1189	1185	1185	1185	1185	1185	1181	1181	1181	1181	1181	1181	1181	1181	1177	1177	1177	1177	1177	1173	1169	1169	1169	1169	1169	1165	1165	1165	1165	1165	1165	1165	1165	1161	1161	1161	1157	1153	1150	1150	1150	1150	1146	1146	1146	1146	1146	1146	1142	1142	1142	1138	1138	1138	1134	1134	1131	1131	1131	1131	1131	1131	1131	1131	1127	1127	1127	1127	1127	1127	1127	1123	1123	1123	1123	1120	1120	1116	1116	1116	1113	1113	1113	1113	1113	1113	1113	1113	1113	1113	1113	1109	1109	1109	1105	1105	1102	1102	1102	1102	1102	1098	1098	1098	1098	1098	1098	1095	1095	1095	1095	1091	1091	1088	1088	1088	1088	1085	1085	1085	1085	1085	1085	1085	1085	1085	1081	1081	1078	1078	1078	1078	1078	1078	1074	1074	1074	1074	1074	1071	1071	1071	1071	1071	1071	1071	1071	1071	1071	1068	1068	1068	1064	1064	1064	1064	1064	1064	1061	1058	1058	1058	1058	1058	1058	1058	1058	1058	1058	1058	1058	1058	1055	1055	1055	1055	1055	1055	1055	1055	1169	1169	1169	1169	1173	1173	1169	1169	1169	1169	1169	1165	1165	1165	1161	1161	1157	1157	1157	1157	1153	1153	1153	1153	1153	1150	1150	1150	1150	1146	1146	1142	1142	1142	1142	1138	1138	1134	1134	1134	0	0	0	0	0	0	0	0	0	0	0	0	0	0	0	0	0	0
0	0	0	0	0	0	0	0	0	0	0	0	0	0	0	0	0	0	0	0	0	0	0	0	0	1431	1431	1431	1431	1431	1431	1431	1425	1425	1425	1425	1425	1425	1425	1419	1419	1419	1419	1419	1419	1419	1419	1419	1419	1419	1419	1419	1419	1419	1413	1413	1413	1413	1407	1407	1407	1407	1407	1407	1407	1407	1407	1407	1407	1407	1407	1413	1413	1413	1407	1407	1407	1402	1402	1402	1402	1402	1402	1402	1402	1402	1402	1402	1402	1396	1396	1396	1396	1396	1396	1396	1396	1396	1396	1396	1396	1396	1396	1396	1396	1390	1390	1396	1396	1390	1390	1390	1390	1390	1390	1390	1390	1390	1390	1396	1390	1390	1390	1390	1390	1385	1385	1385	1385	1385	1385	1379	1379	1385	1379	1379	1379	1374	1374	1374	1374	1374	1374	1374	1374	1374	1374	1374	1374	1374	1374	1374	1374	1374	1374	1374	1374	1374	1374	1374	1374	1368	1368	1368	1368	1368	1363	1363	1363	1363	1363	1363	1363	1363	1363	1363	1358	1358	1358	1358	1358	1358	1358	1352	1352	1352	1352	1352	1352	1352	1347	1347	1347	1347	1347	1347	1347	1347	1347	1347	1347	1347	1347	1347	1347	1347	1347	1347	1347	1342	1342	1336	1331	1331	1331	1331	1331	1331	1331	1331	1331	1331	1331	1331	1331	1331	1331	1331	1331	1326	1326	1326	1326	1326	1326	1326	1326	1326	1321	1321	1321	1316	1316	1311	1311	1311	1311	1311	1311	1311	1311	1311	1311	1311	1306	1306	1306	1306	1306	1306	1306	1306	1306	1306	1306	1306	1306	1306	1301	1301	1301	1301	1296	1296	1296	1296	1291	1291	1291	1291	1291	1291	1291	1291	1291	1291	1291	1287	1287	1287	1287	1282	1282	1282	1277	1277	1277	1277	1272	1272	1272	1272	1272	1268	1268	1268	1268	1268	1268	1268	1268	1268	1268	1268	1268	1268	1268	1268	1268	1263	1259	1259	1254	1254	1254	1254	1249	1249	1249	1249	1249	1245	1245	1245	1245	1245	1240	1240	1240	1240	1236	1236	1236	1236	1232	1232	1232	1232	1232	1232	1232	1232	1232	1232	1227	1227	1227	1227	1227	1227	1227	1223	1223	1223	1223	1219	1219	1214	1214	1214	1210	1210	1210	1210	1210	1210	1210	1206	1206	1206	1206	1206	1206	1206	1206	1202	1202	1202	1197	1197	1197	1197	1197	1197	1193	1193	1193	1193	1189	1189	1189	1189	1189	1185	1185	1185	1185	1185	1185	1181	1181	1181	1181	1181	1181	1177	1177	1177	1177	1177	1177	1173	1173	1169	1169	1169	1165	1165	1165	1165	1165	1165	1165	1165	1161	1161	1161	1161	1157	1153	1150	1150	1150	1150	1146	1146	1146	1146	1146	1146	1146	1142	1142	1142	1138	1138	1134	1134	1131	1131	1131	1131	1131	1131	1131	1127	1127	1127	1127	1127	1127	1123	1123	1123	1123	1120	1120	1120	1120	1116	1116	1116	1113	1113	1113	1113	1113	1113	1113	1113	1113	1113	1113	1109	1109	1109	1105	1105	1105	1102	1102	1102	1102	1102	1098	1098	1098	1098	1098	1095	1095	1095	1091	1091	1091	1088	1088	1088	1088	1085	1085	1085	1085	1085	1085	1085	1085	1081	1081	1081	1078	1078	1078	1078	1078	1078	1074	1074	1074	1074	1074	1071	1071	1071	1071	1071	1071	1071	1071	1071	1071	1071	1068	1068	1068	1064	1061	1061	1064	1064	1058	1058	1058	1058	1058	1058	1058	1058	1058	1058	1058	1058	1058	1058	1058	1055	1055	1055	1055	1055	1055	1055	1169	1169	1169	1169	1173	1173	1173	1169	1169	1169	1169	1165	1165	1165	1161	1161	1157	1157	1153	1153	1153	1153	1153	1153	1153	1150	1150	1150	1150	1146	1146	1142	1142	1142	1142	1138	1138	1138	1138	1138	0	0	0	0	0	0	0	0	0	0	0	0	0	0	0	0	0	0
0	0	0	0	0	0	0	0	0	0	0	0	0	0	0	0	0	0	0	0	0	0	0	0	0	1431	1431	1431	1431	1431	1431	1431	1425	1425	1425	1425	1425	1425	1425	1419	1419	1419	1419	1419	1419	1419	1419	1419	1419	1419	1419	1419	1413	1413	1413	1413	1413	1413	1407	1407	1407	1407	1407	1407	1407	1407	1407	1407	1407	1407	1407	1413	1413	1407	1407	1407	1407	1402	1402	1396	1396	1402	1402	1402	1396	1396	1396	1396	1402	1396	1396	1396	1396	1396	1396	1396	1396	1396	1396	1396	1396	1396	1396	1396	1396	1390	1390	1396	1396	1390	1390	1390	1390	1390	1390	1390	1390	1390	1390	1390	1390	1390	1390	1385	1385	1385	1385	1385	1385	1385	1379	1379	1379	1379	1379	1379	1379	1379	1379	1379	1379	1374	1374	1374	1374	1374	1374	1374	1374	1374	1374	1374	1374	1374	1374	1374	1374	1374	1374	1374	1374	1368	1368	1368	1368	1368	1363	1363	1363	1363	1358	1358	1363	1363	1363	1358	1358	1358	1358	1358	1358	1358	1358	1352	1352	1352	1347	1347	1347	1347	1347	1347	1347	1347	1347	1347	1347	1347	1347	1347	1342	1342	1342	1347	1347	1347	1347	1347	1342	1342	1342	1342	1336	1331	1331	1331	1331	1331	1331	1331	1331	1331	1331	1331	1331	1331	1331	1331	1331	1326	1326	1326	1326	1326	1326	1326	1326	1321	1321	1316	1316	1316	1316	1311	1311	1311	1311	1311	1311	1311	1311	1311	1311	1311	1306	1306	1306	1306	1306	1306	1306	1306	1306	1306	1306	1306	1306	1301	1301	1301	1301	1301	1296	1296	1296	1296	1296	1291	1291	1291	1291	1291	1291	1291	1291	1291	1291	1287	1287	1287	1287	1282	1282	1282	1277	1277	1277	1272	1272	1272	1272	1272	1272	1268	1268	1268	1268	1268	1268	1268	1268	1268	1268	1268	1268	1268	1268	1268	1268	1263	1259	1259	1254	1254	1254	1254	1249	1249	1249	1249	1249	1245	1245	1245	1245	1245	1240	1240	1240	1240	1236	1236	1236	1236	1232	1232	1232	1232	1232	1232	1232	1232	1232	1227	1227	1227	1227	1227	1227	1227	1223	1223	1223	1223	1223	1223	1219	1214	1214	1214	1214	1210	1210	1210	1210	1210	1206	1206	1206	1206	1206	1206	1206	1206	1206	1202	1202	1202	1197	1197	1197	1197	1197	1197	1193	1193	1193	1193	1189	1189	1189	1189	1189	1185	1185	1185	1185	1181	1181	1181	1181	1181	1181	1181	1177	1177	1177	1177	1177	1177	1177	1173	1173	1169	1169	1169	1165	1165	1165	1165	1165	1161	1161	1161	1161	1161	1161	1161	1157	1153	1150	1150	1150	1150	1146	1146	1146	1146	1146	1146	1146	1142	1142	1142	1138	1138	1134	1134	1131	1131	1131	1131	1131	1131	1131	1127	1127	1127	1127	1127	1127	1123	1123	1123	1120	1120	1120	1116	1116	1116	1116	1116	1113	1113	1113	1113	1113	1113	1113	1113	1109	1109	1109	1109	1109	1109	1105	1105	1105	1102	1102	1102	1102	1102	1098	1098	1098	1095	1095	1095	1095	1095	1091	1091	1091	1088	1088	1085	1085	1085	1085	1085	1085	1085	1085	1085	1085	1081	1081	1081	1078	1078	1078	1078	1074	1074	1074	1074	1074	1074	1074	1071	1071	1071	1071	1071	1071	1071	1071	1071	1071	1068	1068	1068	1064	1064	1064	1061	1061	1061	1058	1058	1058	1058	1058	1058	1058	1058	1058	1058	1058	1058	1058	1058	1058	1055	1055	1055	1055	1055	1055	1055	1169	1169	1169	1169	1173	1169	1169	1169	1169	1169	1169	1165	1165	1165	1161	1161	1157	1157	1153	1153	1153	1153	1153	1153	1153	1150	1150	1150	1150	1150	1146	1142	1142	1142	1142	1138	1138	1138	1138	1138	0	0	0	0	0	0	0	0	0	0	0	0	0	0	0	0	0	0
