0	0	0	0	0	0	0	0	0	0	0	0	0	0	0	0	0	0	0	0	0	0	0	0	0	0	0	1413	1407	1413	1413	1413	1413	1413	1413	1413	1407	1407	1407	1407	1407	1407	1407	1407	1407	1407	1402	1402	1402	1407	1407	1407	1407	1407	1227	1227	1227	1227	1227	1227	1223	1223	1219	1214	1210	1210	1210	1210	1210	1210	1113	1113	1116	1120	1120	1120	1120	1120	1120	1120	1120	1116	1116	1116	1116	1116	1116	1116	1116	1113	1113	1113	1109	1109	1105	1105	1105	1105	1105	1105	1102	1102	1102	1102	1102	1098	1098	1098	1098	1098	1098	1098	1098	1098	1095	1095	1095	1095	1095	1095	1095	1095	1091	1091	1091	1091	1091	1088	1088	1088	1088	1088	1088	1088	1088	1088	1088	1088	1088	1085	1085	1085	1085	1085	1085	1085	1085	1085	1085	1081	1081	1078	1078	1078	1078	1078	1078	1078	1078	1078	1078	1078	1074	1074	1074	1074	1074	1071	1071	1071	1071	1068	1068	1068	1068	1068	1068	1068	1068	1068	1064	1064	1064	1064	1064	1064	1064	1064	1064	1064	1064	1064	1064	1061	1061	1058	1058	1058	1058	1058	1058	1058	1058	1058	1055	1055	1055	1055	1055	1055	1055	1055	1055	1052	1052	1048	1048	1048	1048	1048	1045	1045	1045	1045	1045	1045	1045	1045	1045	1045	1045	1042	1042	1042	1042	1039	1039	1039	1036	1036	1036	1036	1033	1033	1033	1030	1030	1030	1030	1030	1030	1026	1026	1026	1026	1026	1026	1023	1023	1023	1020	1020	1020	1020	1020	1017	1017	1017	1017	1017	1014	1014	1014	1014	1014	1014	1011	1011	1011	1011	1008	1008	1008	1008	1008	1008	1008	1008	1006	1006	1006	1006	1006	1006	1006	1006	1006	1006	1003	1003	1003	1003	1003	1003	1003	1000	1000	1000	1000	1000	1000	1000	1003	1003	1003	1003	1003	1003	1003	1003	1003	1003	1000	1000	1000	1000	1000	997	994	994	997	994	994	994	994	994	994	994	991	991	991	991	991	991	991	988	988	988	988	988	988	988	985	985	985	985	985	985	985	985	985	985	985	983	983	983	980	980	980	980	980	980	980	980	980	980	977	977	977	977	974	974	974	974	974	974	974	977	977	977	0	0	1193	1193	1193	1193	1189	1189	1193	1193	1193	1193	1193	1193	1189	1189	1189	1189	1189	1189	1189	1189	1185	1185	1185	1185	1181	1181	1181	1181	1181	1181	1181	1177	1177	1177	1177	1177	1177	1177	1177	1177	1177	1177	1177	1177	1177	1177	1177	1177	1173	1173	1173	1177	1177	1177	1177	1173	1173	1173	1173	1169	1169	1169	1169	1169	1169	1169	1169	1169	1169	1169	1169	1169	1165	1165	1165	1165	1165	1165	1165	1161	1161	1157	1157	1157	1157	1157	1157	1157	1157	1157	1157	1157	1157	1157	1157	1157	1157	1153	1153	1153	1153	1153	1153	1153	1153	1153	1153	1153	1153	1153	1153	1153	1153	1153	1153	1150	1150	1150	1146	1146	1146	1146	1146	1146	1146	1146	1142	1142	1142	1142	1142	1142	1142	1142	1142	1138	1138	1138	1138	1138	1138	1138	1138	1138	1138	1138	1138	1138	1138	1138	1138	1138	1138	1138	1134	1134	1134	1131	1131	1127	1127	1127	1127	1127	1127	1123	1123	1123	1123	1123	1123	1123	1123	1123	1123	1123	1123	1123	1120	1120	1120	1120	1120	1120	1116	1116	1116	1120	1120	1116	1116	1116	1120	1120	1120	1116	1116	1116	1116	1116	1116	1116	1116	1116	1116	1113	1113	1113	1109	1109	1113	1113	1113	1109	1109	1105	1105	1109	1105	1105	1105	1109	1105	1105	1105	1105	1105	1105	1105	0	0	0	0	0	0	0	0	0	0	0	0	0	0	0	0	0	0	0
0	0	0	0	0	0	0	0	0	0	0	0	0	0	0	0	0	0	0	0	0	0	0	0	0	0	0	1413	1413	1413	1413	1413	1413	1413	1413	1413	1407	1407	1407	1407	1407	1407	1407	1407	1407	1407	1407	1407	1407	1407	1407	1407	1407	1407	1227	1227	1227	1227	1227	1227	1223	1223	1219	1214	1214	1210	1210	1210	1210	1210	1113	1113	1116	1120	1120	1120	1123	1123	1120	1120	1120	1120	1120	1116	1116	1116	1116	1116	1116	1113	1113	1113	1109	1109	1105	1105	1105	1105	1105	1105	1102	1102	1102	1102	1102	1102	1102	1098	1098	1102	1098	1098	1098	1098	1098	1095	1095	1095	1098	1095	1095	1098	1095	1095	1095	1091	1091	1091	1091	1091	1088	1088	1091	1088	1088	1088	1088	1088	1088	1085	1085	1088	1088	1085	1085	1085	1085	1085	1085	1085	1081	1081	1081	1078	1078	1078	1078	1078	1078	1078	1078	1078	1078	1074	1074	1074	1074	1071	1071	1071	1071	1068	1068	1068	1068	1068	1068	1068	1068	1068	1068	1064	1064	1064	1064	1064	1064	1064	1064	1064	1064	1064	1064	1061	1061	1061	1058	1058	1058	1058	1058	1058	1058	1058	1058	1055	1055	1055	1055	1055	1055	1055	1055	1052	1052	1052	1048	1048	1048	1048	1048	1048	1048	1045	1045	1045	1045	1045	1045	1045	1045	1045	1042	1042	1042	1042	1039	1039	1039	1039	1036	1036	1036	1033	1033	1030	1030	1030	1030	1030	1030	1030	1026	1026	1026	1026	1026	1026	1023	1023	1023	1023	1020	1020	1020	1020	1020	1017	1017	1017	1017	1017	1017	1017	1014	1014	1014	1011	1011	1011	1011	1011	1011	1008	1008	1008	1008	1008	1008	1008	1008	1008	1008	1006	1006	1006	1006	1006	1006	1003	1003	1003	1003	1003	1003	1003	1000	1000	1000	1000	1003	1003	1003	1003	1006	1006	1006	1003	1003	1003	1003	1003	1000	1000	1000	1000	1000	997	994	994	997	997	994	994	994	994	994	994	994	991	991	991	991	991	991	988	988	988	988	988	988	988	988	985	985	985	985	985	985	985	985	985	985	983	983	983	980	980	980	980	980	980	980	980	980	980	980	977	977	977	974	974	974	974	974	974	977	977	977	977	0	0	0	1197	1197	1193	1193	1193	1193	1193	1193	1193	1193	1193	1189	1189	1189	1189	1189	1189	1189	1189	1185	1185	1185	1185	1185	1181	1181	1181	1181	1181	1181	1177	1177	1177	1177	1177	1177	1177	1177	1177	1177	1177	1177	1177	1177	1177	1177	1177	1177	1177	1177	1177	1177	1177	1177	1173	1173	1173	1173	1173	1169	1169	1169	1169	1169	1169	1169	1169	1169	1169	1169	1169	1165	1165	1169	1165	1165	1165	1165	1165	1165	1161	1157	1157	1157	1157	1157	1157	1157	1157	1157	1157	1157	1157	1157	1157	1157	1153	1153	1153	1153	1153	1153	1153	1153	1153	1153	1153	1153	1153	1153	1153	1153	1153	1153	1153	1150	1150	1150	1150	1150	1146	1146	1146	1146	1146	1142	1142	1142	1142	1142	1142	1142	1142	1142	1142	1142	1142	1142	1142	1138	1138	1138	1138	1138	1138	1138	1138	1138	1138	1138	1138	1138	1138	1134	1134	1134	1134	1131	1131	1127	1127	1127	1127	1127	1127	1123	1123	1123	1123	1123	1123	1123	1123	1123	1123	1123	1123	1120	1120	1120	1120	1120	1120	1120	1120	1120	1120	1120	1116	1116	1116	1120	1120	1120	1116	1116	1116	1116	1116	1116	1116	1116	1116	1116	1113	1113	1113	1113	1113	1113	1113	1113	1113	1109	1109	1109	1109	1109	1109	1109	1109	1109	1105	1105	1105	1105	1105	1105	0	0	0	0	0	0	0	0	0	0	0	0	0	0	0	0	0	0	0
0	0	0	0	0	0	0	0	0	0	0	0	0	0	0	0	0	0	0	0	0	0	0	0	0	0	0	1413	1413	1413	1413	1413	1413	1413	1413	1413	1407	1407	1407	1407	1407	1407	1407	1407	1407	1407	1407	1407	1407	1407	1407	1407	1407	1407	1407	1227	1227	1227	1227	1227	1227	1223	1219	1219	1214	1214	1210	1210	1210	1210	1210	1116	1116	1116	1120	1120	1120	1123	1120	1120	1120	1120	1120	1120	1116	1116	1116	1116	1116	1113	1113	1113	1109	1109	1109	1109	1109	1109	1105	1105	1102	1102	1105	1105	1102	1102	1102	1098	1098	1102	1098	1098	1098	1098	1098	1095	1095	1095	1098	1098	1098	1098	1095	1095	1095	1095	1095	1091	1091	1091	1091	1091	1091	1088	1088	1088	1088	1088	1088	1085	1085	1085	1085	1085	1085	1085	1085	1085	1085	1085	1081	1081	1081	1081	1081	1081	1081	1078	1078	1078	1078	1078	1078	1078	1078	1074	1074	1071	1071	1071	1071	1068	1068	1068	1068	1068	1068	1068	1068	1068	1068	1068	1068	1068	1068	1068	1068	1068	1064	1064	1064	1064	1064	1061	1061	1061	1061	1058	1058	1058	1058	1058	1058	1058	1058	1058	1055	1055	1055	1055	1055	1055	1055	1055	1052	1052	1048	1048	1048	1048	1048	1048	1048	1048	1048	1045	1045	1045	1045	1045	1045	1045	1042	1042	1042	1042	1039	1039	1039	1039	1039	1036	1036	1033	1033	1033	1033	1033	1030	1030	1030	1030	1030	1030	1030	1030	1026	1026	1026	1026	1026	1023	1023	1023	1020	1020	1020	1020	1020	1017	1017	1017	1017	1017	1017	1014	1014	1014	1014	1014	1011	1011	1011	1011	1011	1011	1011	1011	1008	1008	1008	1008	1008	1008	1008	1006	1006	1006	1006	1003	1003	1003	1003	1003	1003	1003	1003	1000	1000	1003	1003	1003	1003	1003	1006	1006	1006	1006	1003	1003	1003	1003	1000	1000	1000	1000	1000	997	997	997	997	997	997	997	994	994	994	994	994	991	991	991	991	991	991	991	991	991	988	988	988	988	988	988	988	988	988	988	985	985	985	985	985	983	983	983	983	980	980	980	980	980	980	980	980	980	980	977	977	977	977	977	974	974	974	977	977	977	977	980	980	0	1197	1197	1197	1197	1193	1193	1193	1193	1193	1193	1193	1193	1189	1189	1189	1189	1189	1189	1189	1189	1189	1185	1185	1185	1185	1185	1181	1181	1181	1181	1181	1181	1181	1181	1177	1177	1177	1177	1177	1177	1177	1177	1177	1177	1177	1177	1177	1177	1177	1177	1177	1177	1177	1177	1177	1173	1173	1173	1173	1173	1169	1169	1173	1169	1169	1169	1169	1169	1169	1169	1169	1169	1165	1165	1169	1165	1165	1165	1165	1165	1165	1161	1157	1157	1157	1157	1157	1157	1157	1157	1157	1157	1157	1157	1157	1157	1157	1157	1153	1153	1153	1153	1153	1153	1153	1153	1153	1153	1153	1153	1153	1153	1153	1153	1153	1153	1153	1150	1150	1150	1150	1150	1150	1146	1146	1146	1146	1146	1142	1142	1142	1142	1142	1142	1142	1142	1142	1142	1142	1142	1142	1142	1142	1142	1138	1138	1138	1138	1138	1138	1138	1138	1138	1138	1134	1134	1138	1134	1134	1131	1127	1127	1131	1127	1127	1127	1123	1123	1123	1123	1123	1123	1123	1123	1123	1123	1123	1123	1120	1120	1120	1120	1120	1120	1120	1120	1120	1120	1120	1116	1116	1116	1120	1120	1120	1116	1116	1116	1116	1116	1116	1116	1116	1116	1116	1113	1113	1113	1113	1113	1113	1113	1113	1113	1113	1109	1109	1109	1109	1109	1109	1109	1109	1105	1105	1105	1105	1105	1105	0	0	0	0	0	0	0	0	0	0	0	0	0	0	0	0	0	0	0
0	0	0	0	0	0	0	0	0	0	0	0	0	0	0	0	0	0	0	0	0	0	0	0	0	0	0	1413	1413	1413	1413	1413	1413	1413	1413	1413	1407	1407	1407	1407	1407	1407	1407	1407	1407	1407	1407	1407	1407	1407	1407	1407	1407	1407	1407	1227	1227	1227	1227	1227	1227	1227	1223	1219	1214	1214	1214	1214	1214	1214	1214	1116	1116	1120	1120	1120	1123	1123	1123	1123	1120	1120	1120	1120	1120	1120	1120	1116	1116	1113	1113	1113	1113	1113	1113	1113	1109	1109	1109	1109	1109	1105	1105	1105	1105	1102	1102	1102	1102	1102	1102	1098	1098	1098	1098	1098	1098	1098	1098	1098	1098	1098	1098	1098	1098	1098	1098	1098	1095	1095	1091	1091	1091	1088	1088	1088	1088	1088	1088	1085	1085	1088	1088	1088	1088	1088	1088	1085	1085	1085	1085	1085	1085	1085	1085	1081	1081	1081	1081	1085	1085	1081	1081	1078	1078	1078	1078	1071	1071	1071	1071	1068	1068	1068	1068	1068	1068	1068	1068	1068	1068	1068	1068	1068	1068	1068	1068	1068	1064	1064	1064	1064	1064	1064	1061	1061	1061	1061	1058	1058	1058	1058	1058	1058	1058	1058	1055	1055	1055	1055	1055	1055	1055	1055	1055	1055	1052	1052	1052	1052	1048	1048	1048	1048	1048	1045	1045	1045	1045	1045	1045	1045	1045	1045	1042	1042	1042	1042	1039	1039	1039	1039	1039	1036	1036	1033	1033	1033	1033	1033	1033	1030	1030	1030	1030	1030	1026	1026	1026	1026	1026	1023	1023	1023	1020	1020	1020	1020	1020	1020	1017	1017	1017	1017	1017	1017	1014	1014	1017	1014	1014	1014	1014	1014	1014	1014	1014	1014	1011	1011	1011	1008	1008	1008	1008	1008	1006	1006	1006	1006	1006	1006	1003	1003	1003	1003	1003	1003	1003	1003	1003	1003	1003	1003	1006	1006	1006	1006	1003	1003	1003	1003	1000	1000	1000	1000	1000	1000	997	997	997	997	997	997	997	994	994	994	994	991	991	991	991	991	991	991	991	991	991	988	988	988	988	988	988	988	988	988	985	985	985	985	985	983	983	983	983	983	980	980	980	980	980	980	980	980	980	980	980	977	977	977	977	977	977	977	977	977	977	980	980	0	1197	1197	1197	1197	1193	1193	1193	1193	1193	1193	1193	1193	1189	1189	1189	1189	1189	1189	1189	1189	1189	1189	1189	1189	1185	1185	1185	1185	1185	1181	1181	1181	1181	1181	1177	1177	1177	1177	1177	1177	1177	1177	1177	1177	1177	1177	1177	1177	1177	1177	1177	1177	1177	1177	1177	1173	1173	1173	1173	1173	1173	1173	1173	1173	1173	1173	1169	1169	1169	1169	1169	1169	1165	1165	1169	1169	1165	1165	1165	1165	1165	1161	1161	1161	1161	1157	1157	1157	1157	1157	1157	1157	1157	1157	1157	1157	1157	1157	1157	1153	1153	1153	1153	1153	1153	1153	1153	1153	1153	1153	1153	1153	1153	1153	1153	1153	1153	1150	1150	1150	1150	1150	1150	1150	1150	1146	1146	1146	1142	1142	1142	1142	1142	1142	1142	1142	1142	1142	1142	1142	1142	1142	1142	1142	1138	1138	1138	1138	1138	1138	1138	1138	1138	1138	1138	1138	1138	1134	1134	1131	1131	1131	1131	1131	1131	1127	1123	1123	1123	1123	1123	1123	1123	1123	1123	1123	1123	1123	1120	1120	1120	1120	1120	1120	1120	1120	1120	1120	1120	1120	1120	1120	1120	1120	1120	1120	1120	1120	1116	1116	1116	1116	1116	1116	1116	1113	1113	1113	1113	1113	1113	1113	1113	1113	1113	1113	1113	1109	1109	1109	1109	1109	1109	1109	1109	1105	1105	1105	1105	0	0	0	0	0	0	0	0	0	0	0	0	0	0	0	0	0	0	0
0	0	0	0	0	0	0	0	0	0	0	0	0	0	0	0	0	0	0	0	0	0	0	0	0	0	0	1413	1413	1413	1413	1413	1413	1413	1413	1413	1413	1407	1407	1407	1407	1407	1407	1407	1407	1407	1407	1407	1407	1407	1407	1407	1407	1407	1407	1407	1227	1227	1227	1227	1227	1227	1227	1223	1219	1214	1214	1214	1214	1214	1214	1116	1116	1120	1120	1120	1123	1123	1123	1123	1123	1120	1120	1120	1120	1120	1120	1116	1116	1113	1113	1113	1113	1113	1113	1113	1113	1109	1109	1109	1109	1105	1105	1105	1105	1102	1102	1102	1102	1102	1102	1098	1098	1098	1098	1098	1098	1098	1098	1098	1098	1098	1098	1098	1098	1098	1098	1098	1098	1095	1095	1095	1095	1091	1091	1088	1088	1088	1088	1088	1088	1088	1088	1088	1088	1088	1088	1088	1085	1085	1085	1085	1085	1085	1085	1085	1085	1085	1085	1085	1085	1081	1081	1081	1078	1078	1078	1074	1074	1071	1071	1071	1071	1071	1071	1071	1071	1068	1068	1068	1068	1068	1068	1068	1068	1068	1068	1068	1064	1064	1064	1064	1064	1064	1064	1064	1064	1064	1061	1061	1061	1058	1058	1058	1058	1058	1058	1055	1055	1055	1055	1055	1055	1055	1055	1055	1055	1055	1055	1052	1052	1052	1048	1048	1048	1048	1048	1048	1045	1045	1045	1045	1045	1045	1045	1042	1042	1042	1042	1042	1042	1042	1042	1039	1039	1036	1036	1036	1036	1033	1033	1033	1030	1030	1030	1030	1030	1026	1026	1026	1026	1026	1026	1026	1023	1023	1023	1023	1023	1023	1023	1023	1023	1020	1020	1020	1017	1017	1017	1017	1014	1014	1014	1014	1014	1014	1014	1014	1014	1014	1014	1011	1011	1011	1011	1011	1008	1008	1006	1006	1006	1006	1006	1006	1006	1006	1003	1003	1003	1003	1003	1003	1003	1003	1006	1006	1006	1006	1006	1003	1003	1003	1000	1000	1000	1000	1000	1000	997	997	997	997	997	997	997	994	994	994	994	991	991	991	991	991	994	991	991	991	991	991	991	988	988	988	988	988	988	988	988	988	988	988	985	985	985	985	983	983	980	980	980	980	980	980	980	980	980	980	980	980	977	977	977	977	977	977	977	977	977	977	977	0	1197	1197	1197	1197	1193	1193	1193	1193	1193	1193	1193	1193	1193	1193	1193	1189	1189	1189	1189	1189	1189	1189	1189	1189	1189	1185	1185	1185	1185	1181	1181	1181	1181	1181	1181	1181	1181	1181	1181	1177	1177	1177	1177	1177	1177	1177	1177	1177	1177	1177	1177	1177	1177	1177	1177	1173	1173	1173	1173	1173	1173	1173	1173	1173	1173	1173	1173	1169	1169	1173	1173	1169	1169	1169	1169	1169	1165	1165	1165	1165	1165	1161	1161	1161	1161	1157	1157	1157	1157	1157	1157	1157	1157	1157	1157	1157	1157	1157	1157	1153	1153	1153	1153	1153	1153	1153	1153	1153	1153	1153	1153	1153	1153	1153	1153	1153	1153	1150	1150	1150	1150	1150	1150	1150	1150	1150	1146	1146	1146	1146	1142	1142	1142	1142	1142	1142	1142	1142	1142	1142	1142	1142	1142	1142	1138	1138	1138	1138	1138	1138	1138	1138	1138	1138	1138	1138	1138	1138	1134	1131	1131	1131	1131	1131	1131	1127	1123	1123	1123	1123	1123	1123	1123	1123	1123	1123	1123	1123	1120	1120	1120	1120	1120	1120	1120	1120	1120	1120	1120	1120	1120	1120	1120	1120	1120	1120	1120	1120	1116	1116	1116	1116	1116	1116	1116	1113	1113	1113	1113	1113	1113	1113	1113	1113	1113	1113	1113	1109	1109	1109	1109	1109	1109	1109	1109	1105	1105	1105	1105	0	0	0	0	0	0	0	0	0	0	0	0	0	0	0	0	0	0	0
0	0	0	0	0	0	0	0	0	0	0	0	0	0	0	0	0	0	0	0	0	0	0	0	0	0	0	1413	1413	1413	1413	1413	1413	1413	1413	1413	1413	1413	1407	1407	1407	1407	1407	1407	1407	1407	1407	1407	1407	1407	1407	1407	1407	1407	1407	1407	1232	1232	1232	1232	1227	1227	1227	1223	1223	1219	1219	1214	1214	1214	1214	1120	1120	1120	1120	1123	1123	1123	1123	1123	1123	1123	1120	1120	1120	1120	1120	1120	1116	1113	1113	1113	1113	1113	1113	1113	1113	1109	1109	1109	1109	1105	1105	1105	1105	1102	1102	1102	1102	1102	1102	1102	1098	1102	1098	1098	1098	1098	1098	1098	1098	1098	1098	1098	1098	1098	1098	1098	1098	1095	1095	1095	1095	1091	1091	1091	1091	1088	1088	1088	1088	1088	1088	1088	1088	1088	1088	1085	1085	1085	1085	1085	1085	1085	1085	1085	1085	1085	1085	1085	1085	1081	1081	1081	1081	1078	1078	1074	1071	1071	1071	1071	1071	1071	1071	1071	1071	1068	1068	1068	1068	1068	1068	1068	1068	1068	1068	1068	1068	1064	1064	1064	1064	1064	1064	1064	1064	1064	1064	1061	1061	1061	1061	1058	1058	1058	1058	1058	1055	1055	1055	1055	1055	1055	1055	1055	1055	1055	1055	1055	1052	1052	1052	1052	1052	1048	1048	1048	1045	1045	1045	1045	1045	1045	1045	1042	1042	1042	1042	1042	1042	1042	1042	1042	1039	1036	1036	1036	1036	1033	1033	1033	1030	1030	1030	1030	1030	1030	1030	1030	1030	1026	1026	1026	1026	1026	1026	1023	1023	1023	1023	1023	1023	1023	1020	1020	1017	1017	1017	1017	1017	1017	1017	1017	1017	1014	1014	1014	1014	1014	1014	1014	1014	1014	1014	1011	1011	1011	1008	1008	1008	1006	1006	1006	1006	1006	1006	1006	1006	1006	1006	1006	1006	1006	1006	1006	1006	1006	1006	1006	1006	1006	1000	1000	1000	1000	1000	1000	1000	1000	1000	1000	1000	1000	997	997	997	997	994	994	994	994	994	994	994	994	991	991	991	991	991	991	988	988	988	988	988	988	988	988	988	988	988	985	985	985	985	985	983	983	983	983	983	980	980	980	980	980	980	980	980	977	977	977	977	977	977	977	977	977	977	0	1197	1197	1202	1197	1193	1193	1193	1193	1193	1193	1193	1193	1193	1193	1193	1189	1189	1189	1189	1189	1189	1189	1189	1189	1189	1189	1185	1185	1185	1181	1181	1181	1181	1181	1181	1181	1181	1181	1181	1181	1177	1177	1177	1177	1177	1177	1177	1177	1177	1177	1177	1177	1177	1177	1177	1173	1173	1173	1173	1173	1173	1173	1173	1173	1173	1173	1173	1173	1173	1173	1173	1169	1169	1169	1169	1169	1165	1165	1165	1165	1165	1161	1161	1161	1161	1161	1161	1161	1161	1161	1161	1161	1161	1157	1157	1157	1157	1157	1157	1157	1157	1157	1157	1157	1157	1157	1153	1153	1153	1153	1157	1153	1153	1153	1153	1153	1153	1153	1153	1153	1153	1153	1153	1150	1150	1150	1150	1150	1146	1146	1142	1142	1142	1142	1142	1142	1142	1142	1142	1142	1142	1142	1142	1142	1142	1142	1142	1138	1138	1138	1138	1138	1138	1138	1138	1138	1138	1138	1138	1134	1131	1131	1131	1131	1131	1127	1123	1123	1123	1123	1123	1123	1123	1123	1123	1123	1123	1123	1123	1120	1120	1120	1120	1120	1120	1120	1120	1120	1120	1120	1120	1120	1120	1120	1120	1120	1120	1120	1116	1116	1116	1116	1116	1116	1116	1116	1116	1116	1113	1113	1113	1113	1113	1113	1113	1113	1113	1113	1109	1109	1109	1109	1109	1109	1109	1109	1105	1105	1105	0	0	0	0	0	0	0	0	0	0	0	0	0	0	0	0	0	0	0
0	0	0	0	0	0	0	0	0	0	0	0	0	0	0	0	0	0	0	0	0	0	0	0	0	0	1419	1419	1413	1413	1413	1413	1413	1413	1413	1413	1413	1413	1407	1407	1407	1407	1407	1407	1407	1407	1407	1407	1407	1407	1407	1407	1407	1407	1407	1407	1232	1232	1232	1232	1232	1227	1227	1227	1223	1219	1219	1219	1214	1214	1123	1120	1120	1120	1120	1123	1123	1123	1123	1123	1123	1123	1120	1120	1120	1120	1120	1120	1116	1113	1113	1113	1113	1113	1113	1113	1113	1113	1113	1113	1109	1109	1109	1109	1105	1105	1102	1102	1102	1102	1102	1102	1102	1102	1098	1098	1098	1098	1098	1098	1098	1098	1098	1098	1098	1098	1098	1098	1098	1095	1095	1095	1095	1091	1091	1091	1091	1088	1088	1088	1088	1088	1088	1088	1088	1088	1088	1085	1085	1085	1085	1085	1085	1085	1085	1085	1085	1085	1085	1085	1085	1081	1081	1081	1081	1078	1078	1074	1071	1071	1071	1071	1071	1071	1071	1071	1071	1071	1071	1071	1068	1068	1068	1068	1068	1068	1068	1068	1068	1068	1064	1064	1064	1064	1064	1064	1064	1064	1064	1064	1061	1061	1061	1061	1058	1058	1058	1058	1055	1055	1055	1055	1055	1055	1055	1055	1055	1055	1055	1055	1055	1052	1052	1052	1052	1048	1048	1048	1045	1045	1045	1045	1045	1045	1045	1045	1042	1042	1042	1042	1042	1042	1042	1042	1042	1036	1036	1036	1036	1036	1036	1033	1033	1033	1030	1030	1030	1030	1030	1030	1030	1026	1026	1026	1026	1026	1026	1026	1026	1026	1023	1023	1023	1023	1020	1020	1020	1020	1020	1020	1017	1017	1017	1017	1017	1017	1017	1017	1014	1014	1014	1014	1014	1014	1014	1014	1014	1011	1008	1008	1008	1006	1006	1006	1006	1006	1006	1006	1006	1006	1006	1006	1006	1006	1006	1006	1006	1006	1006	1006	1006	1006	1003	1000	1000	1000	1000	1000	1000	1000	1000	1000	1000	1000	1000	997	997	997	997	994	994	994	994	997	997	994	994	991	991	991	991	991	988	988	988	988	988	988	988	988	988	988	988	985	985	985	985	985	985	983	983	983	983	983	980	980	980	980	980	980	980	977	977	977	977	977	977	977	977	977	977	0	1202	1202	1202	1202	1197	1197	1197	1197	1197	1193	1193	1193	1193	1193	1193	1189	1189	1189	1189	1189	1189	1189	1189	1189	1189	1189	1189	1185	1185	1185	1185	1185	1181	1181	1181	1181	1181	1181	1181	1181	1181	1181	1181	1181	1181	1181	1177	1177	1177	1177	1177	1177	1177	1177	1177	1177	1177	1173	1173	1173	1173	1173	1173	1173	1173	1173	1173	1173	1173	1173	1173	1169	1169	1169	1169	1169	1165	1165	1165	1169	1169	1165	1165	1161	1161	1161	1161	1161	1161	1161	1161	1161	1161	1157	1157	1157	1157	1157	1157	1157	1157	1157	1157	1157	1157	1157	1157	1157	1157	1157	1157	1153	1153	1153	1153	1153	1153	1153	1153	1153	1153	1153	1153	1150	1150	1150	1150	1150	1146	1146	1146	1142	1142	1142	1142	1142	1142	1146	1146	1142	1142	1142	1142	1142	1142	1142	1142	1138	1138	1138	1138	1138	1138	1138	1138	1138	1138	1138	1138	1134	1131	1131	1131	1131	1131	1127	1123	1123	1123	1123	1123	1123	1123	1123	1123	1127	1127	1123	1123	1123	1123	1120	1120	1120	1120	1120	1120	1120	1120	1120	1120	1120	1120	1120	1120	1120	1120	1120	1116	1116	1116	1116	1116	1116	1116	1116	1116	1116	1113	1113	1113	1109	1109	1113	1113	1113	1113	1113	1109	1109	1109	1109	1109	1109	1109	1109	1109	1109	1109	0	0	0	0	0	0	0	0	0	0	0	0	0	0	0	0	0	0	0
0	0	0	0	0	0	0	0	0	0	0	0	0	0	0	0	0	0	0	0	0	0	0	0	0	0	1419	1419	1413	1413	1413	1413	1413	1413	1413	1413	1413	1413	1413	1413	1413	1413	1407	1407	1407	1407	1407	1407	1407	1407	1407	1407	1407	1407	1407	1402	1402	1232	1232	1232	1232	1232	1227	1227	1223	1223	1219	1219	1219	1214	1123	1120	1120	1123	1123	1123	1123	1123	1123	1123	1123	1123	1120	1120	1120	1120	1120	1120	1120	1113	1113	1113	1113	1113	1113	1113	1113	1113	1113	1113	1109	1109	1109	1109	1105	1105	1102	1102	1102	1102	1102	1102	1102	1102	1102	1098	1098	1098	1098	1098	1098	1098	1098	1098	1098	1098	1098	1098	1098	1095	1095	1095	1095	1091	1091	1091	1091	1091	1088	1088	1088	1088	1088	1088	1088	1088	1088	1085	1085	1085	1085	1085	1085	1085	1085	1085	1085	1085	1085	1085	1085	1085	1081	1081	1081	1078	1078	1074	1071	1071	1071	1071	1071	1071	1071	1071	1071	1071	1071	1071	1068	1068	1068	1068	1068	1068	1068	1068	1068	1068	1068	1068	1068	1064	1064	1064	1064	1064	1064	1064	1064	1061	1061	1061	1058	1058	1058	1058	1055	1055	1055	1055	1055	1055	1055	1055	1055	1055	1055	1055	1055	1052	1052	1052	1052	1048	1048	1048	1045	1045	1045	1045	1045	1045	1045	1045	1042	1042	1042	1042	1042	1042	1042	1042	1042	1039	1036	1036	1036	1036	1036	1033	1033	1033	1030	1030	1030	1030	1030	1030	1030	1030	1030	1026	1026	1026	1026	1026	1026	1026	1023	1023	1023	1023	1023	1020	1020	1020	1020	1020	1020	1017	1017	1017	1017	1017	1017	1017	1014	1014	1014	1014	1014	1014	1014	1014	1014	1014	1011	1011	1011	1008	1006	1006	1006	1006	1006	1006	1006	1006	1006	1006	1006	1006	1006	1006	1006	1006	1006	1006	1006	1006	1003	1000	1000	1000	1000	1000	1000	1000	1000	1000	1000	1000	1000	997	997	997	997	997	997	997	997	997	997	994	994	994	994	991	991	991	988	988	988	988	988	988	988	988	988	988	988	985	985	985	985	985	985	983	983	983	983	983	983	983	983	980	980	980	980	977	977	977	977	977	977	977	980	980	1202	1202	1202	1202	1202	1202	1197	1197	1197	1197	1197	1197	1193	1193	1193	1193	1193	1193	1189	1189	1189	1189	1189	1189	1189	1189	1189	1189	1189	1189	1185	1185	1185	1185	1185	1181	1181	1181	1181	1181	1181	1181	1181	1181	1181	1181	1181	1181	1177	1177	1177	1177	1177	1177	1177	1177	1177	1177	1177	1177	1177	1173	1173	1173	1173	1173	1173	1173	1173	1173	1173	1173	1173	1173	1173	1173	1169	1169	1169	1169	1169	1169	1169	1165	1165	1165	1165	1165	1165	1165	1161	1161	1165	1165	1161	1161	1161	1161	1157	1157	1157	1157	1157	1157	1157	1157	1157	1157	1157	1157	1157	1157	1157	1157	1153	1153	1157	1157	1153	1153	1153	1153	1153	1153	1153	1153	1153	1153	1150	1150	1146	1146	1146	1142	1142	1142	1142	1142	1142	1142	1146	1142	1142	1142	1142	1142	1142	1142	1142	1138	1138	1138	1138	1138	1138	1138	1138	1138	1138	1138	1138	1134	1134	1134	1131	1131	1131	1127	1123	1123	1123	1123	1123	1123	1123	1123	1123	1127	1127	1123	1123	1123	1123	1120	1120	1120	1120	1120	1120	1120	1120	1120	1120	1120	1120	1120	1120	1120	1120	1120	1120	1120	1116	1116	1116	1116	1116	1116	1113	1113	1113	1113	1113	1109	1109	1113	1113	1113	1113	1113	1113	1109	1109	1109	1109	1109	1109	1109	1109	1109	1109	0	0	0	0	0	0	0	0	0	0	0	0	0	0	0	0	0	0	0
0	0	0	0	0	0	0	0	0	0	0	0	0	0	0	0	0	0	0	0	0	0	0	0	0	0	1419	1419	1413	1413	1413	1413	1413	1413	1413	1413	1413	1413	1413	1413	1413	1413	1413	1413	1407	1407	1407	1407	1407	1407	1407	1407	1407	1407	1407	1402	1402	1236	1232	1232	1232	1232	1227	1227	1227	1223	1223	1219	1219	1219	1127	1123	1123	1123	1123	1123	1123	1123	1123	1123	1123	1123	1123	1120	1120	1120	1120	1120	1120	1116	1113	1113	1113	1113	1113	1113	1113	1113	1113	1113	1109	1109	1109	1109	1105	1105	1105	1105	1105	1102	1102	1102	1102	1102	1102	1098	1098	1102	1098	1098	1098	1098	1098	1098	1098	1098	1098	1095	1095	1095	1095	1095	1095	1095	1095	1095	1095	1091	1091	1091	1088	1088	1091	1091	1088	1088	1088	1088	1088	1088	1085	1085	1085	1085	1085	1085	1085	1085	1085	1085	1085	1085	1081	1081	1078	1078	1078	1074	1071	1071	1071	1071	1071	1071	1071	1071	1071	1071	1071	1071	1068	1068	1068	1068	1068	1068	1068	1068	1068	1068	1068	1068	1068	1068	1064	1064	1064	1064	1064	1064	1064	1061	1061	1061	1061	1061	1058	1058	1058	1058	1055	1055	1055	1055	1055	1055	1055	1055	1055	1055	1055	1052	1052	1052	1052	1048	1048	1048	1048	1048	1045	1045	1045	1045	1045	1045	1045	1045	1042	1042	1042	1042	1042	1042	1042	1039	1036	1036	1036	1036	1036	1033	1033	1033	1033	1030	1030	1030	1030	1030	1030	1030	1030	1030	1026	1026	1026	1026	1026	1026	1023	1023	1023	1023	1023	1020	1020	1020	1020	1020	1020	1017	1017	1017	1017	1017	1017	1017	1014	1014	1014	1014	1014	1014	1014	1014	1014	1014	1011	1011	1011	1011	1008	1008	1008	1008	1008	1008	1006	1006	1006	1006	1006	1006	1006	1006	1006	1006	1006	1006	1006	1006	1003	1003	1000	1000	1000	1000	1000	1003	1003	1000	1000	1000	1000	1000	1000	997	997	997	997	997	997	997	997	997	997	997	994	991	991	991	988	988	988	988	988	988	988	988	988	988	988	985	985	985	985	985	985	983	983	983	983	983	983	983	980	980	980	980	977	977	977	977	977	977	977	977	980	980	1202	1202	1202	1202	1202	1202	1197	1197	1197	1197	1197	1197	1197	1197	1193	1193	1193	1193	1193	1189	1189	1189	1189	1193	1193	1189	1189	1189	1189	1189	1185	1185	1185	1185	1185	1185	1185	1185	1185	1185	1185	1185	1181	1181	1181	1181	1181	1181	1181	1177	1177	1177	1177	1177	1177	1177	1177	1177	1177	1177	1177	1173	1173	1173	1173	1173	1173	1173	1173	1173	1173	1173	1173	1173	1173	1173	1173	1169	1169	1169	1169	1169	1169	1165	1165	1165	1165	1165	1165	1165	1165	1165	1165	1165	1161	1161	1161	1161	1161	1161	1157	1157	1157	1157	1157	1157	1157	1157	1157	1157	1157	1157	1157	1157	1157	1157	1157	1157	1153	1153	1153	1153	1153	1153	1153	1153	1153	1150	1150	1150	1150	1146	1146	1146	1146	1142	1142	1142	1142	1146	1146	1146	1146	1146	1146	1142	1142	1142	1142	1142	1138	1138	1138	1138	1138	1138	1138	1138	1138	1138	1138	1134	1134	1134	1134	1134	1131	1131	1123	1123	1123	1127	1123	1123	1127	1127	1127	1127	1127	1123	1123	1123	1123	1120	1120	1120	1120	1120	1120	1120	1120	1120	1120	1120	1120	1120	1120	1120	1120	1120	1120	1120	1120	1116	1116	1116	1116	1116	1113	1113	1113	1113	1113	1113	1113	1113	1113	1113	1116	1113	1113	1109	1109	1109	1109	1109	1109	1109	1109	1109	1109	0	0	0	0	0	0	0	0	0	0	0	0	0	0	0	0	0	0	0
0	0	0	0	0	0	0	0	0	0	0	0	0	0	0	0	0	0	0	0	0	0	0	0	0	0	1419	1419	1419	1419	1419	1413	1413	1413	1413	1413	1413	1413	1413	1413	1413	1413	1413	1413	1413	1413	1413	1407	1407	1407	1407	1407	1407	1407	1402	1402	1402	1236	1236	1232	1232	1227	1227	1227	1227	1223	1223	1219	1219	1219	1127	1123	1123	1123	1123	1123	1123	1123	1123	1123	1123	1123	1123	1123	1123	1123	1120	1120	1120	1116	1116	1116	1113	1113	1113	1113	1113	1113	1113	1113	1109	1109	1109	1109	1105	1105	1105	1105	1105	1105	1102	1102	1102	1102	1102	1102	1102	1102	1098	1098	1098	1098	1098	1098	1098	1098	1098	1095	1095	1095	1095	1095	1095	1095	1095	1095	1095	1095	1091	1091	1091	1091	1091	1091	1088	1088	1088	1088	1088	1088	1088	1088	1088	1088	1088	1085	1085	1085	1085	1085	1085	1085	1085	1081	1078	1078	1078	1074	1071	1071	1071	1071	1071	1071	1071	1071	1071	1071	1071	1071	1071	1071	1071	1068	1068	1068	1068	1068	1068	1068	1068	1068	1068	1068	1064	1064	1064	1064	1064	1064	1064	1064	1061	1061	1061	1061	1058	1058	1058	1058	1058	1058	1055	1055	1055	1055	1055	1055	1055	1055	1055	1055	1052	1052	1052	1048	1048	1048	1048	1048	1048	1045	1045	1045	1045	1045	1045	1045	1045	1045	1045	1045	1045	1042	1042	1039	1039	1036	1036	1036	1036	1033	1033	1033	1033	1030	1030	1030	1030	1030	1030	1030	1030	1030	1026	1026	1026	1026	1026	1026	1026	1023	1023	1026	1023	1023	1023	1020	1020	1020	1017	1017	1017	1017	1017	1017	1017	1017	1017	1017	1014	1014	1014	1014	1014	1014	1014	1014	1014	1014	1011	1011	1008	1008	1008	1008	1008	1008	1008	1008	1008	1008	1008	1008	1006	1006	1006	1006	1006	1006	1006	1006	1003	1003	1003	1003	1003	1003	1003	1003	1003	1000	1000	1000	1000	1000	1000	1000	997	997	997	997	997	997	997	997	997	997	994	991	991	991	988	988	988	988	988	988	988	988	988	988	988	985	985	985	985	985	985	983	983	983	983	983	980	980	980	980	980	980	977	977	977	977	977	977	977	977	980	980	1202	1202	1202	1202	1202	1202	1197	1197	1197	1197	1197	1197	1197	1197	1193	1193	1193	1193	1193	1189	1189	1189	1189	1193	1193	1193	1189	1189	1189	1189	1185	1185	1185	1185	1185	1185	1185	1185	1185	1185	1185	1185	1181	1181	1181	1185	1181	1181	1181	1181	1177	1177	1177	1177	1177	1177	1177	1177	1177	1177	1177	1173	1173	1173	1173	1173	1173	1173	1173	1173	1173	1173	1173	1173	1173	1173	1173	1173	1169	1169	1169	1169	1169	1165	1165	1165	1165	1165	1165	1165	1165	1165	1165	1165	1161	1161	1161	1161	1161	1161	1157	1157	1157	1157	1157	1157	1157	1157	1157	1157	1157	1157	1157	1157	1157	1157	1157	1157	1157	1157	1153	1153	1153	1153	1153	1153	1153	1153	1153	1153	1150	1150	1146	1146	1146	1146	1146	1146	1146	1146	1146	1146	1146	1146	1146	1142	1142	1142	1142	1142	1142	1142	1142	1142	1142	1138	1138	1138	1138	1138	1138	1134	1134	1134	1134	1134	1134	1131	1127	1127	1127	1127	1127	1127	1127	1131	1131	1127	1127	1127	1123	1123	1123	1123	1123	1123	1123	1123	1123	1120	1120	1120	1120	1120	1120	1120	1120	1120	1120	1120	1120	1120	1120	1120	1116	1116	1116	1116	1116	1113	1113	1113	1113	1113	1113	1113	1113	1116	1116	1113	1113	1113	1109	1109	1109	1109	1109	1109	1109	1109	1109	0	0	0	0	0	0	0	0	0	0	0	0	0	0	0	0	0	0	0
0	0	0	0	0	0	0	0	0	0	0	0	0	0	0	0	0	0	0	0	0	0	0	0	0	0	1419	1419	1419	1419	1419	1413	1413	1413	1413	1413	1413	1413	1413	1413	1413	1413	1413	1413	1413	1413	1413	1413	1413	1413	1407	1407	1407	1407	1402	1402	1396	1396	1236	1232	1232	1227	1227	1227	1227	1223	1223	1219	1219	1134	1127	1123	1123	1123	1123	1127	1123	1123	1123	1127	1123	1123	1123	1123	1123	1123	1120	1120	1120	1116	1116	1116	1116	1116	1113	1113	1113	1113	1113	1113	1109	1109	1109	1109	1105	1105	1105	1105	1105	1105	1102	1102	1105	1102	1102	1102	1102	1102	1102	1098	1098	1098	1098	1098	1098	1098	1098	1095	1095	1095	1098	1095	1095	1098	1098	1098	1098	1095	1095	1095	1095	1091	1091	1091	1088	1088	1088	1088	1088	1088	1088	1088	1088	1088	1085	1085	1085	1085	1085	1085	1085	1085	1085	1081	1078	1078	1078	1074	1074	1071	1071	1074	1074	1074	1074	1074	1071	1071	1071	1071	1071	1071	1071	1071	1071	1068	1068	1068	1068	1068	1068	1068	1068	1068	1068	1064	1064	1068	1064	1064	1064	1064	1061	1061	1061	1061	1058	1058	1058	1058	1058	1058	1055	1055	1055	1055	1055	1055	1055	1055	1055	1055	1052	1052	1052	1052	1048	1048	1048	1048	1048	1048	1048	1045	1045	1045	1045	1045	1045	1045	1045	1045	1045	1042	1042	1039	1039	1036	1036	1036	1036	1033	1033	1033	1033	1030	1030	1030	1030	1030	1030	1030	1030	1030	1030	1030	1030	1026	1026	1026	1026	1026	1026	1026	1026	1023	1023	1020	1020	1020	1017	1017	1017	1017	1017	1017	1017	1017	1017	1017	1017	1017	1017	1017	1017	1017	1017	1017	1014	1014	1014	1011	1011	1011	1008	1008	1008	1008	1008	1008	1008	1008	1008	1008	1008	1008	1008	1008	1006	1006	1006	1006	1003	1003	1003	1003	1003	1003	1003	1003	1003	1003	1000	1000	1000	1000	1000	1000	1000	997	997	997	997	997	997	997	997	997	997	994	991	991	991	991	991	991	991	991	991	988	988	988	988	988	988	985	985	985	985	985	985	983	983	983	980	980	980	980	980	980	977	977	977	977	977	977	977	980	980	983	983	1206	1206	1206	1202	1202	1202	1202	1202	1202	1197	1197	1197	1197	1193	1193	1193	1193	1193	1193	1189	1189	1189	1193	1193	1193	1189	1189	1189	1189	1189	1185	1185	1185	1185	1185	1185	1185	1185	1185	1185	1185	1185	1185	1185	1185	1181	1181	1181	1181	1177	1177	1177	1177	1177	1177	1177	1177	1177	1177	1177	1173	1173	1173	1173	1173	1173	1173	1173	1173	1173	1173	1173	1173	1173	1173	1173	1173	1173	1173	1169	1169	1169	1165	1165	1165	1165	1165	1165	1165	1165	1165	1165	1165	1165	1161	1161	1161	1161	1161	1161	1161	1161	1161	1161	1161	1157	1157	1157	1157	1157	1157	1157	1157	1157	1157	1157	1157	1157	1157	1157	1153	1153	1153	1153	1153	1153	1153	1153	1153	1153	1150	1150	1150	1150	1146	1146	1146	1146	1146	1146	1146	1146	1146	1146	1142	1142	1142	1142	1142	1142	1142	1142	1142	1142	1142	1142	1138	1138	1138	1138	1134	1134	1134	1134	1134	1134	1131	1131	1131	1131	1131	1127	1127	1127	1131	1131	1127	1127	1127	1123	1123	1123	1123	1123	1123	1123	1123	1123	1123	1123	1123	1120	1120	1120	1120	1120	1120	1120	1120	1120	1120	1120	1120	1120	1120	1116	1116	1116	1116	1113	1113	1116	1113	1113	1116	1116	1113	1113	1113	1113	1113	1113	1113	1113	1113	1113	1113	1113	1113	1113	0	0	0	0	0	0	0	0	0	0	0	0	0	0	0	0	0	0	0
0	0	0	0	0	0	0	0	0	0	0	0	0	0	0	0	0	0	0	0	0	0	0	0	0	0	1425	1419	1419	1419	1419	1419	1419	1419	1419	1419	1419	1413	1413	1413	1413	1413	1413	1413	1413	1413	1413	1413	1413	1413	1407	1407	1407	1407	1407	1402	1396	1396	1236	1232	1232	1227	1227	1227	1227	1223	1223	1219	1219	1134	1127	1123	1123	1127	1127	1127	1123	1123	1123	1127	1123	1123	1123	1123	1123	1123	1123	1120	1120	1116	1116	1116	1116	1116	1113	1113	1113	1113	1113	1113	1113	1109	1109	1109	1105	1105	1105	1105	1105	1105	1102	1102	1105	1102	1102	1102	1102	1102	1102	1102	1098	1098	1098	1098	1098	1098	1098	1095	1095	1095	1098	1098	1098	1098	1098	1098	1098	1095	1095	1095	1095	1091	1091	1091	1088	1088	1088	1088	1088	1088	1088	1088	1088	1088	1085	1085	1085	1085	1085	1085	1085	1085	1085	1081	1081	1078	1078	1074	1074	1074	1074	1074	1074	1074	1074	1074	1074	1074	1071	1071	1071	1071	1071	1071	1071	1068	1068	1068	1068	1068	1068	1068	1068	1068	1068	1068	1068	1068	1068	1064	1064	1064	1064	1064	1061	1061	1058	1058	1058	1058	1058	1058	1058	1058	1055	1055	1055	1055	1055	1055	1055	1055	1052	1052	1052	1052	1052	1052	1048	1048	1048	1048	1048	1048	1045	1045	1045	1045	1045	1045	1045	1045	1045	1042	1042	1039	1039	1036	1036	1036	1036	1033	1033	1033	1033	1033	1033	1030	1030	1030	1030	1030	1030	1030	1030	1030	1030	1026	1026	1026	1026	1026	1026	1026	1026	1023	1023	1023	1020	1020	1020	1020	1020	1020	1017	1017	1017	1017	1017	1017	1017	1017	1017	1017	1017	1017	1017	1017	1014	1014	1014	1014	1011	1011	1011	1011	1011	1011	1011	1011	1011	1011	1011	1011	1008	1008	1008	1008	1006	1006	1006	1006	1003	1003	1003	1003	1003	1003	1003	1003	1003	1003	1000	1000	1000	1000	1000	1000	1000	1000	1000	997	997	997	997	997	997	997	997	994	994	991	991	991	991	991	991	991	991	988	988	988	988	988	988	985	985	985	985	985	985	983	983	983	980	980	980	980	980	980	977	977	977	977	977	980	980	980	983	983	983	1206	1206	1202	1202	1202	1202	1202	1202	1202	1197	1197	1197	1197	1193	1193	1193	1193	1193	1193	1189	1189	1189	1193	1193	1193	1189	1189	1189	1189	1189	1189	1189	1189	1189	1189	1189	1189	1185	1185	1185	1185	1185	1185	1185	1185	1185	1181	1181	1181	1177	1177	1177	1177	1177	1177	1177	1177	1177	1177	1177	1177	1173	1173	1173	1173	1173	1173	1173	1173	1173	1173	1173	1173	1173	1173	1173	1173	1173	1173	1173	1173	1173	1169	1169	1169	1165	1165	1165	1165	1165	1165	1165	1165	1165	1165	1161	1161	1161	1161	1161	1161	1161	1161	1161	1161	1161	1157	1157	1157	1157	1157	1157	1157	1157	1157	1157	1157	1157	1157	1157	1153	1153	1153	1153	1153	1153	1153	1153	1153	1153	1150	1150	1150	1150	1146	1146	1146	1146	1146	1146	1146	1146	1146	1146	1142	1142	1142	1142	1142	1142	1142	1142	1142	1142	1142	1142	1138	1138	1138	1138	1134	1134	1134	1134	1134	1134	1134	1131	1131	1131	1131	1131	1131	1131	1131	1131	1131	1127	1127	1127	1127	1123	1123	1123	1123	1123	1123	1123	1123	1123	1123	1120	1120	1120	1120	1120	1120	1120	1120	1120	1120	1120	1120	1120	1120	1120	1116	1116	1116	1116	1116	1116	1113	1113	1116	1116	1113	1113	1113	1113	1113	1113	1113	1116	1116	1113	1113	1113	1113	1113	0	0	0	0	0	0	0	0	0	0	0	0	0	0	0	0	0	0	0
0	0	0	0	0	0	0	0	0	0	0	0	0	0	0	0	0	0	0	0	0	0	0	0	0	0	1425	1425	1425	1425	1425	1419	1419	1419	1419	1419	1419	1413	1413	1413	1413	1413	1413	1413	1413	1413	1413	1413	1413	1413	1407	1407	1407	1407	1407	1407	1402	1402	1236	1232	1232	1227	1227	1227	1227	1223	1223	1219	1219	1219	1123	1123	1127	1127	1127	1127	1127	1127	1127	1127	1127	1127	1127	1123	1123	1123	1123	1123	1123	1116	1116	1116	1116	1116	1113	1113	1113	1113	1113	1113	1113	1113	1113	1109	1105	1105	1105	1105	1105	1105	1102	1102	1105	1105	1105	1102	1102	1102	1102	1102	1102	1102	1098	1098	1098	1098	1098	1098	1098	1098	1098	1098	1098	1098	1098	1098	1098	1098	1095	1095	1095	1095	1091	1091	1088	1088	1088	1088	1088	1088	1088	1088	1088	1088	1085	1085	1085	1085	1085	1085	1085	1085	1085	1081	1081	1081	1081	1078	1074	1074	1074	1074	1074	1074	1074	1074	1074	1074	1074	1071	1071	1071	1071	1071	1071	1071	1071	1071	1071	1068	1068	1068	1068	1068	1068	1068	1068	1068	1068	1064	1064	1064	1064	1064	1061	1061	1061	1058	1058	1058	1058	1058	1058	1058	1055	1055	1055	1055	1055	1055	1055	1055	1055	1055	1052	1052	1052	1052	1048	1048	1048	1048	1048	1048	1048	1045	1045	1045	1045	1045	1045	1045	1045	1045	1045	1039	1039	1039	1039	1036	1036	1036	1033	1033	1036	1033	1033	1030	1030	1030	1030	1030	1030	1030	1030	1030	1030	1030	1026	1026	1026	1026	1026	1026	1026	1026	1026	1023	1023	1023	1020	1020	1020	1020	1017	1017	1017	1017	1017	1017	1017	1017	1017	1017	1017	1017	1017	1017	1014	1014	1014	1014	1014	1014	1014	1014	1014	1014	1014	1014	1011	1011	1011	1011	1008	1008	1008	1008	1006	1006	1006	1006	1003	1003	1003	1003	1003	1003	1003	1003	1003	1003	1003	1000	1000	1000	1000	1000	1000	1000	1000	1000	1000	1000	1000	997	997	1000	997	994	994	991	991	991	991	991	991	991	991	991	988	988	988	988	988	988	985	985	985	985	985	983	983	983	983	983	980	980	980	980	977	977	977	980	980	980	980	983	983	983	0	1206	1206	1202	1202	1202	1202	1202	1202	1202	1202	1202	1197	1197	1197	1193	1193	1193	1193	1193	1193	1193	1189	1193	1193	1193	1193	1189	1189	1189	1189	1189	1189	1189	1189	1189	1189	1189	1189	1185	1185	1185	1185	1185	1185	1185	1185	1181	1181	1181	1181	1177	1177	1177	1177	1177	1177	1177	1177	1177	1177	1177	1177	1177	1177	1177	1177	1177	1177	1177	1173	1173	1173	1173	1173	1173	1173	1173	1173	1173	1173	1173	1173	1169	1169	1169	1169	1165	1165	1169	1165	1165	1165	1165	1165	1165	1165	1165	1161	1161	1161	1161	1161	1161	1161	1161	1161	1157	1157	1157	1157	1157	1157	1157	1157	1157	1157	1157	1157	1157	1157	1157	1153	1153	1153	1153	1153	1153	1153	1153	1153	1153	1150	1150	1150	1150	1150	1150	1150	1146	1146	1146	1146	1146	1146	1142	1142	1142	1142	1142	1142	1142	1142	1142	1142	1142	1142	1138	1138	1138	1138	1134	1134	1134	1134	1134	1134	1134	1134	1131	1131	1134	1131	1131	1131	1131	1131	1131	1127	1127	1127	1127	1123	1123	1123	1123	1123	1123	1123	1123	1123	1123	1120	1120	1120	1120	1120	1120	1120	1120	1120	1120	1120	1120	1120	1120	1120	1120	1120	1116	1116	1116	1116	1113	1113	1116	1116	1116	1116	1113	1113	1113	1113	1113	1116	1116	1116	1116	1116	1116	1116	0	0	0	0	0	0	0	0	0	0	0	0	0	0	0	0	0	0	0
0	0	0	0	0	0	0	0	0	0	0	0	0	0	0	0	0	0	0	0	0	0	0	0	0	0	1425	1425	1425	1425	1425	1425	1419	1419	1419	1419	1419	1419	1419	1413	1413	1413	1413	1413	1413	1413	1413	1413	1413	1413	1407	1407	1407	1407	1407	1407	1407	1402	1236	1232	1232	1227	1227	1227	1227	1223	1223	1219	1219	1219	1123	1123	1127	1127	1127	1127	1127	1127	1127	1127	1127	1127	1127	1127	1123	1123	1123	1123	1123	1116	1116	1116	1116	1116	1116	1116	1116	1116	1113	1113	1113	1113	1113	1113	1109	1109	1109	1109	1109	1105	1105	1105	1109	1105	1105	1105	1102	1102	1102	1102	1102	1102	1102	1102	1102	1098	1098	1098	1098	1098	1098	1098	1098	1098	1098	1098	1098	1098	1095	1095	1095	1095	1095	1091	1091	1091	1091	1091	1091	1091	1088	1088	1088	1088	1085	1085	1085	1085	1085	1085	1085	1085	1085	1081	1081	1081	1081	1078	1078	1078	1078	1078	1078	1078	1074	1074	1074	1074	1074	1074	1071	1071	1074	1071	1071	1071	1071	1071	1071	1071	1068	1068	1068	1068	1068	1068	1068	1068	1068	1064	1064	1064	1064	1064	1061	1061	1061	1061	1061	1058	1058	1058	1058	1058	1055	1055	1055	1055	1055	1055	1055	1055	1055	1055	1055	1055	1052	1052	1052	1052	1052	1052	1048	1048	1048	1045	1045	1045	1045	1045	1045	1045	1045	1045	1045	1042	1039	1039	1039	1036	1036	1036	1033	1033	1036	1033	1033	1033	1030	1030	1030	1030	1030	1030	1030	1030	1030	1030	1026	1026	1026	1026	1026	1026	1026	1026	1026	1023	1023	1023	1020	1020	1020	1020	1017	1017	1017	1017	1017	1017	1017	1017	1017	1017	1017	1017	1017	1017	1014	1014	1014	1014	1014	1014	1014	1014	1014	1014	1014	1014	1011	1011	1011	1011	1011	1008	1008	1008	1008	1006	1006	1006	1003	1003	1003	1003	1003	1003	1003	1003	1003	1003	1003	1003	1003	1003	1000	1000	1000	1000	1000	1000	997	997	1000	997	997	1000	997	994	994	994	991	991	991	991	991	991	991	991	991	988	988	988	988	988	985	985	985	985	985	983	983	983	983	983	983	980	980	980	980	980	980	980	980	980	983	983	983	983	0	1206	1206	1202	1202	1202	1202	1202	1202	1202	1202	1202	1197	1197	1197	1193	1193	1193	1193	1193	1193	1193	1193	1193	1193	1193	1193	1189	1189	1189	1189	1189	1189	1189	1189	1189	1189	1189	1189	1185	1185	1185	1185	1185	1185	1185	1185	1185	1185	1181	1181	1177	1177	1177	1181	1177	1177	1177	1177	1177	1177	1177	1177	1177	1177	1177	1177	1177	1177	1177	1173	1173	1173	1173	1173	1173	1173	1173	1173	1173	1173	1173	1173	1169	1169	1169	1169	1169	1169	1169	1169	1169	1169	1165	1165	1165	1165	1165	1161	1161	1165	1165	1161	1161	1161	1161	1161	1161	1161	1157	1157	1157	1157	1157	1157	1157	1157	1157	1157	1157	1157	1153	1153	1153	1153	1153	1153	1153	1153	1153	1153	1153	1153	1153	1153	1150	1150	1150	1150	1150	1150	1146	1146	1146	1146	1142	1142	1142	1142	1142	1142	1142	1142	1142	1142	1142	1142	1142	1142	1138	1138	1134	1134	1134	1134	1134	1134	1134	1134	1134	1134	1134	1134	1131	1131	1134	1134	1131	1131	1131	1127	1127	1123	1123	1127	1127	1127	1127	1123	1123	1123	1123	1120	1120	1120	1120	1120	1120	1120	1120	1120	1120	1120	1120	1120	1120	1120	1120	1120	1116	1116	1116	1116	1116	1116	1116	1116	1116	1116	1113	1113	1113	1113	1116	1116	1116	1116	1116	1116	1116	1116	0	0	0	0	0	0	0	0	0	0	0	0	0	0	0	0	0	0	0
0	0	0	0	0	0	0	0	0	0	0	0	0	0	0	0	0	0	0	0	0	0	0	0	0	0	1425	1425	1425	1425	1425	1425	1419	1419	1419	1419	1419	1419	1419	1413	1413	1413	1413	1413	1413	1413	1413	1413	1413	1413	1413	1413	1413	1413	1407	1407	1407	0	1236	1232	1232	1232	1232	1227	1227	1223	1223	1219	1219	1219	1123	1123	1127	1127	1131	1131	1127	1127	1127	1131	1127	1127	1127	1127	1127	1127	1123	1123	1123	1116	1116	1116	1116	1116	1116	1116	1116	1116	1116	1113	1113	1113	1113	1113	1113	1109	1109	1109	1109	1109	1105	1105	1109	1105	1105	1105	1102	1102	1102	1102	1102	1102	1102	1102	1102	1098	1098	1098	1098	1098	1098	1098	1098	1098	1098	1098	1098	1098	1098	1098	1098	1095	1095	1095	1091	1091	1091	1091	1091	1091	1091	1088	1088	1088	1088	1088	1088	1088	1088	1088	1085	1085	1085	1085	1085	1085	1081	1081	1078	1078	1078	1078	1078	1078	1078	1074	1074	1074	1074	1074	1074	1074	1074	1074	1074	1071	1071	1071	1071	1071	1071	1071	1068	1068	1068	1068	1068	1068	1068	1064	1064	1064	1064	1064	1064	1064	1061	1061	1061	1058	1058	1058	1058	1058	1055	1055	1055	1055	1055	1055	1055	1055	1055	1055	1055	1055	1055	1055	1052	1052	1052	1052	1052	1048	1048	1048	1048	1045	1045	1045	1045	1045	1045	1045	1045	1042	1039	1039	1039	1036	1036	1036	1036	1036	1036	1033	1033	1033	1030	1030	1030	1030	1030	1030	1030	1030	1030	1030	1030	1030	1030	1026	1026	1026	1026	1026	1026	1026	1023	1023	1020	1020	1020	1020	1017	1017	1017	1017	1017	1017	1017	1017	1017	1017	1017	1017	1017	1017	1017	1014	1014	1014	1014	1014	1014	1014	1014	1014	1014	1014	1014	1011	1011	1011	1011	1008	1008	1008	1008	1006	1006	1008	1003	1003	1003	1003	1003	1003	1003	1003	1003	1003	1003	1003	1003	1003	1000	1000	1000	1000	1000	1000	997	997	1000	1000	1000	1000	997	997	997	994	994	994	991	991	991	991	991	991	991	991	988	988	988	988	988	988	988	985	985	985	985	985	983	983	983	983	980	980	980	980	980	980	980	980	983	983	983	983	0	0	1206	1206	1206	1206	1202	1202	1202	1202	1202	1202	1197	1197	1197	1193	1193	1193	1193	1193	1193	1193	1193	1193	1193	1193	1193	1193	1189	1189	1189	1189	1189	1189	1189	1189	1189	1189	1189	1185	1185	1185	1185	1185	1185	1185	1185	1185	1185	1185	1181	1181	1181	1181	1181	1181	1181	1177	1177	1181	1177	1177	1177	1177	1177	1177	1177	1177	1177	1177	1177	1173	1173	1173	1173	1173	1173	1173	1173	1173	1173	1173	1173	1169	1169	1169	1169	1169	1169	1169	1169	1169	1169	1165	1165	1165	1165	1165	1165	1165	1165	1165	1161	1161	1161	1161	1161	1161	1161	1157	1157	1161	1157	1157	1157	1157	1157	1157	1157	1157	1157	1153	1153	1153	1153	1153	1153	1153	1153	1153	1153	1153	1153	1153	1153	1153	1153	1150	1150	1150	1150	1146	1146	1146	1146	1146	1146	1142	1142	1146	1146	1142	1142	1142	1142	1142	1142	1142	1142	1142	1142	1134	1134	1134	1134	1134	1134	1134	1134	1134	1134	1134	1134	1134	1134	1134	1134	1134	1134	1131	1127	1127	1127	1127	1127	1127	1127	1127	1127	1127	1123	1123	1123	1123	1123	1120	1120	1120	1120	1120	1120	1120	1120	1120	1120	1120	1120	1120	1120	1120	1116	1116	1116	1116	1116	1116	1116	1116	1116	1113	1113	1113	1113	1116	1116	1120	1120	1120	1120	1120	1120	0	0	0	0	0	0	0	0	0	0	0	0	0	0	0	0	0	0	0
0	0	0	0	0	0	0	0	0	0	0	0	0	0	0	0	0	0	0	0	0	0	0	0	0	0	1425	1425	1425	1425	1425	1425	1419	1419	1419	1419	1419	1419	1419	1413	1413	1413	1413	1413	1413	1413	1413	1413	1413	1413	1413	1413	1413	1413	1407	1407	1407	0	1236	1236	1232	1232	1232	1227	1227	1227	1223	1219	1219	1214	1214	1127	1127	1127	1127	1127	1131	1131	1131	1131	1131	1131	1127	1127	1127	1127	1123	1123	1123	1116	1116	1116	1116	1116	1116	1116	1116	1116	1116	1116	1113	1113	1116	1113	1113	1113	1113	1113	1109	1109	1105	1109	1109	1105	1105	1105	1102	1102	1102	1102	1102	1102	1102	1102	1102	1102	1098	1098	1098	1098	1098	1098	1098	1098	1098	1098	1098	1098	1098	1098	1098	1095	1095	1095	1095	1091	1091	1088	1088	1088	1088	1088	1088	1088	1088	1088	1088	1088	1088	1088	1085	1085	1085	1085	1085	1085	1085	1081	1081	1078	1078	1078	1078	1078	1078	1074	1074	1074	1078	1078	1074	1074	1078	1074	1074	1071	1071	1071	1071	1071	1071	1071	1071	1068	1068	1068	1068	1068	1068	1068	1068	1064	1064	1064	1064	1064	1064	1061	1061	1058	1058	1058	1058	1058	1058	1058	1055	1055	1055	1055	1055	1055	1055	1055	1055	1055	1055	1055	1055	1055	1055	1052	1052	1052	1048	1048	1048	1045	1045	1048	1045	1045	1045	1045	1045	1042	1039	1039	1039	1039	1039	1036	1036	1036	1036	1033	1033	1033	1030	1030	1030	1030	1030	1030	1030	1030	1030	1030	1030	1030	1030	1026	1026	1026	1026	1026	1026	1026	1023	1023	1023	1020	1020	1020	1020	1020	1020	1017	1017	1017	1017	1017	1017	1017	1017	1017	1017	1017	1017	1014	1014	1014	1014	1014	1014	1014	1014	1014	1014	1014	1014	1014	1011	1011	1011	1011	1008	1008	1008	1008	1008	1008	1006	1006	1006	1006	1003	1003	1003	1003	1003	1003	1003	1003	1003	1003	1000	1000	1000	1000	1000	1000	1000	1000	1000	1000	1000	1000	997	997	997	997	994	994	994	994	991	991	991	991	991	991	991	991	988	988	988	988	988	988	988	985	985	985	983	983	983	983	983	983	980	980	980	980	980	980	983	983	985	985	0	0	1206	1206	1206	1206	1202	1202	1202	1202	1202	1202	1202	1197	1197	1197	1197	1197	1197	1197	1193	1193	1193	1193	1193	1193	1193	1193	1189	1189	1189	1189	1189	1189	1189	1189	1189	1189	1189	1185	1185	1185	1185	1185	1189	1189	1185	1185	1185	1185	1181	1181	1181	1181	1181	1181	1181	1181	1181	1181	1177	1177	1177	1177	1177	1177	1177	1177	1177	1177	1177	1177	1177	1173	1173	1173	1173	1173	1173	1173	1173	1173	1173	1169	1169	1169	1169	1169	1169	1169	1169	1169	1169	1165	1165	1165	1165	1165	1165	1165	1165	1165	1165	1161	1161	1161	1161	1161	1161	1157	1157	1161	1157	1157	1157	1157	1157	1157	1157	1157	1157	1157	1153	1153	1153	1153	1153	1153	1153	1153	1153	1153	1153	1153	1153	1153	1153	1153	1150	1150	1150	1150	1146	1146	1146	1146	1146	1146	1146	1146	1146	1146	1142	1142	1142	1142	1142	1142	1142	1142	1142	1138	1134	1134	1134	1134	1134	1134	1134	1134	1134	1134	1134	1134	1134	1134	1134	1134	1134	1131	1131	1131	1127	1127	1131	1131	1127	1127	1127	1127	1123	1123	1123	1123	1123	1123	1123	1120	1120	1120	1120	1120	1120	1120	1120	1120	1120	1120	1120	1120	1120	1120	1120	1116	1116	1116	1116	1113	1113	1116	1116	1113	1113	1116	1120	1116	1116	1116	1116	1120	1120	0	0	0	0	0	0	0	0	0	0	0	0	0	0	0	0	0	0	0
0	0	0	0	0	0	0	0	0	0	0	0	0	0	0	0	0	0	0	0	0	0	0	0	0	0	1425	1425	1425	1425	1425	1425	1425	1425	1425	1419	1419	1419	1419	1419	1419	1413	1413	1413	1413	1413	1413	1413	1413	1413	1413	1413	1413	1413	1407	1407	1407	0	1236	1232	1232	1232	1232	1232	1227	1227	1227	1223	1223	1219	1219	1219	1127	1127	1127	1131	1131	1131	1131	1131	1131	1131	1131	1127	1127	1127	1123	1123	1123	1116	1116	1116	1116	1116	1116	1116	1116	1116	1116	1116	1116	1116	1116	1116	1113	1113	1113	1113	1113	1113	1109	1109	1109	1109	1105	1105	1102	1102	1102	1102	1102	1102	1102	1102	1102	1102	1102	1102	1102	1098	1098	1098	1098	1098	1098	1098	1098	1098	1098	1098	1098	1098	1095	1095	1095	1091	1091	1088	1088	1088	1091	1088	1088	1088	1088	1088	1088	1088	1088	1088	1088	1088	1085	1085	1085	1085	1085	1081	1081	1081	1081	1081	1081	1081	1081	1078	1078	1078	1078	1078	1078	1078	1078	1078	1078	1074	1074	1074	1074	1074	1071	1071	1071	1068	1068	1068	1068	1068	1068	1068	1068	1068	1068	1068	1068	1068	1064	1064	1064	1061	1061	1058	1058	1058	1058	1058	1058	1058	1055	1055	1055	1055	1055	1055	1055	1055	1055	1055	1055	1055	1055	1055	1052	1052	1052	1048	1048	1048	1048	1048	1048	1045	1045	1045	1045	1042	1039	1039	1039	1039	1039	1036	1036	1036	1036	1036	1036	1036	1033	1033	1033	1033	1033	1033	1030	1030	1030	1030	1030	1030	1030	1030	1030	1026	1026	1026	1026	1026	1026	1026	1026	1023	1023	1020	1020	1020	1020	1020	1020	1020	1017	1017	1017	1017	1017	1017	1017	1017	1017	1017	1017	1017	1017	1017	1014	1014	1014	1014	1014	1014	1014	1014	1014	1011	1011	1011	1011	1011	1011	1011	1011	1011	1008	1008	1006	1006	1003	1003	1003	1003	1003	1003	1003	1003	1003	1003	1003	1003	1003	1000	1000	1000	1000	1000	1000	1000	1000	1000	997	997	997	997	997	997	997	994	994	994	991	991	991	991	991	991	991	991	988	988	988	988	988	988	985	985	985	985	985	985	985	985	980	980	980	983	980	980	983	983	985	985	985	0	1206	1202	1202	1202	1202	1202	1202	1202	1202	1202	1202	1197	1197	1197	1197	1197	1197	1197	1193	1193	1193	1193	1193	1193	1193	1193	1193	1193	1193	1193	1189	1189	1189	1189	1189	1189	1189	1185	1185	1185	1185	1185	1189	1189	1185	1185	1185	1185	1181	1181	1181	1181	1181	1181	1181	1181	1181	1181	1177	1177	1177	1177	1177	1177	1177	1177	1177	1177	1177	1177	1177	1177	1177	1177	1177	1177	1173	1173	1173	1173	1173	1169	1169	1169	1169	1169	1169	1169	1169	1169	1169	1165	1165	1165	1165	1165	1165	1165	1165	1165	1165	1165	1165	1161	1161	1161	1161	1157	1157	1161	1161	1161	1161	1161	1161	1157	1157	1157	1157	1157	1157	1157	1157	1157	1157	1157	1153	1153	1153	1153	1153	1153	1153	1153	1153	1153	1150	1150	1150	1150	1146	1146	1146	1146	1146	1146	1146	1146	1146	1146	1146	1146	1142	1142	1142	1142	1142	1142	1142	1138	1138	1138	1134	1134	1134	1134	1134	1134	1134	1134	1134	1134	1134	1134	1134	1131	1131	1131	1131	1131	1131	1131	1131	1131	1131	1131	1131	1127	1127	1123	1123	1123	1123	1123	1123	1123	1123	1120	1120	1120	1120	1120	1120	1120	1120	1123	1123	1120	1120	1120	1120	1120	1116	1116	1116	1113	1113	1116	1116	1113	1113	1116	1120	1116	1116	1116	1116	1116	1116	0	0	0	0	0	0	0	0	0	0	0	0	0	0	0	0	0	0	0
0	0	0	0	0	0	0	0	0	0	0	0	0	0	0	0	0	0	0	0	0	0	0	0	0	0	1431	1431	1425	1425	1425	1425	1425	1425	1425	1419	1419	1419	1419	1419	1419	1413	1413	1419	1413	1413	1413	1413	1413	1413	1413	1413	1413	1413	1413	1413	1413	0	1236	1232	1232	1232	1232	1232	1227	1227	1227	1227	1223	1223	1223	1223	1127	1127	1127	1131	1131	1131	1131	1131	1131	1131	1131	1131	1127	1127	1127	1123	1123	1120	1116	1116	1120	1120	1116	1116	1116	1116	1116	1116	1116	1116	1116	1116	1116	1113	1113	1113	1113	1113	1113	1113	1109	1109	1109	1105	1105	1105	1105	1102	1102	1102	1102	1102	1102	1102	1102	1102	1102	1102	1102	1098	1098	1098	1098	1098	1098	1098	1098	1098	1098	1098	1098	1098	1095	1095	1091	1088	1088	1088	1091	1088	1088	1088	1088	1088	1091	1088	1088	1088	1088	1088	1088	1088	1088	1088	1085	1081	1081	1081	1081	1081	1081	1081	1081	1081	1081	1081	1081	1078	1078	1078	1078	1078	1078	1074	1074	1074	1074	1074	1071	1071	1071	1068	1068	1068	1068	1068	1068	1068	1068	1068	1068	1068	1068	1068	1064	1064	1064	1061	1061	1061	1061	1061	1058	1058	1058	1058	1058	1058	1058	1058	1058	1058	1058	1055	1055	1055	1055	1055	1055	1055	1052	1052	1052	1048	1048	1048	1048	1048	1048	1045	1045	1045	1045	1042	1039	1039	1039	1039	1039	1039	1039	1036	1036	1036	1036	1036	1036	1036	1033	1033	1033	1033	1033	1033	1033	1030	1030	1030	1030	1030	1030	1030	1030	1026	1026	1026	1026	1026	1026	1023	1023	1023	1020	1020	1020	1020	1020	1020	1020	1017	1017	1017	1017	1017	1017	1017	1017	1017	1017	1017	1017	1017	1017	1017	1017	1014	1014	1014	1014	1014	1014	1014	1014	1014	1014	1014	1014	1014	1014	1014	1008	1008	1006	1006	1003	1003	1003	1003	1003	1003	1003	1003	1003	1003	1003	1003	1003	1000	1000	1000	1000	1000	1000	1000	1000	1000	997	997	997	997	997	997	997	997	994	994	994	991	991	991	991	991	991	991	991	988	988	988	988	988	988	988	988	985	985	985	985	985	983	983	983	983	983	985	983	983	983	983	983	0	1206	1206	1206	1206	1202	1202	1206	1202	1206	1202	1202	1202	1202	1202	1202	1202	1202	1202	1197	1197	1197	1197	1193	1193	1193	1193	1193	1193	1193	1193	1193	1193	1189	1189	1189	1189	1189	1189	1189	1189	1189	1189	1189	1189	1189	1185	1185	1185	1185	1185	1181	1181	1185	1185	1181	1181	1181	1181	1181	1181	1181	1181	1181	1177	1177	1177	1177	1177	1177	1177	1177	1177	1177	1177	1177	1177	1177	1173	1173	1173	1173	1169	1169	1169	1169	1169	1169	1169	1169	1169	1169	1169	1169	1169	1165	1165	1165	1165	1165	1165	1165	1165	1165	1161	1161	1161	1161	1161	1161	1161	1161	1161	1161	1161	1161	1157	1157	1157	1157	1157	1157	1157	1157	1157	1157	1157	1153	1153	1153	1153	1153	1153	1153	1153	1153	1153	1150	1150	1150	1150	1146	1146	1146	1146	1146	1146	1146	1146	1146	1146	1146	1146	1146	1146	1146	1142	1142	1142	1142	1138	1138	1138	1138	1138	1134	1134	1134	1134	1134	1134	1134	1134	1134	1134	1134	1131	1131	1131	1131	1131	1131	1131	1131	1131	1131	1131	1131	1131	1127	1123	1123	1123	1123	1123	1123	1123	1123	1120	1120	1120	1120	1120	1120	1120	1123	1123	1123	1123	1123	1123	1120	1120	1120	1120	1120	1116	1116	1116	1120	1116	1116	1116	1120	1116	1116	1116	1116	1116	1116	0	0	0	0	0	0	0	0	0	0	0	0	0	0	0	0	0	0	0
0	0	0	0	0	0	0	0	0	0	0	0	0	0	0	0	0	0	0	0	0	0	0	0	0	0	1431	1431	1431	1431	1425	1425	1425	1425	1425	1425	1425	1425	1425	1419	1419	1419	1419	1419	1413	1413	1413	1413	1413	1413	1413	1413	1413	1413	1407	1407	1407	0	1236	1236	1232	1232	1232	1232	1227	1227	1227	1227	1223	1223	1223	1223	1131	1131	1131	1131	1131	1131	1131	1131	1131	1131	1131	1131	1131	1131	1127	1127	1127	1120	1120	1120	1120	1120	1116	1116	1116	1116	1116	1116	1116	1116	1116	1116	1116	1113	1113	1113	1113	1113	1113	1113	1113	1109	1109	1109	1105	1105	1105	1105	1102	1102	1102	1102	1102	1102	1102	1102	1102	1102	1102	1102	1098	1098	1098	1098	1098	1098	1098	1098	1098	1098	1098	1098	1095	1095	1091	1091	1091	1091	1091	1091	1091	1091	1088	1088	1091	1088	1088	1088	1088	1088	1088	1088	1088	1088	1088	1085	1085	1081	1081	1081	1081	1081	1081	1081	1081	1081	1081	1081	1078	1078	1078	1078	1078	1078	1074	1074	1074	1074	1071	1071	1071	1071	1071	1068	1068	1068	1068	1068	1068	1068	1068	1068	1068	1068	1068	1064	1064	1064	1064	1064	1061	1061	1061	1058	1058	1058	1058	1058	1058	1058	1058	1058	1058	1058	1055	1055	1055	1055	1055	1055	1052	1052	1052	1052	1048	1048	1048	1048	1048	1048	1045	1045	1045	1042	1042	1039	1039	1039	1039	1039	1039	1039	1036	1036	1036	1036	1036	1036	1036	1033	1036	1036	1033	1033	1033	1033	1030	1030	1030	1030	1030	1030	1030	1026	1026	1026	1026	1026	1026	1026	1026	1023	1023	1023	1023	1023	1023	1023	1020	1020	1017	1017	1020	1020	1017	1017	1020	1020	1017	1017	1017	1017	1017	1017	1017	1017	1017	1014	1014	1014	1014	1014	1014	1014	1014	1014	1014	1014	1014	1014	1008	1008	1008	1006	1006	1006	1006	1006	1003	1003	1003	1003	1003	1003	1003	1003	1003	1003	1000	1000	1000	1000	1000	1000	1000	1000	1000	997	997	997	997	997	997	997	994	994	994	994	994	994	991	991	991	991	991	991	991	991	991	988	988	988	988	988	988	985	985	985	985	983	983	983	983	985	983	983	983	983	983	0	1206	1206	1206	1206	1206	1206	1206	1206	1206	1206	1206	1202	1202	1202	1202	1202	1202	1202	1202	1202	1197	1197	1193	1193	1193	1193	1193	1193	1193	1193	1193	1193	1189	1189	1189	1189	1189	1189	1189	1189	1189	1189	1189	1189	1189	1185	1185	1185	1185	1185	1185	1185	1185	1185	1185	1185	1185	1185	1181	1181	1181	1181	1181	1181	1181	1177	1177	1181	1181	1177	1177	1177	1177	1177	1177	1177	1177	1177	1177	1177	1177	1173	1173	1173	1173	1169	1169	1169	1169	1169	1169	1169	1169	1169	1165	1165	1165	1169	1165	1165	1165	1165	1165	1165	1165	1161	1161	1161	1161	1161	1161	1161	1161	1161	1161	1157	1157	1157	1157	1157	1157	1157	1157	1157	1157	1157	1153	1153	1153	1153	1153	1153	1153	1153	1153	1153	1153	1150	1150	1150	1150	1146	1146	1146	1146	1146	1146	1146	1146	1146	1146	1146	1146	1146	1146	1142	1142	1142	1142	1138	1138	1138	1138	1138	1138	1134	1134	1134	1134	1134	1134	1134	1134	1134	1134	1134	1134	1134	1131	1131	1131	1131	1131	1131	1131	1131	1131	1131	1131	1127	1123	1123	1123	1123	1123	1123	1123	1120	1120	1120	1120	1120	1120	1120	1123	1123	1123	1123	1123	1123	1120	1120	1120	1120	1120	1120	1120	1120	1120	1120	1120	1120	1120	1116	1116	1116	1116	1116	1116	0	0	0	0	0	0	0	0	0	0	0	0	0	0	0	0	0	0	0
0	0	0	0	0	0	0	0	0	0	0	0	0	0	0	0	0	0	0	0	0	0	0	0	0	0	1431	1431	1431	1431	1425	1425	1431	1431	1425	1425	1425	1425	1425	1425	1419	1419	1419	1419	1413	1413	1413	1413	1413	1413	1413	1413	1413	1413	1407	1407	1407	0	1236	1236	1236	1236	1236	1232	1232	1227	1227	1227	1223	1223	1223	1223	1223	1131	1131	1131	1131	1131	1131	1131	1131	1131	1131	1131	1131	1131	1131	1127	1123	1123	1120	1120	1120	1120	1120	1120	1116	1116	1116	1116	1116	1116	1116	1116	1116	1116	1116	1113	1113	1113	1113	1113	1113	1113	1113	1109	1109	1105	1105	1105	1105	1102	1102	1102	1102	1102	1102	1102	1102	1102	1102	1102	1098	1098	1098	1098	1098	1098	1098	1098	1098	1098	1098	1098	1098	1095	1091	1091	1091	1091	1091	1091	1091	1091	1091	1091	1091	1091	1088	1088	1088	1088	1088	1088	1088	1088	1088	1085	1085	1085	1081	1081	1081	1081	1081	1081	1081	1081	1081	1081	1081	1081	1081	1078	1078	1074	1074	1074	1074	1074	1071	1071	1071	1071	1071	1068	1068	1068	1068	1068	1068	1068	1068	1068	1068	1068	1068	1068	1064	1064	1064	1064	1064	1061	1061	1061	1058	1058	1058	1058	1058	1058	1058	1058	1058	1058	1058	1055	1055	1055	1055	1055	1052	1052	1052	1052	1052	1048	1048	1052	1048	1048	1045	1045	1045	1042	1042	1039	1039	1039	1039	1039	1039	1039	1039	1036	1036	1036	1036	1036	1036	1033	1036	1036	1033	1033	1033	1033	1033	1033	1030	1030	1030	1030	1026	1026	1026	1026	1026	1026	1026	1026	1026	1026	1026	1026	1023	1023	1023	1023	1020	1020	1020	1020	1020	1020	1020	1020	1020	1020	1020	1017	1017	1017	1017	1017	1017	1017	1017	1014	1014	1014	1014	1014	1014	1014	1014	1014	1014	1014	1014	1014	1011	1008	1008	1008	1006	1006	1006	1006	1006	1003	1003	1003	1003	1003	1003	1003	1003	1003	1003	1003	1000	1000	1000	1000	1000	1000	1000	1000	1000	1000	1000	997	997	997	997	997	994	994	994	994	994	991	991	991	991	991	991	991	991	988	988	988	988	988	988	985	985	985	985	983	983	985	985	985	985	985	985	985	983	0	1206	1206	1206	1206	1206	1206	1206	1206	1206	1206	1206	1202	1202	1202	1202	1202	1202	1202	1202	1202	1197	1197	1197	1193	1193	1193	1193	1193	1193	1193	1193	1193	1189	1189	1189	1189	1189	1189	1189	1189	1189	1189	1189	1189	1189	1189	1189	1189	1189	1189	1185	1185	1185	1185	1185	1185	1185	1185	1185	1181	1181	1181	1181	1181	1181	1177	1177	1181	1181	1181	1177	1177	1181	1177	1177	1177	1177	1177	1177	1177	1177	1173	1173	1173	1173	1173	1169	1169	1169	1169	1169	1169	1169	1169	1165	1165	1165	1169	1165	1165	1165	1165	1165	1165	1165	1165	1165	1165	1165	1165	1165	1161	1161	1161	1161	1157	1157	1157	1157	1157	1157	1157	1157	1157	1157	1157	1153	1153	1153	1153	1153	1153	1153	1153	1153	1153	1153	1150	1150	1150	1150	1146	1146	1146	1146	1150	1150	1150	1150	1146	1146	1146	1146	1146	1146	1142	1142	1142	1142	1138	1138	1138	1138	1138	1138	1134	1134	1134	1134	1134	1134	1134	1134	1134	1134	1134	1131	1134	1134	1131	1131	1131	1131	1131	1131	1131	1131	1131	1131	1131	1127	1127	1127	1127	1123	1123	1123	1123	1120	1120	1123	1123	1123	1123	1123	1123	1123	1123	1123	1123	1123	1120	1120	1120	1120	1120	1120	1120	1120	1120	1120	1120	1120	1116	1116	1116	1116	1116	1116	0	0	0	0	0	0	0	0	0	0	0	0	0	0	0	0	0	0	0
0	0	0	0	0	0	0	0	0	0	0	0	0	0	0	0	0	0	0	0	0	0	0	0	0	0	1431	1431	1431	1431	1425	1425	1431	1431	1425	1425	1425	1425	1425	1425	1419	1419	1419	1419	1419	1413	1413	1413	1413	1413	1413	1413	1413	1413	1407	1407	1407	0	1236	1236	1236	1236	1236	1236	1232	1232	1227	1227	1227	1227	1223	1223	1223	1131	1131	1131	1131	1131	1131	1131	1131	1131	1131	1131	1131	1131	1131	1127	1123	1123	1120	1120	1120	1120	1120	1120	1116	1116	1116	1116	1116	1116	1116	1116	1116	1116	1116	1113	1113	1116	1113	1113	1113	1113	1113	1109	1109	1109	1105	1105	1105	1105	1102	1102	1102	1102	1102	1102	1102	1102	1102	1102	1102	1102	1102	1102	1102	1098	1098	1098	1098	1098	1098	1098	1098	1095	1091	1091	1091	1091	1091	1091	1091	1091	1091	1091	1091	1091	1088	1088	1088	1088	1088	1088	1088	1088	1088	1085	1085	1085	1085	1081	1081	1081	1081	1081	1081	1081	1081	1081	1081	1081	1081	1078	1078	1074	1074	1074	1074	1074	1071	1071	1071	1071	1071	1071	1071	1071	1071	1068	1068	1068	1068	1068	1068	1068	1068	1068	1068	1064	1064	1064	1064	1064	1061	1061	1061	1061	1058	1058	1058	1058	1058	1058	1058	1058	1058	1058	1058	1055	1055	1055	1052	1052	1052	1052	1052	1052	1052	1052	1048	1048	1045	1045	1045	1042	1042	1042	1042	1042	1039	1039	1039	1039	1039	1039	1039	1039	1036	1036	1036	1036	1036	1036	1036	1036	1036	1033	1033	1033	1033	1030	1030	1030	1026	1026	1026	1026	1026	1026	1026	1026	1026	1026	1026	1026	1023	1023	1023	1023	1020	1020	1020	1020	1020	1020	1020	1020	1020	1020	1020	1020	1017	1017	1017	1017	1017	1017	1017	1017	1017	1014	1014	1014	1014	1014	1014	1014	1014	1014	1014	1014	1011	1008	1008	1008	1006	1006	1006	1006	1006	1006	1003	1003	1003	1003	1003	1003	1003	1003	1003	1003	1000	1000	1000	1000	1000	1000	1000	1000	1000	1000	1000	1000	1000	997	997	997	994	994	994	994	994	991	991	991	991	991	991	991	991	991	988	988	988	988	985	985	985	985	985	985	985	985	985	985	985	985	985	985	0	1206	1206	1206	1206	1210	1206	1206	1206	1206	1206	1206	1206	1202	1202	1202	1202	1206	1206	1202	1202	1202	1202	1197	1197	1197	1197	1197	1193	1193	1193	1193	1193	1193	1189	1189	1189	1189	1189	1189	1189	1189	1189	1189	1189	1189	1189	1189	1189	1189	1189	1189	1189	1189	1189	1189	1185	1185	1189	1185	1185	1181	1181	1181	1181	1181	1181	1181	1181	1181	1181	1181	1181	1181	1181	1181	1181	1181	1177	1177	1177	1177	1177	1173	1173	1173	1173	1173	1169	1169	1169	1169	1169	1169	1169	1169	1169	1169	1169	1169	1169	1169	1165	1165	1165	1165	1165	1165	1165	1165	1165	1165	1165	1165	1165	1161	1161	1161	1161	1161	1161	1157	1157	1157	1157	1161	1157	1157	1157	1157	1157	1157	1157	1157	1153	1153	1153	1153	1153	1150	1150	1150	1150	1150	1150	1150	1150	1150	1150	1150	1150	1150	1150	1150	1150	1146	1146	1146	1146	1146	1142	1142	1138	1138	1138	1138	1138	1134	1134	1134	1134	1134	1134	1134	1134	1134	1134	1131	1131	1131	1131	1131	1131	1131	1131	1131	1134	1131	1131	1131	1134	1131	1127	1127	1127	1127	1123	1123	1123	1123	1123	1123	1123	1123	1123	1123	1123	1123	1123	1123	1123	1123	1123	1120	1120	1123	1120	1120	1120	1120	1120	1120	1120	1120	1120	1116	1116	1116	1116	1116	1116	0	0	0	0	0	0	0	0	0	0	0	0	0	0	0	0	0	0	0
0	0	0	0	0	0	0	0	0	0	0	0	0	0	0	0	0	0	0	0	0	0	0	0	0	0	1431	1431	1431	1431	1431	1431	1431	1431	1431	1431	1431	1431	1431	1425	1425	1425	1425	1425	1419	1419	1413	1413	1413	1413	1413	1413	1413	1413	1407	1407	1407	0	1236	1236	1236	1236	1236	1236	1232	1232	1227	1227	1227	1227	1227	1227	1227	1131	1131	1131	1131	1131	1131	1131	1131	1131	1131	1131	1131	1131	1131	1131	1123	1123	1123	1123	1123	1120	1120	1120	1120	1120	1120	1120	1116	1116	1116	1116	1116	1116	1116	1113	1113	1116	1113	1113	1113	1113	1113	1113	1109	1109	1109	1105	1105	1105	1105	1105	1102	1102	1102	1102	1102	1102	1102	1102	1102	1102	1102	1102	1102	1098	1098	1098	1098	1098	1098	1098	1095	1095	1095	1095	1091	1091	1095	1095	1095	1095	1091	1091	1091	1091	1088	1088	1088	1088	1088	1088	1088	1088	1088	1085	1085	1085	1085	1085	1081	1081	1081	1081	1081	1081	1081	1081	1081	1081	1081	1081	1081	1078	1078	1078	1074	1074	1074	1074	1071	1071	1071	1071	1071	1071	1071	1068	1068	1068	1068	1068	1068	1068	1068	1068	1068	1068	1068	1068	1068	1064	1064	1061	1061	1061	1061	1061	1058	1058	1058	1058	1058	1058	1058	1058	1058	1055	1055	1055	1055	1052	1052	1052	1052	1052	1052	1052	1048	1048	1045	1045	1045	1042	1042	1042	1042	1042	1042	1042	1039	1039	1039	1039	1039	1039	1039	1039	1036	1036	1036	1036	1036	1036	1036	1033	1033	1033	1033	1030	1030	1030	1030	1030	1030	1030	1030	1026	1026	1026	1026	1026	1026	1026	1023	1023	1023	1023	1023	1023	1023	1023	1020	1020	1020	1020	1020	1020	1020	1020	1017	1017	1017	1017	1017	1017	1017	1017	1017	1014	1014	1014	1014	1014	1014	1014	1014	1014	1014	1014	1011	1011	1011	1008	1008	1008	1008	1006	1006	1006	1006	1003	1003	1003	1003	1003	1003	1003	1003	1003	1003	1003	1003	1003	1003	1000	1000	1000	1000	1000	1000	1000	1000	997	997	997	997	994	994	994	994	994	991	991	991	991	991	991	991	991	988	988	988	988	985	985	985	985	985	985	985	985	988	988	988	988	988	988	0	1206	1206	1206	1206	1210	1206	1206	1206	1206	1206	1206	1206	1206	1206	1206	1206	1206	1202	1202	1202	1202	1197	1197	1197	1197	1197	1197	1193	1193	1193	1193	1193	1193	1189	1189	1189	1189	1189	1189	1189	1189	1189	1189	1189	1189	1189	1189	1189	1189	1189	1189	1189	1189	1189	1189	1189	1189	1189	1185	1185	1185	1181	1181	1181	1181	1181	1181	1181	1181	1181	1181	1185	1185	1181	1181	1181	1181	1177	1177	1177	1177	1177	1173	1173	1173	1173	1173	1169	1169	1169	1169	1169	1169	1169	1169	1169	1169	1169	1169	1169	1169	1169	1169	1165	1165	1165	1165	1165	1165	1165	1165	1165	1165	1165	1165	1165	1161	1161	1161	1161	1161	1161	1161	1161	1161	1157	1157	1157	1157	1157	1157	1157	1157	1153	1153	1153	1153	1153	1153	1150	1150	1150	1150	1150	1150	1150	1150	1150	1150	1150	1150	1150	1150	1150	1146	1146	1146	1146	1146	1142	1142	1142	1138	1138	1138	1138	1134	1134	1134	1134	1134	1134	1134	1134	1134	1134	1134	1131	1131	1134	1131	1131	1131	1131	1134	1134	1134	1134	1134	1134	1134	1127	1127	1127	1127	1127	1127	1127	1127	1123	1123	1123	1123	1120	1120	1120	1123	1123	1123	1123	1123	1123	1120	1120	1123	1120	1120	1120	1120	1120	1120	1120	1120	1120	1116	1116	1116	1116	1116	1116	0	0	0	0	0	0	0	0	0	0	0	0	0	0	0	0	0	0	0
0	0	0	0	0	0	0	0	0	0	0	0	0	0	0	0	0	0	0	0	0	0	0	0	0	0	1431	1431	1431	1431	1431	1431	1431	1431	1431	1431	1431	1431	1431	1431	1431	1425	1425	1425	1419	1419	1419	1419	1419	1413	1413	1413	1413	1413	1413	1407	1407	0	1227	1227	1236	1236	1236	1236	1232	1232	1232	1227	1227	1227	1227	1227	1227	1131	1131	1131	1131	1131	1131	1131	1131	1131	1131	1131	1131	1131	1131	1131	1123	1123	1123	1123	1123	1120	1120	1120	1120	1120	1120	1120	1116	1116	1116	1116	1116	1116	1116	1113	1113	1116	1116	1113	1113	1113	1113	1113	1109	1109	1109	1105	1105	1105	1105	1105	1102	1102	1102	1102	1102	1102	1102	1102	1102	1102	1102	1102	1102	1102	1102	1102	1098	1098	1098	1098	1095	1095	1095	1095	1095	1095	1095	1095	1095	1095	1095	1095	1091	1091	1091	1088	1088	1088	1088	1088	1088	1088	1088	1085	1085	1085	1085	1085	1081	1081	1081	1081	1081	1081	1081	1081	1081	1081	1081	1081	1081	1078	1078	1078	1074	1074	1074	1074	1071	1071	1071	1071	1071	1071	1071	1068	1068	1071	1068	1068	1068	1068	1068	1068	1068	1068	1068	1068	1068	1068	1064	1064	1061	1061	1061	1061	1061	1061	1061	1061	1058	1058	1058	1058	1058	1055	1055	1055	1055	1055	1052	1052	1052	1052	1052	1052	1048	1048	1048	1045	1045	1042	1042	1042	1042	1042	1042	1042	1039	1039	1039	1039	1039	1039	1039	1039	1039	1036	1036	1036	1036	1036	1036	1036	1033	1033	1033	1033	1033	1033	1030	1030	1030	1030	1030	1030	1030	1030	1030	1026	1026	1026	1023	1023	1023	1023	1023	1023	1023	1023	1020	1020	1020	1020	1023	1023	1023	1020	1020	1017	1017	1017	1017	1017	1017	1017	1017	1014	1014	1014	1014	1014	1014	1014	1014	1014	1014	1014	1011	1011	1011	1011	1008	1008	1008	1006	1006	1006	1006	1006	1006	1003	1003	1003	1003	1003	1003	1003	1003	1003	1003	1003	1003	1000	1000	1000	1000	1000	1000	1000	1000	997	997	997	997	997	997	994	994	994	994	991	991	991	991	991	991	991	988	988	988	988	988	985	985	985	988	985	985	988	988	988	988	988	991	1000	1000	1008	1206	1206	1210	1210	1206	1206	1206	1206	1206	1206	1206	1206	1206	1206	1206	1206	1202	1202	1202	1202	1197	1197	1193	1193	1197	1197	1197	1193	1193	1193	1193	1193	1193	1189	1189	1189	1189	1189	1189	1189	1189	1189	1189	1189	1189	1189	1189	1189	1189	1189	1189	1189	1189	1189	1189	1189	1189	1189	1185	1185	1181	1181	1181	1181	1181	1181	1181	1185	1181	1181	1185	1185	1181	1181	1181	1181	1181	1177	1177	1177	1177	1173	1173	1173	1173	1173	1169	1169	1169	1169	1169	1169	1169	1169	1169	1169	1169	1169	1169	1169	1169	1169	1165	1165	1169	1169	1165	1165	1165	1165	1165	1161	1161	1165	1165	1161	1161	1161	1161	1161	1161	1161	1161	1161	1157	1157	1157	1157	1157	1157	1157	1157	1157	1153	1153	1153	1153	1153	1153	1150	1150	1150	1153	1153	1153	1153	1150	1150	1150	1150	1150	1150	1150	1146	1146	1150	1150	1150	1142	1142	1142	1138	1138	1138	1138	1138	1138	1138	1138	1134	1134	1134	1134	1134	1134	1134	1131	1131	1134	1131	1131	1131	1131	1134	1134	1134	1134	1134	1134	1134	1127	1127	1127	1127	1127	1127	1127	1127	1127	1127	1123	1123	1123	1123	1123	1123	1123	1123	1123	1123	1123	1123	1123	1123	1123	1123	1123	1123	1123	1120	1120	1120	1120	1120	1120	1116	1116	1116	1116	0	0	0	0	0	0	0	0	0	0	0	0	0	0	0	0	0	0	0
0	0	0	0	0	0	0	0	0	0	0	0	0	0	0	0	0	0	0	0	0	0	0	0	0	0	1431	1431	1431	1431	1431	1431	1431	1431	1431	1431	1431	1431	1431	1431	1431	1425	1425	1425	1425	1419	1419	1419	1419	1419	1413	1413	1413	1413	1413	1413	1413	0	1227	1227	1236	1236	1236	1236	1232	1232	1232	1227	1227	1227	1227	1227	1134	1131	1131	1131	1131	1131	1131	1131	1131	1134	1134	1131	1131	1131	1131	1131	1123	1123	1123	1123	1123	1123	1123	1120	1120	1120	1120	1120	1116	1116	1116	1116	1116	1116	1116	1116	1116	1116	1116	1116	1113	1113	1113	1113	1113	1113	1109	1109	1109	1109	1105	1105	1105	1102	1102	1102	1102	1102	1102	1102	1102	1102	1102	1102	1102	1102	1102	1102	1098	1098	1098	1098	1098	1095	1095	1095	1095	1095	1095	1095	1095	1095	1095	1095	1095	1091	1091	1091	1091	1091	1091	1091	1091	1091	1088	1085	1085	1085	1085	1085	1085	1085	1081	1081	1081	1081	1081	1081	1081	1081	1081	1081	1081	1078	1078	1078	1074	1074	1074	1074	1074	1071	1071	1071	1071	1071	1071	1071	1071	1071	1071	1068	1068	1068	1068	1068	1068	1068	1068	1068	1068	1068	1064	1064	1061	1061	1061	1061	1061	1061	1061	1061	1058	1058	1058	1058	1058	1055	1055	1055	1055	1055	1052	1052	1052	1052	1052	1052	1052	1048	1048	1048	1045	1042	1042	1042	1042	1042	1042	1042	1039	1039	1039	1039	1039	1039	1039	1039	1039	1036	1036	1036	1036	1036	1036	1036	1036	1036	1033	1033	1033	1033	1030	1030	1030	1030	1030	1030	1030	1030	1030	1030	1026	1026	1026	1026	1026	1026	1023	1023	1023	1023	1023	1023	1023	1023	1023	1023	1023	1023	1020	1017	1017	1017	1017	1017	1017	1017	1017	1017	1014	1014	1014	1014	1014	1014	1014	1014	1014	1014	1011	1011	1011	1011	1011	1011	1008	1008	1006	1006	1006	1006	1006	1003	1003	1006	1006	1003	1003	1003	1003	1003	1003	1003	1003	1000	1000	1000	1000	1000	1000	1000	1000	1000	1000	997	997	997	997	994	994	994	994	991	991	991	991	991	991	991	991	991	988	988	988	988	985	985	988	988	988	988	988	991	991	991	994	1000	1008	1008	1206	1206	1210	1210	1206	1206	1206	1206	1206	1206	1206	1206	1206	1206	1206	1206	1206	1202	1202	1202	1197	1197	1193	1193	1197	1197	1197	1193	1193	1193	1193	1193	1193	1193	1193	1189	1189	1189	1189	1189	1189	1189	1189	1189	1193	1189	1189	1189	1189	1189	1189	1189	1189	1189	1189	1189	1189	1189	1189	1185	1185	1185	1181	1181	1181	1185	1185	1185	1181	1181	1185	1185	1181	1181	1181	1181	1181	1181	1181	1177	1177	1173	1173	1173	1173	1173	1173	1173	1169	1169	1169	1169	1169	1169	1169	1169	1169	1169	1169	1169	1169	1169	1165	1165	1169	1169	1165	1165	1165	1165	1165	1161	1161	1165	1165	1161	1161	1161	1161	1161	1161	1161	1161	1161	1161	1161	1157	1157	1157	1157	1157	1157	1157	1153	1153	1153	1153	1153	1153	1153	1153	1153	1153	1153	1153	1153	1153	1150	1150	1150	1150	1150	1150	1150	1150	1150	1150	1150	1142	1142	1142	1138	1138	1138	1138	1138	1138	1138	1138	1134	1134	1134	1134	1134	1134	1134	1131	1134	1134	1134	1131	1131	1131	1134	1134	1134	1134	1134	1134	1134	1131	1131	1127	1127	1127	1127	1127	1127	1127	1127	1123	1123	1123	1123	1123	1123	1123	1123	1123	1123	1123	1123	1123	1123	1123	1123	1123	1123	1123	1120	1120	1120	1120	1120	1120	1120	1120	1120	1120	0	0	0	0	0	0	0	0	0	0	0	0	0	0	0	0	0	0	0
0	0	0	0	0	0	0	0	0	0	0	0	0	0	0	0	0	0	0	0	0	0	0	0	0	0	1431	1431	1431	1431	1431	1431	1431	1431	1431	1431	1431	1431	1431	1431	1431	1431	1431	1425	1425	1425	1419	1419	1419	1419	1419	1413	1413	1413	1413	1413	1413	0	1245	1240	1236	1236	1236	1236	1232	1232	1232	1227	1227	1227	1227	1227	1134	1134	1134	1134	1131	1131	1134	1131	1131	1134	1134	1131	1131	1131	1131	1131	1127	1127	1127	1123	1123	1123	1123	1120	1120	1120	1120	1120	1116	1116	1116	1116	1116	1116	1116	1116	1116	1116	1116	1116	1113	1113	1113	1113	1113	1113	1109	1109	1109	1109	1109	1109	1105	1102	1102	1102	1102	1102	1102	1102	1102	1102	1102	1102	1102	1102	1102	1102	1102	1098	1098	1098	1098	1098	1098	1098	1098	1098	1098	1098	1098	1095	1095	1095	1095	1091	1091	1091	1091	1091	1091	1091	1091	1091	1091	1088	1088	1085	1085	1085	1085	1085	1085	1081	1081	1081	1081	1081	1081	1081	1081	1081	1081	1078	1078	1078	1078	1078	1074	1074	1074	1074	1074	1074	1071	1071	1071	1071	1071	1071	1071	1071	1068	1068	1068	1068	1068	1068	1068	1068	1068	1068	1068	1064	1064	1061	1061	1061	1061	1061	1061	1061	1061	1061	1058	1058	1058	1055	1055	1055	1055	1055	1055	1055	1055	1052	1052	1052	1052	1052	1048	1048	1045	1045	1045	1045	1042	1042	1042	1042	1042	1039	1039	1039	1039	1039	1039	1039	1039	1036	1036	1039	1036	1036	1036	1036	1036	1036	1036	1036	1033	1033	1030	1030	1030	1030	1030	1030	1030	1030	1030	1030	1026	1026	1026	1026	1026	1026	1026	1026	1023	1023	1023	1023	1023	1023	1023	1023	1023	1023	1020	1017	1017	1017	1017	1017	1017	1017	1017	1017	1014	1014	1017	1014	1014	1014	1014	1014	1014	1014	1011	1011	1011	1011	1011	1011	1011	1008	1008	1006	1006	1006	1006	1003	1003	1006	1006	1003	1003	1003	1003	1003	1003	1003	1003	1003	1003	1000	1000	1000	1000	1000	1000	1000	1000	1000	1000	1000	997	994	994	994	994	991	991	991	991	991	991	991	991	991	991	988	988	988	985	985	988	988	988	988	988	991	991	994	1000	1006	1008	1011	1210	1210	1210	1210	1206	1206	1206	1206	1206	1206	1206	1206	1206	1206	1206	1206	1206	1202	1202	1197	1197	1197	1197	1197	1197	1197	1197	1197	1197	1197	1193	1193	1193	1193	1193	1193	1193	1193	1193	1193	1193	1193	1193	1193	1193	1193	1193	1189	1189	1189	1189	1189	1189	1189	1189	1189	1189	1189	1189	1189	1185	1185	1185	1185	1185	1185	1185	1185	1185	1185	1185	1185	1185	1181	1181	1181	1181	1181	1181	1181	1181	1173	1173	1173	1173	1173	1173	1173	1173	1173	1169	1169	1169	1169	1169	1169	1169	1169	1169	1169	1169	1169	1169	1169	1169	1169	1165	1165	1165	1165	1165	1161	1161	1165	1165	1165	1165	1165	1165	1165	1165	1165	1165	1165	1161	1161	1161	1157	1157	1157	1157	1157	1157	1157	1157	1157	1153	1153	1153	1153	1153	1153	1153	1153	1153	1153	1153	1150	1150	1150	1150	1150	1150	1150	1150	1150	1150	1150	1142	1142	1142	1142	1138	1138	1138	1138	1138	1138	1138	1138	1138	1134	1134	1134	1134	1134	1134	1134	1134	1134	1134	1134	1134	1134	1134	1134	1134	1134	1134	1131	1131	1131	1127	1127	1127	1127	1127	1127	1127	1127	1127	1127	1123	1123	1123	1123	1123	1123	1123	1123	1123	1123	1120	1120	1123	1123	1123	1123	1123	1120	1120	1120	1120	1120	1120	1120	1120	1120	1120	0	0	0	0	0	0	0	0	0	0	0	0	0	0	0	0	0	0	0
0	0	0	0	0	0	0	0	0	0	0	0	0	0	0	0	0	0	0	0	0	0	0	0	0	0	1437	1431	1431	1431	1431	1431	1431	1431	1431	1431	1431	1431	1431	1431	1431	1431	1431	1425	1425	1425	1419	1419	1419	1419	1413	1413	1413	1413	1413	1413	1413	0	1245	1245	1240	1240	1240	1240	1236	1232	1232	1227	1227	1227	1227	1227	1134	1134	1134	1134	1134	1134	1134	1134	1134	1134	1134	1131	1131	1131	1131	1131	1127	1127	1127	1127	1127	1127	1123	1123	1123	1120	1120	1120	1120	1116	1116	1116	1116	1116	1116	1116	1116	1116	1116	1116	1113	1113	1113	1113	1113	1113	1113	1109	1109	1109	1109	1109	1105	1105	1105	1105	1102	1102	1102	1102	1102	1102	1102	1102	1102	1102	1102	1102	1102	1098	1098	1098	1098	1098	1098	1098	1098	1098	1098	1098	1098	1098	1095	1095	1095	1091	1091	1091	1091	1091	1091	1091	1091	1091	1091	1088	1088	1085	1085	1085	1085	1085	1085	1081	1081	1081	1081	1081	1081	1081	1081	1081	1081	1081	1078	1078	1078	1078	1078	1074	1078	1078	1074	1074	1074	1071	1071	1071	1071	1071	1071	1071	1071	1068	1068	1068	1068	1068	1068	1068	1068	1068	1068	1064	1064	1064	1061	1061	1061	1061	1061	1061	1061	1061	1058	1058	1058	1058	1055	1055	1055	1055	1055	1055	1055	1055	1052	1052	1052	1052	1052	1048	1048	1045	1045	1045	1042	1042	1042	1042	1042	1039	1039	1039	1039	1039	1039	1039	1039	1039	1039	1039	1036	1036	1036	1036	1036	1036	1036	1036	1033	1033	1030	1030	1030	1030	1030	1030	1030	1030	1030	1030	1026	1026	1026	1026	1026	1026	1026	1026	1026	1026	1023	1023	1023	1023	1023	1023	1023	1020	1020	1017	1017	1017	1017	1017	1017	1017	1017	1017	1017	1017	1017	1014	1014	1014	1014	1014	1014	1014	1011	1011	1011	1011	1011	1011	1011	1008	1008	1006	1006	1006	1006	1003	1003	1006	1006	1006	1003	1003	1003	1003	1003	1003	1003	1003	1003	1000	1000	1000	1000	1000	1000	1000	1000	1000	1000	1000	997	994	994	997	994	994	991	991	991	991	991	991	991	991	991	988	988	988	988	988	988	988	988	988	988	991	994	994	1000	1006	1008	1008	1210	1210	1210	1214	1210	1210	1210	1206	1206	1206	1206	1206	1206	1206	1206	1206	1206	1202	1202	1197	1197	1197	1197	1197	1197	1197	1197	1197	1197	1197	1197	1193	1193	1193	1193	1193	1193	1193	1193	1193	1193	1193	1193	1193	1193	1193	1193	1189	1189	1189	1189	1189	1189	1189	1189	1189	1189	1189	1189	1189	1185	1185	1185	1185	1185	1185	1185	1185	1185	1185	1185	1185	1185	1181	1181	1181	1181	1181	1181	1181	1181	1177	1173	1173	1173	1173	1173	1173	1173	1173	1173	1169	1169	1169	1169	1169	1169	1169	1169	1169	1169	1169	1169	1169	1169	1169	1165	1165	1165	1165	1165	1161	1161	1165	1165	1165	1165	1165	1165	1165	1165	1165	1165	1165	1161	1161	1161	1157	1157	1157	1157	1157	1157	1157	1157	1157	1153	1153	1153	1153	1153	1153	1153	1153	1153	1153	1153	1153	1153	1153	1153	1153	1153	1150	1150	1150	1150	1150	1142	1142	1142	1142	1138	1138	1138	1138	1138	1138	1138	1138	1138	1138	1138	1138	1134	1134	1134	1134	1134	1134	1134	1134	1134	1134	1134	1134	1134	1134	1131	1131	1131	1131	1127	1127	1127	1127	1127	1127	1127	1127	1127	1127	1123	1123	1123	1123	1123	1123	1123	1123	1123	1123	1120	1120	1123	1123	1123	1123	1123	1120	1120	1120	1120	1120	1120	1120	1120	1120	1120	0	0	0	0	0	0	0	0	0	0	0	0	0	0	0	0	0	0	0
0	0	0	0	0	0	0	0	0	0	0	0	0	0	0	0	0	0	0	0	0	0	0	0	0	0	1437	1437	1431	1431	1437	1437	1437	1437	1431	1431	1431	1431	1431	1431	1431	1425	1425	1425	1425	1425	1419	1419	1419	1419	1413	1413	1413	1413	1413	1413	1413	0	1249	1245	1245	1240	1240	1240	1236	1232	1232	1227	1227	1227	1227	1227	1134	1134	1134	1134	1134	1134	1134	1134	1134	1134	1134	1131	1131	1131	1131	1131	1127	1127	1127	1127	1127	1127	1127	1123	1123	1123	1123	1123	1120	1116	1116	1116	1116	1116	1116	1116	1116	1116	1116	1116	1113	1113	1113	1113	1113	1113	1113	1109	1109	1109	1109	1109	1105	1105	1105	1105	1102	1102	1102	1102	1102	1102	1102	1102	1102	1102	1102	1102	1102	1102	1102	1098	1098	1098	1098	1098	1098	1098	1098	1098	1098	1098	1095	1095	1095	1091	1091	1091	1091	1091	1091	1091	1091	1091	1091	1088	1088	1085	1085	1085	1085	1085	1085	1085	1085	1081	1081	1081	1081	1081	1081	1081	1081	1081	1078	1078	1078	1078	1078	1078	1078	1078	1074	1074	1074	1071	1071	1071	1071	1071	1071	1071	1071	1068	1068	1068	1068	1068	1068	1068	1068	1068	1068	1068	1064	1064	1064	1064	1061	1061	1061	1061	1061	1061	1058	1058	1058	1058	1058	1058	1055	1055	1055	1055	1055	1055	1055	1052	1052	1052	1052	1052	1048	1045	1045	1045	1042	1042	1042	1042	1042	1042	1042	1042	1042	1039	1039	1039	1039	1039	1039	1039	1036	1036	1036	1036	1036	1036	1036	1036	1036	1033	1030	1030	1030	1030	1030	1030	1030	1030	1030	1030	1026	1026	1026	1026	1026	1026	1026	1026	1026	1026	1026	1023	1023	1023	1023	1023	1023	1020	1020	1017	1017	1017	1017	1017	1017	1017	1017	1017	1017	1017	1017	1014	1014	1014	1014	1014	1014	1014	1011	1011	1011	1011	1011	1011	1011	1008	1008	1006	1006	1006	1006	1006	1006	1006	1006	1006	1003	1003	1003	1003	1003	1003	1003	1003	1003	1000	1000	1000	1000	1000	1000	1000	1000	1000	1000	1000	997	997	997	997	994	994	994	991	991	991	991	991	991	991	991	991	988	988	988	988	988	988	988	988	988	991	994	994	1000	1003	1008	1008	1008	1210	1210	1214	1210	1210	1210	1206	1206	1206	1206	1206	1206	1206	1206	1206	1206	1202	1202	1202	1197	1197	1197	1197	1197	1197	1197	1202	1202	1197	1197	1197	1193	1193	1193	1193	1193	1193	1193	1193	1193	1193	1193	1193	1193	1193	1193	1189	1189	1189	1189	1189	1189	1189	1189	1189	1189	1189	1189	1189	1189	1185	1185	1185	1185	1185	1185	1185	1185	1185	1185	1185	1185	1181	1181	1185	1181	1181	1181	1181	1181	1177	1173	1173	1173	1173	1173	1173	1173	1173	1173	1173	1173	1169	1169	1173	1173	1169	1169	1169	1169	1169	1169	1169	1169	1169	1165	1165	1169	1165	1165	1165	1165	1169	1165	1165	1165	1165	1165	1165	1165	1165	1165	1165	1161	1161	1161	1161	1161	1157	1157	1157	1157	1157	1157	1157	1153	1153	1153	1153	1153	1153	1153	1153	1153	1153	1153	1153	1153	1153	1153	1153	1153	1153	1150	1150	1150	1150	1142	1142	1142	1142	1138	1138	1138	1138	1138	1138	1138	1138	1138	1138	1138	1138	1138	1134	1134	1134	1134	1134	1134	1134	1134	1134	1134	1134	1134	1131	1131	1131	1131	1131	1131	1127	1127	1127	1127	1127	1127	1127	1127	1127	1123	1123	1123	1123	1123	1123	1123	1123	1123	1123	1120	1120	1123	1123	1123	1123	1123	1123	1123	1120	1120	1120	1120	1120	1120	1120	1120	0	0	0	0	0	0	0	0	0	0	0	0	0	0	0	0	0	0	0
0	0	0	0	0	0	0	0	0	0	0	0	0	0	0	0	0	0	0	0	0	0	0	0	0	0	1437	1437	1437	1437	1437	1437	1437	1437	1437	1437	1431	1431	1431	1431	1431	1425	1425	1425	1425	1425	1419	1419	1419	1419	1419	1413	1413	1413	1413	1413	1413	1413	1249	1245	1245	1245	1245	1240	1236	1236	1232	1232	1232	1232	1227	1227	1227	1134	1134	1134	1134	1134	1134	1134	1134	1134	1134	1134	1131	1131	1131	1131	1127	1127	1127	1127	1127	1127	1127	1123	1123	1123	1123	1123	1120	1120	1120	1116	1116	1116	1116	1116	1116	1116	1116	1116	1113	1113	1113	1113	1113	1113	1113	1113	1113	1109	1109	1109	1109	1109	1105	1105	1102	1102	1102	1102	1102	1102	1102	1102	1102	1102	1102	1102	1102	1102	1102	1098	1098	1098	1098	1098	1098	1098	1098	1098	1098	1098	1098	1095	1095	1095	1091	1091	1091	1091	1091	1091	1091	1091	1091	1091	1088	1085	1085	1085	1085	1085	1085	1085	1085	1085	1085	1085	1081	1081	1085	1081	1081	1081	1081	1081	1081	1081	1078	1078	1078	1078	1078	1078	1078	1074	1074	1071	1071	1071	1071	1071	1071	1071	1071	1071	1068	1068	1068	1068	1068	1068	1068	1068	1068	1064	1064	1064	1064	1064	1064	1061	1061	1061	1061	1058	1058	1058	1058	1058	1058	1055	1055	1055	1055	1055	1055	1055	1055	1055	1055	1052	1052	1045	1045	1045	1042	1042	1042	1042	1042	1042	1042	1042	1042	1042	1042	1039	1039	1039	1039	1039	1039	1036	1036	1036	1036	1036	1036	1036	1036	1033	1033	1033	1033	1033	1033	1030	1030	1030	1030	1030	1030	1030	1026	1026	1026	1026	1026	1026	1026	1026	1026	1023	1023	1023	1023	1023	1023	1023	1023	1020	1020	1020	1020	1017	1017	1020	1017	1017	1017	1017	1017	1017	1014	1014	1014	1014	1014	1014	1011	1011	1014	1014	1014	1014	1011	1011	1011	1011	1008	1008	1008	1006	1006	1006	1006	1008	1008	1006	1006	1006	1006	1003	1003	1003	1003	1003	1000	1000	1000	1000	1000	1000	1000	1000	1000	1000	1000	997	997	997	997	997	994	994	994	994	994	994	991	991	991	991	991	991	988	988	988	988	988	988	991	991	991	994	994	994	994	1206	1206	1210	1210	1214	1210	1210	1210	1210	1206	1206	1206	1206	1206	1206	1206	1206	1206	1206	1206	1202	1197	1197	1197	1202	1202	1202	1202	1202	1202	1202	1197	1197	1197	1197	1197	1193	1193	1193	1193	1193	1193	1193	1193	1193	1193	1193	1193	1189	1189	1189	1189	1189	1189	1189	1189	1189	1189	1189	1189	1189	1189	1189	1189	1189	1189	1189	1189	1185	1185	1185	1185	1185	1181	1181	1181	1185	1181	1181	1181	1181	1181	1177	1173	1173	1173	1173	1173	1173	1173	1173	1173	1173	1173	1173	1173	1173	1173	1169	1169	1169	1169	1169	1169	1169	1169	1169	1165	1165	1169	1169	1165	1165	1165	1169	1169	1165	1165	1165	1165	1165	1165	1165	1165	1165	1165	1161	1161	1161	1157	1157	1157	1157	1157	1157	1157	1157	1157	1157	1157	1157	1153	1153	1153	1153	1153	1153	1153	1153	1153	1153	1153	1153	1153	1153	1150	1150	1150	1146	1142	1142	1142	1142	1138	1138	1138	1138	1138	1138	1138	1138	1138	1138	1138	1138	1138	1138	1138	1138	1134	1134	1134	1134	1134	1134	1134	1134	1134	1131	1131	1131	1131	1131	1131	1131	1131	1131	1131	1131	1131	1127	1127	1127	1123	1123	1127	1123	1123	1123	1123	1123	1123	1123	1120	1120	1123	1123	1123	1123	1123	1123	1123	1120	1120	1120	1120	1120	1120	1120	1120	0	0	0	0	0	0	0	0	0	0	0	0	0	0	0	0	0	0	0
0	0	0	0	0	0	0	0	0	0	0	0	0	0	0	0	0	0	0	0	0	0	0	0	0	0	1437	1437	1437	1437	1437	1437	1437	1437	1437	1437	1431	1431	1431	1431	1431	1425	1425	1425	1425	1425	1425	1425	1425	1425	1419	1419	1419	1419	1413	1413	1413	1413	0	1249	1245	1245	1245	1245	1236	1236	1236	1232	1232	1232	1227	1227	1227	1134	1134	1134	1134	1134	1134	1134	1134	1134	1134	1134	1134	1134	1131	1131	1127	1127	1127	1127	1127	1127	1127	1123	1123	1123	1123	1123	1120	1120	1120	1116	1116	1116	1116	1116	1116	1116	1116	1116	1116	1116	1113	1113	1113	1113	1113	1113	1113	1113	1113	1113	1109	1109	1109	1105	1105	1105	1105	1105	1105	1105	1105	1105	1102	1102	1102	1102	1102	1102	1102	1102	1102	1098	1098	1098	1098	1098	1098	1098	1098	1098	1098	1098	1098	1095	1095	1095	1095	1095	1095	1095	1095	1095	1091	1091	1088	1088	1088	1085	1085	1085	1085	1085	1085	1085	1085	1085	1081	1081	1085	1081	1081	1081	1081	1081	1081	1081	1081	1081	1081	1078	1078	1078	1078	1074	1074	1071	1071	1071	1071	1071	1074	1071	1071	1071	1071	1068	1068	1068	1068	1068	1068	1068	1068	1068	1064	1064	1064	1064	1064	1064	1061	1061	1061	1058	1058	1058	1058	1058	1058	1058	1055	1055	1055	1055	1055	1055	1055	1055	1055	1052	1052	1045	1045	1045	1042	1042	1042	1042	1042	1042	1042	1042	1042	1042	1042	1042	1042	1039	1039	1039	1039	1039	1039	1039	1036	1036	1036	1036	1036	1036	1033	1033	1033	1033	1033	1030	1030	1030	1030	1030	1030	1030	1030	1026	1026	1026	1026	1026	1026	1026	1026	1026	1026	1023	1023	1023	1023	1023	1023	1020	1020	1020	1020	1020	1020	1020	1020	1017	1017	1017	1017	1017	1017	1017	1014	1014	1017	1017	1014	1014	1014	1014	1014	1014	1011	1011	1011	1011	1008	1008	1008	1008	1008	1008	1008	1008	1008	1008	1008	1008	1006	1006	1006	1003	1003	1003	1003	1000	1000	1000	1000	1000	1000	1000	1000	1000	1000	1000	1000	997	997	997	994	994	994	994	994	994	994	994	994	991	991	991	988	988	988	988	988	991	991	991	994	994	994	994	1206	1206	1210	1210	1214	1214	1210	1210	1210	1210	1210	1210	1206	1206	1206	1206	1206	1206	1206	1206	1206	1202	1202	1202	1202	1202	1202	1202	1202	1202	1202	1202	1202	1202	1197	1197	1197	1197	1197	1197	1193	1193	1193	1193	1193	1193	1193	1193	1193	1193	1193	1193	1193	1193	1193	1189	1189	1189	1189	1189	1189	1189	1189	1189	1189	1189	1189	1189	1189	1189	1185	1185	1185	1185	1181	1181	1185	1185	1181	1181	1181	1185	1181	1177	1177	1177	1177	1173	1173	1173	1173	1173	1173	1173	1173	1173	1173	1173	1173	1169	1169	1169	1169	1169	1169	1169	1169	1169	1165	1165	1169	1169	1169	1165	1165	1169	1169	1165	1165	1165	1165	1165	1165	1165	1165	1165	1165	1161	1161	1161	1157	1157	1157	1157	1157	1157	1157	1157	1157	1157	1157	1157	1153	1153	1153	1153	1153	1153	1153	1153	1153	1153	1153	1153	1153	1153	1150	1150	1150	1146	1142	1142	1142	1142	1138	1138	1138	1138	1138	1138	1138	1138	1138	1138	1138	1138	1138	1138	1138	1138	1134	1134	1138	1138	1134	1134	1134	1134	1134	1134	1131	1131	1131	1131	1131	1131	1131	1127	1127	1131	1127	1127	1127	1127	1127	1127	1127	1123	1123	1123	1123	1123	1123	1123	1123	1123	1123	1123	1123	1123	1123	1123	1123	1123	1123	1123	1123	1123	1120	1120	1120	0	0	0	0	0	0	0	0	0	0	0	0	0	0	0	0	0	0	0
0	0	0	0	0	0	0	0	0	0	0	0	0	0	0	0	0	0	0	0	0	0	0	0	0	0	1437	1431	1431	1431	1431	1437	1437	1437	1431	1431	1431	1431	1431	1431	1431	1425	1425	1425	1425	1425	1425	1425	1425	1425	1419	1419	1419	1419	1413	1413	1413	1413	0	1249	1249	1249	1245	1245	1240	1236	1236	1232	1232	1232	1227	1227	1227	1227	1138	1138	1138	1138	1138	1134	1134	1134	1134	1134	1134	1134	1134	1131	1127	1127	1127	1127	1127	1127	1127	1127	1127	1123	1123	1123	1123	1123	1123	1120	1120	1116	1116	1116	1116	1116	1116	1116	1116	1116	1113	1113	1113	1113	1113	1113	1113	1113	1113	1113	1113	1113	1109	1109	1109	1109	1109	1105	1105	1105	1105	1105	1105	1105	1105	1105	1105	1102	1102	1102	1102	1102	1102	1098	1098	1098	1098	1098	1098	1098	1098	1098	1098	1095	1095	1095	1095	1095	1095	1095	1095	1098	1095	1095	1091	1088	1088	1088	1085	1085	1085	1085	1085	1085	1085	1085	1081	1081	1085	1085	1085	1081	1081	1081	1081	1081	1081	1081	1081	1081	1078	1078	1078	1074	1074	1074	1074	1074	1074	1074	1074	1074	1071	1071	1071	1071	1071	1068	1068	1068	1068	1068	1068	1068	1068	1068	1064	1064	1064	1064	1064	1064	1061	1058	1058	1058	1058	1058	1058	1058	1055	1055	1055	1055	1055	1055	1055	1055	1055	1052	1052	1048	1048	1045	1045	1045	1045	1045	1045	1042	1042	1042	1042	1042	1042	1042	1042	1042	1039	1039	1039	1039	1039	1039	1039	1039	1039	1036	1036	1036	1036	1036	1036	1036	1036	1033	1033	1033	1030	1030	1030	1030	1030	1026	1026	1026	1026	1026	1026	1026	1026	1026	1026	1026	1023	1023	1023	1023	1023	1020	1020	1020	1020	1020	1020	1020	1020	1020	1020	1017	1017	1017	1017	1017	1017	1017	1017	1017	1014	1014	1014	1014	1014	1014	1014	1011	1011	1011	1011	1011	1011	1008	1008	1008	1008	1008	1008	1008	1008	1008	1008	1006	1006	1003	1003	1003	1003	1003	1003	1003	1003	1000	1000	1000	1000	1000	1000	1000	1000	1000	997	997	997	994	994	994	994	994	994	994	994	991	991	991	991	991	988	988	988	991	991	991	991	991	991	0	1210	1210	1210	1214	1214	1214	1210	1210	1210	1210	1210	1210	1210	1210	1210	1210	1206	1206	1206	1206	1206	1206	1206	1206	1206	1206	1206	1206	1206	1202	1202	1202	1202	1202	1202	1197	1197	1197	1197	1197	1193	1193	1193	1197	1197	1193	1193	1193	1193	1193	1193	1193	1193	1193	1193	1193	1189	1189	1189	1189	1189	1189	1189	1189	1189	1189	1189	1189	1189	1189	1189	1189	1185	1185	1185	1185	1185	1185	1181	1181	1185	1185	1181	1177	1177	1177	1177	1177	1177	1173	1173	1173	1173	1173	1173	1173	1173	1173	1173	1173	1173	1173	1173	1169	1169	1169	1169	1169	1169	1169	1169	1169	1169	1169	1169	1169	1169	1169	1165	1165	1165	1165	1165	1165	1165	1165	1165	1165	1165	1161	1161	1161	1161	1157	1157	1161	1161	1157	1157	1157	1157	1157	1153	1153	1153	1153	1153	1153	1153	1153	1153	1153	1153	1153	1153	1153	1150	1150	1150	1146	1142	1142	1142	1142	1142	1142	1142	1138	1138	1138	1138	1138	1138	1138	1138	1138	1138	1138	1138	1138	1138	1138	1138	1138	1134	1134	1134	1134	1134	1134	1134	1134	1134	1134	1134	1131	1131	1127	1127	1127	1127	1127	1127	1127	1127	1127	1127	1123	1123	1123	1123	1123	1123	1123	1123	1123	1123	1123	1123	1123	1123	1123	1123	1123	1123	1123	1123	1123	1120	1120	1120	0	0	0	0	0	0	0	0	0	0	0	0	0	0	0	0	0	0	0
0	0	0	0	0	0	0	0	0	0	0	0	0	0	0	0	0	0	0	0	0	0	0	0	0	0	1431	1431	1431	1431	1431	1431	1431	1431	1431	1431	1431	1431	1431	1431	1425	1419	1419	1419	1419	1419	1419	1419	1419	1419	1419	1419	1419	1413	1413	1413	1413	1413	0	1249	1249	1249	1245	1245	1240	1240	1236	1236	1232	1232	1232	1232	1232	1232	1232	1142	1138	1138	1138	1134	1134	1134	1134	1134	1134	1134	1134	1134	1131	1131	1127	1127	1127	1127	1127	1127	1127	1127	1127	1127	1123	1123	1123	1123	1120	1116	1116	1116	1116	1116	1116	1116	1116	1116	1116	1116	1113	1113	1113	1113	1113	1113	1113	1113	1113	1113	1109	1109	1109	1109	1109	1109	1109	1109	1109	1109	1105	1105	1105	1105	1105	1105	1105	1102	1102	1102	1102	1102	1098	1098	1098	1098	1098	1098	1098	1098	1098	1095	1095	1095	1095	1095	1098	1095	1095	1098	1095	1095	1091	1088	1088	1088	1085	1085	1085	1085	1085	1085	1085	1085	1085	1085	1085	1085	1085	1085	1081	1081	1081	1081	1081	1081	1081	1081	1081	1081	1078	1078	1078	1074	1074	1074	1074	1074	1074	1074	1074	1071	1071	1071	1071	1071	1071	1068	1068	1068	1068	1068	1068	1068	1068	1068	1064	1064	1064	1064	1061	1061	1061	1061	1058	1058	1058	1058	1058	1058	1058	1058	1055	1055	1055	1055	1055	1055	1052	1048	1048	1048	1045	1045	1045	1045	1045	1045	1045	1042	1042	1042	1042	1042	1042	1042	1042	1039	1039	1039	1039	1039	1039	1039	1039	1039	1039	1039	1036	1036	1036	1036	1036	1033	1033	1033	1033	1030	1030	1030	1030	1030	1030	1026	1026	1026	1026	1026	1026	1026	1026	1026	1023	1023	1023	1023	1023	1023	1023	1023	1023	1020	1020	1020	1020	1020	1020	1017	1017	1017	1017	1017	1017	1017	1017	1017	1014	1014	1014	1014	1014	1014	1014	1011	1011	1011	1011	1011	1011	1008	1008	1008	1008	1008	1008	1008	1008	1008	1008	1008	1006	1006	1006	1003	1003	1003	1003	1003	1003	1000	1000	1000	1000	1000	1000	1000	1000	1000	1000	1000	1000	997	997	997	997	997	994	994	994	994	991	991	991	991	988	988	991	991	991	991	991	991	991	0	1210	1210	1214	1214	1214	1214	1214	1214	1214	1210	1210	1210	1210	1210	1210	1210	1206	1206	1206	1206	1206	1206	1206	1206	1206	1206	1206	1206	1206	1206	1206	1202	1202	1202	1202	1202	1202	1202	1202	1197	1197	1197	1197	1197	1197	1193	1193	1193	1193	1193	1193	1193	1193	1193	1193	1193	1193	1193	1193	1189	1189	1189	1189	1189	1189	1189	1189	1189	1189	1189	1189	1189	1189	1185	1185	1185	1185	1185	1185	1185	1185	1185	1181	1177	1177	1177	1177	1177	1177	1177	1177	1177	1177	1177	1177	1173	1173	1173	1173	1173	1173	1173	1173	1173	1173	1173	1169	1169	1169	1169	1169	1169	1169	1169	1169	1169	1169	1169	1169	1169	1169	1169	1165	1165	1165	1165	1165	1165	1165	1161	1161	1161	1161	1161	1161	1161	1161	1157	1157	1157	1157	1157	1153	1153	1153	1153	1153	1153	1153	1153	1153	1153	1153	1153	1153	1153	1153	1153	1150	1146	1142	1142	1142	1142	1142	1142	1142	1138	1138	1138	1138	1138	1138	1138	1138	1138	1138	1138	1138	1138	1138	1138	1138	1138	1134	1134	1134	1134	1134	1134	1134	1134	1134	1134	1134	1134	1131	1131	1131	1127	1127	1127	1127	1127	1127	1127	1127	1127	1123	1123	1123	1127	1127	1123	1123	1123	1123	1123	1123	1123	1123	1123	1123	1123	1123	1123	1123	1123	1120	1120	1120	0	0	0	0	0	0	0	0	0	0	0	0	0	0	0	0	0	0	0
