0	0	0	0	0	0	0	0	0	0	0	0	0	0	0	0	0	0	0	0	0	0	2281	2281	2281	2252	2252	2252	2252	2266	2266	2266	2281	2281	2281	2297	2281	2281	2281	2281	2281	2297	2297	2297	2297	2297	2297	2297	2297	2297	2281	2281	2281	2297	2281	2281	2281	2281	2281	2281	2281	2281	2281	2297	2312	2312	2312	2312	2312	2312	2312	2312	2312	2312	2312	2327	2327	2327	2343	2327	2327	2343	2327	2327	2327	2343	2343	2343	2343	2343	2343	2343	2343	2343	2343	2343	2343	2359	2359	2359	2359	2359	2359	2359	2359	2359	2359	2359	2343	2343	2359	2359	2359	2359	2359	2359	2376	2392	2376	2376	2392	2376	2376	2376	2359	2359	2359	2359	2343	2343	2343	2343	2343	2343	2327	2327	2312	2312	2312	1936	1936	1936	1936	1936	1925	1925	1925	1915	1915	1915	1915	1904	1904	1904	1894	1894	1883	1883	1883	1883	1873	1873	1863	1863	1863	1853	1853	1853	1853	1843	1843	1843	1843	1843	1833	1833	1824	1814	1804	1795	1795	1795	1795	1786	1786	1786	1777	1777	1777	1777	1768	1768	1768	1759	1759	1759	1759	1759	1750	1750	1741	1741	1732	1732	1732	1723	1723	1723	1715	1715	1706	1706	1698	1698	1698	1698	1690	1690	1690	1681	1681	1681	1673	1665	1665	1665	1665	1665	1665	1657	1657	1657	1649	1641	1641	1641	1641	1634	1634	1634	1634	1634	1626	1626	1626	1618	1618	1618	1611	1611	1611	1603	1603	1603	1596	1596	1596	1596	1589	1581	1581	1581	1574	1574	1574	1567	1567	1567	1567	1567	1567	1567	1567	1567	1574	1581	1581	1581	1804	1804	1804	1804	1804	1814	1804	1804	1804	1804	1804	1804	1804	1804	1804	1795	1795	1786	1786	1786	1777	1777	1768	1768	1768	1768	1768	1768	1759	1759	1759	1759	1759	1750	1750	1741	1741	1741	1723	1723	1723	1723	1723	1715	1715	1715	1715	1706	1706	1706	1698	1690	1690	1690	1690	1690	1690	1690	1690	1690	1690	1681	1681	1673	1673	1665	1665	1665	1665	1665	1657	1657	1657	1657	1649	1649	1649	1649	1641	1641	1641	1641	1641	1641	1634	1634	1634	1634	1626	1626	1626	1618	1618	1618	1611	1611	1611	1611	1603	1603	1603	1603	1596	1596	1596	1589	1589	1589	1589	1589	1589	1589	1581	1581	1574	1574	1567	1560	1560	1326	1326	1326	1321	1321	1316	1316	1316	1316	1316	1316	1321	1321	1321	1326	1326	1326	1326	1326	1326	1326	1326	1326	1326	1326	1326	1326	1331	1331	1331	1336	1336	1336	1342	1342	1342	1336	1336	1336	1336	1336	1331	1326	1321	1311	1301	1301	1296	1296	1291	1291	1291	1287	1287	1287	1287	1287	1291	1291	1287	1287	1287	1287	1291	1291	1291	1291	1291	1296	1296	1296	1296	1296	1296	1296	1296	1296	1296	1296	1185	1185	1185	1185	1185	1181	1181	1177	1177	1177	1173	1173	1173	1173	1173	1173	1169	1169	1165	1165	1165	1165	1165	1161	1161	1161	1161	1161	1161	1161	1161	1161	1165	1165	1165	1165	1165	1165	1169	1169	1173	1173	1173	1173	1177	1177	1177	1177	1177	1177	1177	1177	1177	1173	1173	1173	1342	1342	1342	1342	1336	1336	1336	1336	1336	1336	1336	1336	1336	1331	1326	1326	1321	1321	1321	1321	1316	1316	1316	1316	1316	1316	1316	1311	1311	1306	1301	1301	1301	1306	1306	1301	1301	1301	1301	1296	1296	1296	1296	1296	1296	1296	1296	1291	1287	1287	1287	1282	1282	1282	1282	1282	1277	1277	1277	1277	1272	1272	1272	1272	1268	1268	1268	1268	1185	1185	1177	1177	1173	1173	1173	1173	1173	1169	1169	1169	1169	1169	1165	1161	1165	1165	1161	1161	1161	1161	0	0	0	0	0	0	0	0	0	0	0	0	0	0	0	0	0	0
0	0	0	0	0	0	0	0	0	0	0	0	0	0	0	0	0	0	0	0	0	0	2281	2281	2281	2252	2252	2237	2252	2252	2252	2266	2266	2266	2281	2281	2281	2281	2281	2281	2281	2297	2297	2297	2297	2281	2281	2281	2281	2281	2281	2281	2281	2281	2281	2281	2281	2281	2281	2281	2281	2281	2281	2297	2297	2297	2297	2297	2297	2297	2297	2297	2297	2297	2297	2312	2312	2327	2327	2327	2327	2327	2327	2312	2312	2327	2327	2327	2327	2327	2327	2327	2327	2327	2327	2343	2343	2343	2343	2343	2343	2343	2343	2343	2343	2343	2343	2343	2343	2343	2343	2343	2359	2359	2359	2359	2376	2376	2359	2359	2376	2376	2359	2359	2359	2359	2359	2359	2359	2343	2343	2343	2343	2343	2343	2327	2312	2312	1958	1947	1947	1947	1936	1936	1936	1925	1925	1925	1915	1915	1915	1915	1904	1904	1894	1894	1894	1883	1883	1883	1873	1873	1863	1863	1863	1853	1853	1853	1853	1853	1843	1843	1843	1843	1833	1833	1824	1814	1804	1795	1795	1795	1795	1786	1786	1786	1777	1777	1777	1777	1768	1768	1768	1768	1759	1759	1759	1759	1759	1750	1741	1741	1741	1732	1732	1732	1723	1723	1715	1715	1706	1706	1706	1706	1698	1698	1698	1698	1690	1690	1681	1681	1673	1665	1665	1665	1665	1665	1665	1665	1657	1657	1657	1649	1641	1641	1641	1641	1641	1634	1634	1634	1634	1626	1626	1626	1618	1618	1618	1611	1611	1611	1603	1603	1596	1596	1596	1596	1589	1589	1589	1581	1574	1574	1574	1574	1567	1567	1567	1567	1574	1574	1574	1574	1574	1589	1581	1581	1814	1814	1814	1814	1814	1814	1804	1804	1804	1804	1804	1804	1804	1804	1804	1795	1795	1795	1795	1786	1786	1777	1777	1777	1768	1768	1768	1768	1759	1759	1759	1759	1759	1759	1750	1750	1741	1741	1732	1732	1723	1723	1723	1723	1723	1715	1715	1715	1715	1706	1698	1690	1690	1690	1690	1690	1690	1690	1690	1690	1690	1681	1681	1681	1673	1673	1665	1665	1665	1665	1657	1657	1657	1657	1649	1649	1649	1649	1649	1649	1641	1641	1641	1641	1641	1634	1634	1634	1626	1626	1626	1618	1618	1618	1618	1611	1611	1611	1603	1603	1603	1603	1603	1596	1596	1596	1596	1589	1589	1589	1589	1589	1581	1581	1581	1574	1574	1331	1326	1326	1326	1326	1326	1321	1321	1321	1321	1321	1321	1321	1321	1321	1326	1326	1326	1326	1326	1326	1326	1326	1326	1326	1326	1326	1326	1326	1331	1331	1331	1336	1336	1336	1342	1342	1342	1342	1342	1336	1336	1336	1326	1321	1311	1306	1301	1301	1296	1296	1291	1291	1291	1291	1291	1291	1291	1296	1296	1296	1291	1291	1291	1296	1296	1296	1296	1296	1296	1296	1296	1296	1296	1296	1296	1296	1296	1296	1296	1296	1185	1185	1185	1185	1185	1181	1181	1177	1177	1177	1177	1177	1173	1173	1173	1173	1169	1169	1169	1165	1165	1165	1165	1165	1161	1161	1161	1161	1161	1161	1161	1161	1165	1169	1169	1165	1165	1169	1173	1173	1173	1177	1177	1177	1177	1177	1181	1181	1177	1177	1181	1177	1177	1173	1173	1173	1342	1342	1342	1342	1336	1336	1336	1336	1336	1336	1336	1336	1336	1331	1326	1326	1321	1321	1321	1321	1316	1316	1316	1316	1316	1316	1316	1311	1311	1306	1301	1301	1301	1306	1306	1301	1301	1301	1301	1296	1296	1296	1296	1296	1296	1296	1296	1291	1291	1287	1287	1287	1282	1282	1282	1282	1277	1277	1277	1277	1277	1277	1272	1272	1268	1268	1268	1268	1185	1185	1181	1177	1177	1173	1173	1173	1173	1169	1169	1169	1169	1169	1165	1165	1165	1165	1161	1161	1165	1165	0	0	0	0	0	0	0	0	0	0	0	0	0	0	0	0	0	0
0	0	0	0	0	0	0	0	0	0	0	0	0	0	0	0	0	0	0	0	0	0	2281	2281	2208	2237	2237	2237	2237	2237	2252	2252	2252	2252	2266	2266	2266	2266	2266	2266	2281	2281	2281	2281	2281	2266	2266	2266	2281	2281	2281	2281	2281	2281	2281	2266	2266	2266	2266	2266	2266	2266	2266	2297	2297	2297	2297	2297	2297	2297	2297	2297	2297	2297	2297	2297	2297	2297	2312	2312	2297	2297	2312	2312	2312	2312	2312	2312	2312	2312	2312	2312	2312	2327	2327	2327	2327	2343	2343	2343	2343	2343	2343	2343	2327	2327	2343	2343	2343	2343	2343	2343	2343	2343	2343	2359	2359	2359	2359	2359	2359	2359	2359	2343	2343	2343	2343	2343	2343	2343	2343	2343	2343	2343	2343	2327	2327	2327	1958	1958	1947	1947	1936	1936	1936	1925	1925	1925	1925	1925	1915	1915	1915	1915	1904	1894	1894	1883	1883	1883	1883	1873	1873	1863	1863	1863	1853	1853	1853	1853	1843	1843	1843	1843	1833	1833	1824	1814	1804	1795	1795	1795	1795	1786	1786	1786	1786	1786	1777	1777	1777	1768	1768	1768	1768	1759	1759	1759	1759	1750	1750	1750	1741	1732	1732	1732	1723	1723	1723	1715	1715	1715	1706	1706	1698	1698	1698	1698	1690	1690	1690	1681	1673	1665	1665	1665	1665	1665	1665	1665	1657	1657	1657	1649	1641	1641	1641	1641	1641	1641	1634	1634	1634	1626	1626	1626	1618	1618	1618	1618	1611	1611	1603	1603	1596	1596	1596	1596	1596	1589	1589	1581	1574	1574	1574	1574	1567	1567	1567	1574	1574	1574	1574	1574	1581	1589	1589	1589	1596	1814	1814	1814	1814	1814	1804	1804	1804	1804	1804	1804	1804	1804	1804	1795	1795	1795	1795	1786	1786	1786	1777	1777	1768	1768	1768	1768	1768	1768	1768	1759	1759	1759	1759	1759	1750	1750	1732	1732	1732	1723	1723	1723	1723	1715	1715	1715	1715	1715	1706	1698	1690	1690	1690	1690	1690	1690	1690	1690	1690	1690	1690	1681	1681	1673	1673	1673	1665	1665	1657	1657	1657	1657	1649	1649	1649	1649	1649	1649	1641	1641	1641	1641	1641	1634	1634	1634	1634	1626	1626	1618	1618	1618	1618	1618	1611	1611	1603	1603	1603	1603	1603	1596	1596	1596	1596	1589	1589	1589	1589	1589	1589	1581	1581	1581	1581	1331	1326	1326	1326	1326	1326	1326	1321	1321	1321	1321	1321	1321	1321	1326	1326	1326	1326	1326	1326	1326	1326	1326	1326	1326	1331	1331	1326	1326	1331	1331	1331	1336	1336	1336	1342	1342	1342	1342	1342	1342	1336	1331	1321	1316	1311	1306	1301	1301	1296	1296	1296	1296	1291	1291	1291	1291	1296	1296	1301	1301	1296	1296	1296	1296	1296	1296	1296	1296	1296	1296	1296	1296	1296	1296	1296	1296	1296	1296	1296	1296	1189	1185	1185	1185	1185	1185	1181	1177	1177	1177	1177	1177	1173	1173	1173	1173	1173	1169	1169	1165	1165	1165	1169	1165	1165	1161	1161	1161	1165	1165	1165	1165	1169	1173	1169	1169	1169	1169	1173	1173	1173	1177	1177	1177	1177	1177	1177	1181	1181	1181	1181	1181	1177	1169	1169	1347	1347	1342	1342	1342	1336	1336	1336	1336	1336	1336	1336	1336	1336	1336	1326	1326	1321	1321	1321	1321	1321	1321	1321	1316	1316	1316	1316	1316	1316	1311	1306	1306	1306	1306	1306	1301	1301	1301	1301	1296	1296	1296	1296	1296	1296	1296	1296	1291	1291	1291	1291	1287	1287	1287	1282	1282	1282	1282	1277	1277	1277	1277	1272	1272	1268	1268	1268	1268	1189	1185	1185	1181	1177	1173	1173	1173	1169	1169	1165	1165	1169	1169	1165	1165	1165	1165	1161	1161	1165	1165	0	0	0	0	0	0	0	0	0	0	0	0	0	0	0	0	0	0
0	0	0	0	0	0	0	0	0	0	0	0	0	0	0	0	0	0	0	0	0	0	2208	2208	2208	2194	2194	2194	2237	2237	2237	2237	2237	2237	2252	2252	2237	2237	2237	2237	2237	2237	2237	2252	2252	2252	2252	2252	2266	2281	2266	2266	2266	2266	2266	2252	2252	2252	2252	2252	2252	2252	2252	2266	2281	2281	2281	2281	2281	2281	2281	2281	2281	2297	2297	2297	2297	2297	2281	2281	2281	2281	2297	2297	2297	2297	2297	2297	2312	2312	2312	2312	2312	2312	2312	2312	2327	2327	2343	2343	2343	2343	2327	2327	2327	2327	2343	2343	2343	2343	2343	2343	2343	2343	2343	2343	2359	2359	2343	2343	2343	2343	2343	2343	2343	2343	2343	2343	2343	2343	2343	2343	2343	2343	2343	2343	2343	2343	2343	1958	1958	1947	1947	1936	1936	1936	1925	1925	1925	1925	1925	1925	1915	1904	1904	1904	1894	1894	1883	1883	1883	1883	1873	1863	1863	1863	1863	1853	1853	1853	1853	1843	1843	1843	1843	1843	1824	1814	1804	1804	1795	1795	1795	1795	1795	1786	1786	1786	1786	1777	1777	1768	1768	1768	1768	1759	1759	1759	1759	1759	1750	1750	1741	1732	1732	1732	1723	1723	1723	1723	1715	1715	1706	1706	1698	1698	1698	1698	1690	1690	1690	1690	1681	1673	1673	1665	1665	1665	1665	1665	1657	1657	1657	1649	1641	1641	1649	1641	1641	1641	1634	1634	1634	1626	1626	1626	1618	1618	1618	1618	1611	1611	1603	1603	1603	1596	1596	1596	1596	1589	1589	1581	1581	1574	1574	1574	1574	1574	1574	1574	1574	1574	1574	1581	1581	1589	1596	1596	1596	1824	1824	1824	1824	1824	1814	1814	1814	1804	1804	1804	1804	1804	1804	1804	1795	1795	1795	1795	1786	1786	1777	1777	1768	1768	1768	1768	1768	1768	1768	1768	1759	1759	1759	1759	1750	1750	1741	1741	1732	1732	1723	1723	1723	1715	1715	1715	1715	1715	1715	1715	1698	1690	1690	1690	1690	1690	1690	1690	1690	1690	1690	1681	1681	1681	1681	1681	1673	1673	1665	1665	1657	1657	1657	1649	1649	1649	1649	1649	1649	1649	1649	1641	1641	1641	1634	1634	1634	1626	1626	1618	1618	1618	1618	1618	1618	1618	1611	1611	1603	1603	1603	1603	1596	1596	1596	1596	1596	1589	1589	1589	1589	1589	1589	1581	1581	1331	1331	1331	1326	1326	1326	1326	1321	1321	1321	1321	1321	1321	1321	1326	1326	1326	1326	1326	1326	1326	1326	1326	1331	1331	1331	1331	1331	1331	1331	1336	1336	1336	1342	1342	1342	1342	1342	1342	1342	1342	1336	1331	1321	1311	1306	1306	1306	1301	1301	1296	1296	1296	1296	1291	1296	1296	1296	1296	1301	1301	1296	1296	1296	1296	1296	1296	1296	1296	1296	1296	1296	1296	1296	1296	1296	1296	1301	1301	1296	1296	1189	1189	1185	1185	1185	1185	1185	1181	1177	1177	1177	1177	1177	1173	1173	1173	1173	1173	1169	1165	1165	1169	1169	1169	1165	1165	1165	1165	1169	1169	1165	1165	1169	1173	1173	1173	1173	1173	1173	1173	1177	1177	1177	1177	1177	1177	1177	1181	1185	1185	1185	1185	1181	1169	1169	1352	1347	1347	1342	1342	1342	1336	1336	1336	1336	1336	1336	1342	1336	1336	1331	1326	1321	1321	1321	1321	1321	1321	1321	1321	1316	1316	1316	1316	1316	1311	1311	1306	1306	1311	1306	1306	1306	1306	1301	1301	1296	1296	1296	1296	1296	1296	1296	1296	1296	1291	1291	1291	1291	1287	1287	1282	1282	1277	1277	1277	1277	1277	1277	1277	1268	1268	1268	1185	1185	1185	1185	1181	1181	1177	1177	1173	1169	1169	1165	1165	1169	1165	1165	1165	1165	1165	1157	1157	1161	1161	0	0	0	0	0	0	0	0	0	0	0	0	0	0	0	0	0	0
0	0	0	0	0	0	0	0	0	0	0	0	0	0	0	0	0	0	0	0	0	0	2208	2208	2208	2194	2194	2194	2223	2223	2223	2237	2237	2237	2237	2237	2237	2237	2223	2223	2223	2237	2237	2237	2237	2237	2252	2252	2266	2266	2266	2252	2252	2252	2252	2237	2237	2237	2237	2237	2237	2237	2237	2252	2252	2252	2252	2252	2252	2266	2266	2266	2281	2281	2281	2281	2281	2281	2281	2281	2281	2281	2281	2281	2281	2281	2297	2297	2297	2297	2297	2297	2297	2297	2297	2297	2312	2312	2312	2327	2327	2312	2312	2312	2312	2312	2343	2343	2327	2327	2327	2343	2343	2343	2343	2343	2343	2343	2327	2327	2327	2327	2343	2343	2343	2343	2343	2343	2343	2343	2343	2343	2343	2343	2343	2343	2343	1969	1969	1958	1958	1947	1947	1936	1936	1936	1925	1925	1925	1925	1925	1925	1915	1904	1904	1904	1894	1894	1883	1883	1883	1883	1883	1873	1863	1863	1863	1853	1853	1853	1853	1853	1843	1843	1843	1843	1833	1824	1804	1804	1804	1795	1795	1795	1795	1795	1795	1786	1786	1786	1777	1777	1768	1768	1768	1759	1759	1759	1759	1759	1750	1741	1741	1732	1732	1732	1732	1723	1723	1723	1723	1715	1715	1706	1706	1698	1698	1698	1698	1698	1690	1690	1681	1673	1673	1673	1665	1665	1665	1665	1657	1657	1657	1657	1649	1649	1649	1649	1649	1641	1634	1634	1634	1626	1626	1626	1626	1618	1618	1618	1618	1611	1603	1603	1603	1603	1596	1596	1596	1596	1589	1589	1581	1581	1574	1574	1574	1574	1574	1574	1574	1574	1574	1581	1581	1596	1596	1596	1596	1824	1824	1824	1824	1824	1824	1814	1814	1814	1804	1804	1804	1804	1804	1804	1795	1795	1795	1795	1786	1786	1777	1777	1777	1768	1768	1768	1768	1768	1768	1768	1768	1759	1759	1759	1759	1759	1741	1741	1732	1732	1723	1723	1723	1715	1715	1715	1715	1715	1715	1706	1698	1698	1698	1690	1690	1690	1690	1690	1690	1690	1690	1690	1690	1681	1681	1681	1681	1673	1673	1673	1665	1665	1657	1657	1657	1649	1649	1649	1649	1649	1649	1649	1641	1641	1641	1634	1634	1626	1626	1626	1618	1618	1618	1618	1618	1618	1618	1611	1611	1611	1603	1603	1603	1596	1596	1596	1596	1589	1589	1589	1589	1589	1589	1589	1589	1331	1331	1331	1331	1331	1331	1326	1326	1326	1326	1321	1321	1326	1326	1326	1326	1331	1331	1331	1331	1331	1331	1331	1331	1336	1336	1336	1336	1336	1336	1336	1336	1342	1342	1342	1342	1342	1347	1347	1347	1342	1336	1331	1321	1311	1306	1306	1306	1301	1301	1301	1301	1301	1296	1296	1296	1296	1301	1301	1301	1301	1296	1296	1296	1296	1296	1296	1296	1296	1296	1296	1296	1296	1296	1296	1296	1301	1301	1301	1296	1296	1189	1189	1185	1185	1185	1185	1185	1185	1181	1181	1181	1177	1177	1177	1177	1177	1177	1173	1173	1169	1169	1169	1169	1169	1169	1165	1165	1165	1169	1169	1165	1165	1173	1173	1173	1173	1173	1173	1177	1177	1177	1177	1177	1177	1177	1181	1185	1185	1185	1185	1189	1189	1185	1185	1352	1352	1352	1347	1342	1342	1342	1342	1342	1342	1336	1336	1342	1342	1336	1336	1336	1331	1326	1321	1321	1321	1321	1321	1321	1321	1316	1316	1316	1316	1316	1316	1311	1306	1306	1311	1306	1306	1306	1306	1306	1301	1301	1296	1296	1296	1296	1296	1296	1296	1296	1291	1291	1291	1291	1287	1287	1282	1282	1277	1277	1277	1277	1277	1277	1277	1272	1272	1272	1185	1185	1185	1185	1181	1181	1177	1177	1173	1169	1169	1165	1165	1169	1165	1165	1165	1165	1165	1153	1153	1157	1157	0	0	0	0	0	0	0	0	0	0	0	0	0	0	0	0	0	0
0	0	0	0	0	0	0	0	0	0	0	0	0	0	0	0	0	0	0	0	0	0	2208	2208	2208	2194	2194	2194	2194	2223	2223	2223	2223	2237	2223	2223	2223	2223	2223	2223	2223	2223	2223	2237	2223	2223	2237	2237	2252	2252	2252	2237	2237	2237	2237	2237	2237	2237	2237	2237	2237	2237	2237	2237	2237	2237	2252	2252	2252	2252	2252	2252	2252	2252	2266	2252	2252	2252	2281	2266	2266	2281	2281	2281	2281	2281	2297	2297	2297	2297	2297	2297	2297	2297	2297	2297	2297	2297	2312	2312	2312	2297	2297	2312	2312	2312	2343	2343	2312	2312	2327	2327	2327	2327	2327	2327	2327	2327	2327	2327	2327	2327	2343	2343	2343	2343	2343	2343	2343	2343	2343	2343	2343	2343	2343	2343	2343	1969	1969	1969	1958	1958	1947	1947	1936	1936	1925	1925	1925	1925	1925	1925	1915	1915	1904	1904	1894	1894	1883	1883	1883	1883	1883	1873	1863	1863	1863	1853	1853	1853	1853	1853	1843	1843	1843	1843	1833	1824	1814	1804	1804	1804	1804	1795	1795	1795	1795	1795	1795	1786	1777	1777	1768	1768	1768	1759	1759	1759	1759	1759	1750	1741	1741	1732	1732	1732	1732	1723	1723	1723	1723	1723	1715	1706	1706	1698	1698	1698	1698	1698	1690	1690	1681	1673	1673	1673	1665	1665	1665	1665	1657	1657	1657	1657	1649	1649	1649	1649	1649	1641	1634	1634	1634	1634	1634	1626	1626	1618	1618	1618	1618	1618	1603	1603	1603	1603	1596	1596	1596	1596	1596	1589	1589	1589	1581	1581	1574	1574	1574	1574	1574	1574	1581	1589	1596	1596	1596	1596	1603	1833	1833	1833	1833	1824	1824	1814	1814	1814	1814	1804	1804	1804	1804	1804	1795	1795	1795	1786	1786	1786	1786	1777	1777	1777	1768	1768	1768	1768	1768	1768	1768	1759	1759	1759	1759	1759	1741	1741	1732	1732	1732	1723	1723	1723	1715	1715	1715	1715	1715	1706	1706	1706	1698	1698	1690	1690	1690	1690	1690	1690	1690	1690	1690	1681	1681	1681	1681	1673	1673	1673	1665	1665	1657	1657	1657	1649	1649	1649	1649	1649	1649	1649	1641	1641	1641	1641	1641	1634	1626	1626	1626	1626	1618	1618	1618	1618	1618	1618	1618	1611	1611	1611	1603	1603	1603	1596	1596	1596	1596	1596	1596	1596	1596	1596	1331	1331	1331	1331	1331	1331	1331	1326	1326	1326	1326	1326	1326	1326	1326	1326	1331	1331	1331	1331	1331	1331	1336	1336	1336	1336	1342	1342	1342	1336	1336	1336	1342	1342	1342	1342	1342	1342	1347	1347	1347	1347	1342	1336	1321	1311	1306	1306	1306	1306	1301	1301	1301	1301	1301	1301	1301	1301	1301	1301	1301	1301	1296	1296	1296	1296	1296	1301	1301	1301	1301	1301	1301	1301	1301	1296	1296	1301	1301	1301	1296	1189	1189	1189	1189	1189	1189	1189	1185	1185	1181	1181	1181	1177	1177	1177	1177	1177	1177	1173	1173	1173	1169	1169	1169	1169	1169	1169	1165	1165	1169	1169	1169	1173	1173	1173	1173	1173	1173	1173	1177	1177	1177	1181	1181	1177	1181	1185	1185	1185	1189	1189	1189	1189	1189	1189	1352	1352	1358	1352	1347	1347	1342	1342	1342	1342	1342	1342	1342	1342	1336	1336	1336	1331	1326	1321	1321	1321	1321	1321	1321	1321	1316	1316	1321	1316	1316	1316	1316	1311	1311	1311	1311	1311	1306	1306	1306	1306	1301	1301	1301	1296	1296	1296	1296	1296	1296	1291	1291	1291	1291	1291	1291	1287	1282	1282	1282	1277	1277	1277	1277	1277	1272	1272	1272	1181	1181	1181	1181	1181	1181	1181	1177	1173	1173	1173	1169	1169	1169	1165	1165	1161	1161	1150	1142	1142	1131	1131	0	0	0	0	0	0	0	0	0	0	0	0	0	0	0	0	0	0
0	0	0	0	0	0	0	0	0	0	0	0	0	0	0	0	0	0	0	0	0	0	2194	2194	2194	2194	2194	2194	2194	2223	2223	2223	2223	2223	2223	2208	2208	2194	2194	2194	2223	2223	2223	2237	2223	2223	2223	2237	2237	2237	2237	2223	2223	2223	2223	2223	2223	2223	2223	2223	2223	2237	2237	2237	2237	2237	2237	2237	2237	2237	2237	2237	2252	2252	2252	2252	2252	2252	2252	2252	2252	2266	2281	2281	2266	2266	2266	2281	2281	2281	2281	2281	2297	2297	2297	2297	2297	2297	2297	2312	2312	2297	2297	2312	2312	2312	2343	2343	2312	2312	2327	2327	2327	2327	2312	2312	2312	2327	2312	2312	2312	2312	2327	2343	2343	2343	2343	2343	2343	2343	2343	2343	2343	2343	2343	2343	2343	1969	1969	1969	1969	1969	1958	1947	1947	1936	1936	1925	1925	1925	1925	1925	1925	1915	1915	1904	1904	1894	1894	1883	1883	1883	1883	1873	1863	1863	1863	1863	1853	1853	1853	1853	1843	1843	1843	1843	1833	1824	1814	1814	1804	1804	1804	1795	1795	1795	1795	1795	1795	1786	1786	1777	1768	1768	1768	1759	1759	1759	1759	1759	1759	1750	1741	1732	1732	1732	1732	1723	1723	1723	1723	1723	1715	1715	1706	1706	1698	1698	1698	1698	1690	1690	1681	1673	1673	1673	1673	1665	1665	1665	1665	1657	1657	1657	1657	1657	1649	1649	1649	1641	1641	1634	1634	1634	1634	1626	1626	1626	1626	1618	1618	1618	1603	1603	1603	1603	1596	1596	1596	1596	1596	1589	1589	1589	1581	1581	1581	1574	1574	1581	1574	1574	1581	1589	1596	1596	1596	1596	1603	1833	1833	1833	1833	1833	1824	1824	1814	1814	1814	1804	1804	1804	1804	1804	1804	1795	1795	1786	1786	1786	1786	1786	1777	1777	1768	1768	1768	1768	1768	1768	1768	1759	1759	1759	1759	1759	1750	1741	1741	1732	1732	1723	1723	1723	1723	1715	1715	1715	1715	1706	1706	1706	1698	1698	1690	1690	1690	1690	1690	1690	1690	1690	1690	1690	1690	1681	1681	1681	1673	1673	1665	1665	1657	1657	1657	1657	1649	1649	1649	1649	1649	1649	1649	1649	1649	1649	1641	1641	1634	1626	1626	1626	1618	1618	1626	1618	1618	1618	1618	1618	1618	1611	1603	1603	1603	1596	1596	1596	1596	1596	1596	1596	1596	1596	1331	1331	1331	1331	1331	1331	1331	1331	1331	1326	1326	1326	1326	1326	1326	1326	1331	1331	1331	1336	1336	1336	1336	1336	1336	1342	1342	1342	1342	1342	1342	1342	1342	1342	1342	1342	1342	1347	1347	1347	1347	1347	1347	1342	1321	1311	1306	1306	1306	1306	1306	1306	1306	1306	1301	1301	1301	1301	1301	1301	1301	1301	1296	1296	1301	1301	1301	1301	1301	1301	1301	1301	1301	1301	1301	1301	1301	1301	1301	1301	1296	1189	1189	1189	1189	1189	1189	1189	1189	1185	1185	1185	1181	1181	1177	1177	1177	1177	1177	1173	1173	1173	1173	1173	1173	1173	1169	1169	1169	1169	1169	1169	1169	1173	1173	1173	1173	1173	1173	1173	1177	1177	1181	1181	1181	1181	1185	1185	1189	1189	1193	1193	1193	1193	1193	1352	1352	1352	1358	1358	1347	1347	1342	1342	1342	1342	1342	1342	1342	1342	1336	1336	1336	1331	1331	1326	1321	1321	1321	1321	1321	1321	1321	1321	1316	1311	1311	1311	1311	1306	1306	1311	1311	1311	1306	1306	1311	1306	1301	1301	1301	1301	1301	1296	1296	1296	1296	1296	1296	1296	1291	1291	1291	1287	1282	1282	1282	1277	1277	1277	1277	1277	1272	1272	1272	1181	1181	1181	1181	1181	1181	1181	1181	1177	1173	1173	1169	1169	1169	1157	1157	1153	1150	1150	1127	1127	1127	1127	0	0	0	0	0	0	0	0	0	0	0	0	0	0	0	0	0	0
0	0	0	0	0	0	0	0	0	0	0	0	0	0	0	0	0	0	0	0	0	0	2194	2194	2194	2194	2194	2194	2194	2194	2194	2208	2208	2223	2208	2208	2194	2194	2194	2194	2194	2194	2223	2223	2223	2223	2223	2223	2223	2223	2223	2223	2223	2223	2223	2223	2223	2223	2223	2223	2223	2223	2223	2223	2223	2223	2237	2237	2237	2237	2237	2237	2237	2237	2237	2237	2237	2237	2252	2252	2252	2252	2266	2266	2252	2252	2266	2266	2266	2266	2266	2281	2281	2281	2297	2297	2297	2297	2297	2297	2297	2297	2297	2297	2297	2297	2297	2312	2312	2312	2327	2327	2327	2327	2312	2312	2312	2312	2297	2297	2312	2312	2327	2312	2312	2327	2327	2327	2327	2327	2312	2312	2327	2327	2327	2327	2327	1936	1936	1958	1958	1969	1969	1958	1958	1958	1936	1936	1925	1925	1925	1925	1925	1915	1915	1915	1904	1894	1894	1894	1883	1883	1883	1873	1873	1863	1863	1863	1863	1853	1853	1853	1843	1843	1843	1833	1833	1824	1814	1814	1804	1804	1804	1804	1804	1795	1795	1795	1795	1786	1786	1777	1768	1768	1768	1768	1768	1759	1759	1759	1759	1750	1741	1741	1732	1732	1732	1732	1732	1732	1723	1723	1715	1715	1706	1706	1706	1698	1698	1698	1698	1698	1690	1681	1681	1673	1673	1673	1673	1665	1665	1665	1665	1657	1657	1657	1657	1649	1649	1649	1641	1641	1634	1634	1634	1626	1626	1626	1626	1626	1618	1618	1611	1603	1603	1603	1603	1603	1596	1596	1596	1596	1589	1589	1581	1581	1581	1581	1581	1581	1581	1581	1589	1589	1596	1596	1596	1596	1603	1833	1833	1833	1833	1833	1833	1824	1824	1814	1814	1814	1814	1814	1804	1804	1804	1804	1795	1795	1786	1786	1786	1786	1777	1777	1768	1768	1768	1768	1768	1768	1768	1759	1759	1759	1759	1759	1750	1741	1741	1732	1732	1732	1723	1723	1723	1723	1715	1715	1715	1715	1706	1706	1706	1698	1698	1698	1690	1690	1690	1690	1690	1690	1690	1690	1690	1681	1681	1681	1673	1673	1665	1665	1665	1657	1657	1657	1657	1657	1649	1649	1649	1649	1649	1649	1649	1649	1641	1641	1634	1634	1626	1626	1626	1626	1626	1618	1618	1618	1618	1618	1618	1611	1611	1603	1603	1596	1596	1596	1596	1596	1596	1596	1596	1596	1331	1331	1331	1331	1331	1331	1331	1331	1331	1326	1326	1326	1326	1326	1326	1326	1331	1331	1331	1336	1336	1336	1336	1336	1342	1342	1342	1342	1342	1342	1342	1342	1347	1347	1347	1342	1347	1347	1347	1347	1347	1352	1347	1342	1321	1311	1306	1306	1306	1306	1306	1306	1306	1306	1306	1306	1306	1306	1306	1306	1306	1306	1301	1301	1301	1301	1301	1301	1301	1301	1301	1301	1301	1301	1301	1301	1301	1301	1301	1193	1193	1189	1189	1189	1189	1189	1189	1189	1189	1189	1185	1185	1185	1181	1181	1181	1181	1181	1177	1173	1173	1173	1173	1173	1173	1173	1173	1173	1169	1169	1173	1173	1173	1173	1173	1173	1177	1177	1177	1177	1177	1177	1181	1185	1181	1181	1185	1189	1189	1189	1197	1197	1197	1193	1193	1352	1352	1352	1358	1358	1352	1352	1347	1347	1347	1342	1342	1342	1342	1342	1336	1336	1336	1331	1331	1326	1326	1326	1326	1321	1321	1321	1321	1321	1316	1311	1311	1311	1311	1306	1306	1311	1311	1311	1311	1311	1311	1306	1306	1306	1301	1301	1301	1296	1296	1296	1296	1296	1296	1296	1296	1296	1296	1287	1287	1282	1282	1282	1282	1277	1277	1277	1272	1272	1272	1181	1181	1181	1181	1181	1181	1185	1181	1177	1173	1173	1169	1169	1165	1157	1157	1157	1127	1127	1127	1127	1127	1127	0	0	0	0	0	0	0	0	0	0	0	0	0	0	0	0	0	0
0	0	0	0	0	0	0	0	0	0	0	0	0	0	0	0	0	0	0	0	0	0	2181	2181	2194	2194	2194	2194	2194	2194	2194	2208	2208	2208	2194	2194	2194	2194	2194	2194	2194	2194	2194	2194	2208	2208	2208	2208	2208	2208	2208	2208	2208	2208	2208	2208	2223	2223	2223	2223	2208	2223	2223	2223	2223	2223	2223	2223	2223	2223	2237	2237	2223	2223	2223	2223	2237	2237	2237	2237	2252	2252	2252	2252	2237	2237	2252	2252	2252	2252	2252	2266	2266	2281	2281	2281	2281	2297	2297	2297	2297	2297	2281	2281	2297	2297	2297	2297	2297	2312	2312	2312	2297	2297	2297	2297	2297	2297	2297	2297	2297	2297	2312	2297	2297	2312	2312	2312	2312	2312	2312	2312	2327	2312	2312	2312	2312	1936	1936	1958	1958	1969	1969	1958	1958	1947	1947	1936	1936	1925	1925	1925	1925	1915	1915	1915	1904	1894	1894	1894	1883	1883	1883	1883	1873	1873	1873	1863	1863	1853	1853	1853	1843	1843	1843	1833	1833	1833	1824	1814	1814	1804	1804	1804	1804	1804	1795	1795	1795	1786	1786	1777	1777	1768	1768	1768	1768	1768	1759	1759	1759	1750	1750	1741	1732	1732	1732	1732	1732	1732	1723	1723	1715	1715	1706	1706	1706	1706	1698	1698	1698	1698	1690	1690	1681	1681	1681	1681	1673	1665	1665	1665	1657	1657	1657	1657	1657	1649	1649	1649	1641	1641	1641	1641	1634	1634	1634	1626	1626	1626	1618	1618	1618	1611	1611	1611	1603	1603	1603	1596	1596	1596	1589	1589	1589	1589	1581	1581	1581	1581	1581	1581	1589	1589	1596	1596	1596	1596	1603	1843	1843	1833	1833	1833	1833	1824	1824	1824	1814	1814	1814	1814	1804	1804	1804	1804	1804	1795	1795	1795	1786	1786	1786	1786	1777	1777	1768	1768	1768	1768	1768	1768	1759	1759	1759	1759	1750	1741	1741	1732	1732	1732	1732	1723	1723	1723	1723	1715	1715	1715	1715	1706	1706	1706	1698	1698	1698	1698	1690	1690	1690	1690	1690	1690	1690	1681	1681	1681	1681	1673	1673	1665	1665	1665	1657	1657	1657	1657	1649	1649	1649	1649	1649	1649	1649	1649	1649	1641	1634	1634	1626	1626	1626	1626	1626	1618	1618	1618	1618	1618	1618	1611	1611	1603	1603	1596	1596	1596	1596	1596	1596	1596	1596	1342	1336	1336	1336	1336	1331	1331	1331	1331	1331	1326	1326	1326	1326	1331	1331	1331	1331	1331	1336	1336	1336	1336	1336	1342	1342	1342	1342	1342	1342	1342	1342	1347	1347	1347	1347	1347	1347	1347	1347	1347	1352	1352	1342	1336	1321	1311	1306	1306	1306	1306	1306	1306	1306	1306	1306	1306	1306	1306	1306	1306	1306	1306	1301	1301	1301	1301	1301	1301	1301	1301	1301	1301	1301	1301	1301	1301	1301	1301	1301	1193	1193	1193	1193	1193	1193	1189	1189	1189	1189	1189	1185	1185	1185	1185	1181	1181	1181	1181	1177	1177	1173	1173	1173	1173	1173	1173	1173	1173	1173	1173	1173	1173	1173	1173	1173	1173	1177	1177	1177	1181	1181	1181	1189	1189	1185	1185	1189	1193	1193	1193	1202	1197	1197	1193	1193	1358	1358	1358	1358	1358	1358	1358	1352	1352	1352	1347	1347	1342	1342	1342	1336	1336	1336	1336	1331	1331	1326	1326	1326	1326	1326	1326	1326	1326	1326	1321	1316	1316	1316	1316	1316	1316	1316	1311	1311	1311	1311	1311	1306	1306	1306	1301	1301	1296	1296	1296	1296	1296	1296	1296	1296	1296	1291	1287	1287	1282	1282	1282	1282	1277	1277	1277	1272	1272	1272	1272	1181	1181	1181	1185	1185	1185	1185	1177	1173	1169	1169	1169	1169	1165	1165	1131	1127	1123	1123	1123	1123	1123	0	0	0	0	0	0	0	0	0	0	0	0	0	0	0	0	0	0
0	0	0	0	0	0	0	0	0	0	0	0	0	0	0	0	0	0	0	0	0	0	2181	2181	2181	2181	2181	2181	2194	2194	2194	2194	2208	2194	2194	2194	2194	2181	2181	2181	2181	2181	2181	2181	2181	2181	2194	2194	2194	2194	2194	2208	2208	2208	2208	2208	2208	2208	2208	2208	2208	2208	2208	2208	2208	2223	2223	2223	2223	2223	2237	2237	2223	2223	2223	2223	2223	2223	2237	2237	2237	2237	2237	2237	2223	2223	2237	2237	2237	2252	2252	2266	2266	2266	2266	2266	2281	2281	2281	2281	2281	2281	2281	2281	2281	2281	2281	2297	2297	2297	2297	2297	2297	2297	2281	2281	2297	2297	2297	2297	2297	2297	2297	2297	2297	2297	2297	2297	2312	2297	2297	2297	2312	2312	2312	2312	2312	0	1936	1958	1958	1969	1969	1958	1958	1947	1947	1936	1936	1925	1925	1925	1925	1915	1915	1915	1904	1904	1894	1894	1894	1883	1883	1883	1883	1873	1873	1873	1863	1863	1853	1853	1853	1843	1843	1843	1843	1833	1824	1824	1814	1814	1804	1804	1804	1804	1804	1795	1795	1795	1786	1786	1777	1777	1768	1768	1768	1768	1759	1759	1759	1759	1750	1750	1741	1741	1732	1732	1732	1732	1723	1723	1715	1715	1715	1706	1706	1706	1706	1706	1698	1698	1690	1690	1690	1690	1690	1681	1673	1665	1665	1665	1657	1657	1657	1657	1657	1657	1657	1649	1649	1641	1641	1641	1641	1634	1634	1626	1626	1626	1626	1626	1618	1618	1611	1611	1611	1603	1603	1596	1596	1596	1589	1589	1589	1589	1589	1581	1581	1589	1589	1589	1589	1596	1596	1596	1596	1596	1603	1843	1843	1833	1833	1833	1833	1833	1824	1824	1814	1814	1814	1814	1804	1804	1804	1804	1804	1795	1795	1795	1795	1786	1786	1786	1777	1777	1768	1768	1768	1768	1768	1768	1759	1759	1759	1759	1750	1741	1741	1732	1732	1732	1732	1723	1723	1723	1723	1715	1715	1715	1715	1715	1706	1706	1706	1698	1698	1698	1690	1690	1690	1690	1690	1690	1690	1690	1681	1681	1681	1673	1673	1673	1665	1665	1657	1657	1657	1657	1657	1649	1649	1649	1649	1649	1649	1649	1649	1641	1634	1634	1634	1626	1626	1626	1626	1626	1626	1626	1626	1618	1618	1611	1611	1611	1603	1603	1603	1603	1603	1596	1596	1596	1596	1342	1342	1342	1336	1336	1336	1331	1331	1331	1331	1326	1326	1331	1331	1331	1331	1331	1331	1331	1336	1336	1336	1336	1342	1342	1342	1342	1342	1342	1347	1347	1347	1347	1347	1347	1347	1347	1347	1347	1347	1352	1352	1352	1342	1336	1326	1316	1311	1311	1311	1306	1306	1306	1306	1306	1311	1306	1306	1306	1306	1306	1306	1306	1301	1301	1301	1301	1301	1301	1301	1301	1301	1301	1301	1306	1301	1301	1301	1301	1301	1193	1193	1193	1193	1193	1193	1193	1193	1193	1193	1189	1189	1189	1189	1185	1185	1185	1185	1181	1177	1177	1177	1173	1173	1173	1173	1173	1173	1173	1173	1173	1173	1173	1173	1173	1173	1177	1177	1181	1181	1181	1181	1185	1189	1189	1189	1189	1193	1197	1202	1206	1210	1210	1206	1206	1358	1358	1358	1358	1358	1358	1358	1358	1352	1352	1352	1347	1347	1347	1342	1342	1342	1336	1336	1336	1331	1331	1326	1326	1326	1326	1326	1326	1326	1326	1326	1321	1321	1321	1316	1316	1316	1316	1316	1311	1311	1311	1311	1311	1306	1306	1306	1301	1301	1296	1296	1296	1296	1296	1296	1296	1296	1296	1291	1291	1287	1287	1287	1282	1282	1282	1282	1277	1272	1272	1272	1272	1185	1181	1181	1185	1185	1185	1181	1181	1177	1173	1173	1173	1169	1165	1165	1127	1127	1123	1123	1123	1123	1123	0	0	0	0	0	0	0	0	0	0	0	0	0	0	0	0	0	0
0	0	0	0	0	0	0	0	0	0	0	0	0	0	0	0	0	0	0	0	0	0	2167	2167	2181	2181	2181	2181	2181	2181	2194	2194	2194	2194	2194	2194	2194	2181	2181	2181	2181	2181	2181	2181	2181	2181	2181	2181	2194	2194	2194	2194	2194	2194	2194	2194	2194	2194	2194	2194	2208	2208	2208	2208	2208	2223	2223	2223	2223	2237	2237	2237	2223	2223	2223	2223	2223	2223	2237	2237	2237	2237	2237	2223	2223	2223	2223	2223	2237	2237	2237	2237	2237	2252	2252	2252	2252	2252	2252	2266	2266	2266	2266	2266	2266	2281	2281	2281	2281	2281	2297	2297	2281	2281	2281	2281	2281	2281	2281	2297	2281	2281	2281	2281	2281	2281	2281	2297	2297	2297	2297	2297	2297	2297	2297	2297	2297	2297	1958	1958	1958	1969	1969	1958	1958	1958	1947	1936	1936	1925	1925	1925	1925	1925	1915	1915	1904	1904	1904	1894	1894	1894	1883	1883	1883	1873	1873	1873	1863	1863	1853	1853	1853	1853	1843	1843	1843	1833	1824	1824	1824	1814	1814	1804	1804	1804	1804	1795	1795	1795	1786	1786	1777	1777	1777	1768	1768	1768	1768	1768	1759	1759	1759	1750	1741	1741	1732	1732	1732	1732	1723	1723	1723	1715	1715	1715	1715	1706	1706	1706	1698	1698	1698	1690	1690	1690	1690	1681	1673	1665	1665	1665	1657	1657	1657	1657	1657	1657	1657	1657	1649	1649	1641	1641	1641	1634	1634	1634	1626	1626	1626	1626	1618	1618	1611	1611	1611	1603	1603	1603	1596	1596	1596	1596	1589	1589	1589	1581	1581	1589	1589	1589	1589	1596	1596	1603	1603	1603	1603	1843	1843	1833	1833	1833	1833	1833	1824	1824	1814	1814	1814	1814	1814	1804	1804	1804	1804	1795	1795	1795	1795	1795	1786	1786	1786	1777	1768	1768	1768	1768	1768	1768	1759	1759	1759	1759	1750	1741	1741	1741	1732	1732	1732	1723	1723	1723	1723	1723	1715	1715	1715	1715	1715	1706	1706	1706	1706	1706	1698	1690	1690	1690	1690	1690	1690	1690	1681	1681	1681	1673	1673	1673	1665	1665	1665	1657	1657	1657	1657	1649	1649	1649	1649	1649	1649	1649	1649	1641	1641	1634	1634	1634	1626	1626	1626	1626	1626	1626	1626	1626	1618	1618	1618	1611	1611	1603	1603	1603	1603	1603	1596	1596	1342	1342	1342	1342	1342	1336	1336	1336	1331	1331	1331	1331	1331	1331	1331	1331	1331	1331	1336	1336	1336	1336	1336	1342	1342	1342	1342	1342	1342	1347	1347	1347	1347	1347	1347	1347	1347	1347	1347	1347	1352	1352	1352	1352	1347	1342	1326	1316	1311	1311	1311	1306	1306	1306	1311	1311	1311	1311	1311	1311	1311	1311	1311	1311	1306	1306	1306	1301	1301	1301	1301	1301	1301	1306	1306	1306	1306	1306	1306	1306	1306	1193	1193	1193	1193	1193	1193	1193	1193	1193	1193	1189	1189	1189	1189	1185	1185	1185	1185	1181	1181	1177	1177	1177	1177	1177	1177	1177	1177	1177	1177	1177	1177	1177	1177	1177	1177	1177	1177	1181	1181	1181	1185	1185	1189	1197	1197	1197	1202	1206	1210	1210	1214	1210	1210	1210	1358	1358	1358	1358	1363	1358	1358	1358	1358	1352	1352	1347	1347	1347	1342	1342	1342	1336	1336	1336	1336	1331	1331	1331	1331	1326	1326	1326	1326	1326	1321	1321	1321	1321	1316	1316	1316	1316	1316	1316	1316	1316	1311	1311	1311	1311	1306	1301	1301	1301	1296	1296	1296	1296	1296	1296	1296	1296	1291	1291	1277	1277	1287	1287	1287	1282	1282	1282	1277	1272	1272	1272	1185	1185	1185	1185	1185	1185	1185	1177	1177	1173	1173	1173	1169	1165	1165	1127	1127	1127	1127	1123	1123	1123	0	0	0	0	0	0	0	0	0	0	0	0	0	0	0	0	0	0
0	0	0	0	0	0	0	0	0	0	0	0	0	0	0	0	0	0	0	0	0	0	2140	2140	2140	2140	2167	2167	2167	2167	2181	2181	2194	2181	2181	2181	2181	2167	2167	2167	2181	2181	2181	2181	2181	2181	2181	2181	2181	2181	2194	2194	2194	2194	2194	2194	2194	2194	2194	2194	2194	2194	2194	2208	2208	2208	2223	2223	2223	2223	2223	2223	2223	2223	2223	2223	2223	2223	2223	2223	2223	2223	2223	2223	2208	2208	2208	2208	2223	2223	2223	2223	2223	2237	2237	2237	2237	2237	2237	2237	2237	2237	2252	2252	2252	2252	2252	2252	2252	2266	2266	2266	2266	2266	2266	2266	2266	2266	2266	2281	2281	2281	2281	2281	2281	2281	2281	2281	2297	2281	2281	2297	2297	2297	2297	2281	2281	2281	1947	1947	1958	1969	1969	1958	1958	1958	1947	1947	1936	1936	1925	1925	1925	1925	1925	1925	1915	1915	1915	1894	1894	1894	1883	1883	1883	1873	1873	1873	1863	1863	1853	1853	1853	1853	1843	1843	1843	1833	1824	1824	1824	1814	1814	1814	1804	1804	1804	1795	1795	1795	1786	1786	1777	1777	1777	1768	1768	1768	1768	1759	1759	1759	1759	1750	1750	1741	1741	1732	1732	1732	1732	1723	1723	1723	1715	1715	1715	1715	1706	1706	1706	1698	1698	1698	1690	1690	1690	1690	1673	1673	1665	1665	1657	1657	1657	1657	1657	1657	1657	1657	1657	1649	1649	1649	1649	1641	1634	1634	1634	1626	1626	1626	1626	1618	1618	1618	1611	1603	1603	1603	1596	1596	1596	1596	1589	1589	1589	1589	1589	1589	1589	1589	1589	1596	1596	1603	1603	1603	1603	1843	1843	1833	1833	1833	1833	1833	1824	1824	1814	1814	1814	1814	1804	1804	1804	1804	1804	1795	1795	1795	1795	1795	1786	1786	1786	1786	1777	1768	1768	1768	1768	1759	1759	1759	1759	1759	1750	1741	1741	1741	1741	1732	1732	1732	1723	1723	1723	1723	1715	1715	1715	1715	1715	1706	1706	1706	1706	1706	1698	1698	1698	1690	1690	1690	1690	1690	1681	1681	1681	1681	1673	1673	1673	1665	1665	1665	1657	1657	1657	1657	1657	1649	1649	1649	1649	1649	1641	1641	1641	1634	1634	1634	1626	1626	1626	1626	1626	1626	1626	1626	1618	1618	1618	1618	1611	1611	1611	1603	1603	1603	1603	1603	1342	1342	1342	1342	1342	1342	1336	1336	1336	1331	1331	1331	1331	1331	1336	1336	1336	1336	1336	1336	1336	1342	1342	1342	1342	1342	1342	1342	1342	1347	1347	1347	1347	1347	1347	1347	1347	1352	1352	1352	1352	1347	1347	1352	1347	1342	1326	1316	1311	1311	1311	1311	1306	1306	1311	1311	1311	1311	1311	1311	1311	1316	1316	1311	1306	1306	1306	1301	1301	1301	1301	1306	1306	1306	1311	1311	1311	1306	1306	1306	1306	1193	1193	1193	1193	1193	1193	1193	1193	1193	1193	1193	1189	1189	1189	1185	1185	1185	1185	1185	1181	1181	1181	1177	1177	1177	1177	1177	1177	1177	1177	1177	1177	1177	1177	1177	1181	1181	1181	1189	1189	1189	1189	1189	1193	1197	1197	1197	1206	1206	1210	1214	1214	1363	1363	1358	1358	1358	1358	1358	1358	1358	1358	1358	1352	1352	1352	1347	1347	1342	1342	1342	1342	1336	1336	1336	1336	1331	1331	1331	1331	1331	1331	1331	1326	1326	1321	1321	1321	1321	1316	1316	1316	1316	1316	1316	1316	1316	1311	1311	1311	1306	1306	1301	1301	1301	1296	1296	1296	1296	1296	1296	1296	1296	1291	1291	1277	1277	1287	1287	1287	1282	1282	1282	1277	1272	1272	1272	1185	1185	1185	1189	1189	1185	1185	1177	1173	1173	1173	1173	1165	1165	1142	1127	1127	1127	1127	1123	1123	1123	0	0	0	0	0	0	0	0	0	0	0	0	0	0	0	0	0	0
0	0	0	0	0	0	0	0	0	0	0	0	0	0	0	0	0	0	0	0	0	0	2140	2140	2140	2140	2153	2153	2153	2167	2167	2181	2181	2181	2181	2181	2194	2167	2167	2167	2167	2167	2167	2167	2167	2167	2167	2167	2167	2181	2181	2181	2181	2181	2181	2181	2181	2181	2181	2181	2181	2181	2194	2194	2194	2194	2208	2208	2223	2223	2223	2223	2223	2223	2223	2223	2223	2223	2223	2223	2223	2223	2223	2223	2208	2194	2208	2208	2208	2208	2208	2208	2223	2223	2223	2223	2223	2223	2237	2237	2237	2223	2223	2223	2237	2237	2237	2237	2237	2252	2252	2266	2252	2252	2266	2266	2252	2252	2252	2266	2266	2266	2281	2281	2281	2281	2266	2266	2281	2266	2266	2281	2281	2281	2281	2281	2281	2281	1947	1947	1958	1969	1969	1958	1958	1958	1958	1947	1936	1936	1936	1925	1925	1925	1925	1925	1915	1915	1915	1904	1904	1904	1904	1883	1883	1873	1873	1873	1863	1863	1853	1853	1853	1853	1843	1843	1843	1843	1824	1824	1824	1824	1814	1814	1804	1804	1804	1804	1795	1795	1795	1786	1777	1777	1777	1768	1768	1768	1768	1759	1759	1759	1759	1750	1750	1750	1741	1741	1741	1732	1732	1732	1723	1723	1723	1715	1715	1715	1715	1715	1706	1706	1698	1698	1698	1698	1690	1690	1690	1673	1665	1665	1665	1665	1657	1657	1657	1657	1657	1657	1657	1649	1649	1649	1649	1641	1641	1634	1634	1634	1626	1626	1626	1618	1618	1618	1611	1603	1603	1603	1596	1596	1596	1596	1596	1589	1589	1589	1589	1589	1589	1596	1596	1596	1603	1603	1603	1603	1603	1843	1843	1843	1843	1833	1833	1833	1824	1824	1814	1814	1814	1814	1804	1804	1804	1804	1804	1795	1795	1795	1795	1795	1795	1786	1786	1786	1777	1777	1768	1768	1768	1759	1759	1759	1759	1759	1750	1741	1741	1741	1741	1741	1732	1732	1732	1732	1723	1723	1723	1715	1715	1715	1715	1715	1706	1706	1706	1706	1698	1698	1698	1698	1690	1690	1690	1690	1681	1681	1681	1681	1681	1673	1673	1673	1673	1665	1665	1657	1657	1657	1657	1649	1649	1649	1649	1649	1641	1641	1641	1641	1641	1641	1634	1634	1626	1626	1626	1626	1626	1626	1618	1618	1618	1618	1611	1611	1611	1603	1603	1603	1603	1347	1342	1342	1342	1342	1342	1342	1336	1336	1336	1336	1336	1336	1336	1336	1336	1336	1336	1336	1342	1342	1342	1342	1342	1342	1342	1342	1342	1342	1342	1347	1347	1347	1347	1347	1352	1352	1352	1352	1352	1352	1352	1347	1347	1347	1336	1331	1326	1321	1316	1316	1316	1311	1311	1311	1311	1311	1311	1311	1311	1316	1316	1316	1316	1316	1311	1311	1311	1306	1306	1306	1306	1306	1306	1311	1311	1311	1311	1311	1311	1306	1197	1197	1197	1197	1197	1197	1197	1197	1197	1197	1193	1193	1189	1189	1189	1185	1185	1185	1185	1185	1185	1181	1181	1181	1181	1177	1177	1177	1177	1177	1177	1177	1177	1181	1181	1181	1185	1185	1185	1189	1193	1193	1193	1193	1197	1202	1202	1202	1210	1210	1214	1219	1219	1363	1363	1363	1363	1363	1358	1358	1358	1358	1358	1358	1352	1352	1352	1347	1347	1342	1342	1342	1342	1336	1336	1336	1336	1336	1331	1331	1331	1331	1331	1331	1331	1331	1321	1321	1321	1316	1316	1316	1316	1316	1316	1316	1316	1316	1311	1311	1311	1306	1306	1301	1301	1301	1301	1301	1296	1296	1296	1296	1296	1296	1291	1291	1291	1291	1287	1287	1287	1282	1282	1282	1277	1272	1272	1272	1189	1189	1189	1189	1189	1185	1185	1177	1173	1173	1173	1169	1169	1142	1131	1127	1127	1127	1123	1123	1123	1123	0	0	0	0	0	0	0	0	0	0	0	0	0	0	0	0	0	0
0	0	0	0	0	0	0	0	0	0	0	0	0	0	0	0	0	0	0	0	0	0	2140	2140	2140	2140	2140	2153	2153	2153	2167	2167	2181	2181	2181	2181	2181	2167	2167	2153	2153	2167	2167	2153	2153	2153	2153	2153	2167	2167	2167	2167	2167	2167	2167	2181	2181	2181	2181	2181	2181	2181	2181	2181	2181	2194	2208	2208	2208	2208	2208	2223	2223	2223	2223	2223	2223	2223	2223	2223	2223	2223	2223	2208	2208	2194	2194	2194	2208	2208	2194	2194	2194	2208	2208	2208	2208	2208	2223	2223	2223	2223	2223	2223	2223	2223	2223	2237	2237	2237	2237	2237	2237	2237	2237	2237	2237	2237	2237	2237	2252	2252	2252	2252	2281	2252	2252	2252	2252	2252	2252	2266	2252	2252	2266	2266	2266	2266	2266	1947	1947	1958	1958	1958	1958	1958	1958	1947	1947	1936	1936	1925	1925	1925	1925	1915	1915	1915	1915	1904	1904	1904	1894	1894	1894	1883	1883	1883	1873	1863	1863	1863	1853	1853	1853	1843	1843	1843	1833	1833	1833	1824	1824	1814	1814	1804	1804	1804	1804	1795	1795	1795	1786	1786	1786	1768	1768	1768	1768	1768	1759	1759	1759	1759	1750	1750	1750	1741	1741	1732	1732	1732	1723	1723	1723	1715	1715	1715	1715	1715	1715	1706	1706	1698	1698	1698	1698	1690	1690	1673	1665	1665	1665	1665	1657	1657	1657	1657	1657	1657	1657	1657	1649	1649	1649	1641	1641	1634	1634	1634	1626	1626	1626	1618	1618	1618	1618	1611	1611	1603	1596	1596	1596	1596	1596	1589	1589	1589	1589	1589	1589	1596	1596	1596	1603	1603	1603	1603	1843	1843	1843	1843	1843	1833	1833	1833	1833	1824	1824	1824	1824	1814	1814	1804	1804	1804	1804	1795	1795	1795	1795	1795	1795	1795	1795	1795	1777	1777	1777	1768	1768	1768	1759	1759	1759	1759	1750	1741	1741	1741	1741	1741	1741	1732	1732	1732	1723	1723	1723	1715	1715	1715	1715	1715	1715	1706	1706	1706	1698	1698	1698	1690	1690	1690	1690	1690	1690	1690	1681	1681	1681	1681	1673	1673	1673	1673	1665	1657	1657	1657	1657	1657	1649	1649	1649	1649	1641	1641	1641	1641	1641	1641	1641	1634	1626	1626	1626	1626	1626	1626	1618	1618	1618	1618	1618	1611	1611	1611	1611	1611	1347	1347	1342	1342	1342	1342	1342	1342	1342	1336	1336	1336	1336	1336	1336	1336	1336	1336	1342	1342	1342	1342	1342	1342	1342	1342	1342	1342	1342	1347	1347	1347	1347	1347	1347	1347	1352	1352	1352	1352	1352	1352	1352	1347	1347	1342	1331	1331	1326	1321	1321	1316	1316	1311	1311	1311	1311	1311	1311	1311	1311	1316	1316	1316	1316	1316	1311	1311	1311	1306	1306	1306	1306	1311	1311	1311	1311	1311	1311	1311	1311	1206	1197	1197	1202	1202	1202	1197	1197	1197	1197	1197	1197	1193	1193	1189	1189	1189	1185	1185	1185	1185	1185	1185	1185	1181	1181	1181	1177	1177	1177	1177	1177	1177	1181	1181	1185	1185	1185	1189	1189	1189	1193	1193	1193	1193	1202	1202	1206	1206	1210	1214	1214	1223	1223	1363	1363	1363	1363	1363	1363	1363	1358	1358	1358	1358	1352	1352	1352	1347	1347	1347	1347	1342	1342	1336	1336	1336	1336	1336	1336	1336	1336	1331	1331	1331	1331	1326	1321	1321	1321	1316	1316	1316	1316	1316	1316	1316	1316	1316	1311	1311	1311	1306	1301	1301	1301	1301	1301	1301	1301	1301	1296	1296	1296	1296	1291	1291	1291	1291	1291	1291	1287	1287	1282	1282	1277	1272	1272	1189	1189	1189	1189	1189	1189	1185	1185	1185	1173	1173	1169	1169	1142	1134	1131	1127	1127	1127	1123	1123	1123	1123	0	0	0	0	0	0	0	0	0	0	0	0	0	0	0	0	0	0
0	0	0	0	0	0	0	0	0	0	0	0	0	0	0	0	0	0	0	0	0	0	2140	2140	2127	2127	2140	2140	2140	2140	2153	2167	2167	2167	2153	2153	2167	2153	2140	2140	2140	2140	2140	2140	2140	2140	2140	2140	2140	2153	2153	2153	2153	2153	2153	2153	2167	2167	2167	2167	2167	2167	2181	2181	2181	2181	2194	2194	2208	2208	2208	2208	2208	2208	2208	2208	2208	2208	2208	2208	2194	2194	2194	2194	2194	2181	2181	2181	2194	2194	2194	2194	2194	2194	2194	2208	2208	2208	2223	2223	2223	2223	2223	2223	2223	2223	2223	2223	2223	2223	2237	2237	2237	2237	2237	2237	2223	2223	2237	2237	2237	2252	2252	2252	2266	2252	2237	2237	2237	2237	2237	2252	2237	2237	2237	2252	2237	2237	2237	1947	1947	1958	1958	1958	1958	1958	1958	1947	1947	1936	1936	1925	1925	1925	1925	1915	1915	1915	1915	1904	1904	1904	1894	1894	1894	1883	1883	1883	1873	1873	1873	1873	1853	1853	1853	1853	1843	1843	1833	1833	1833	1833	1824	1824	1814	1814	1804	1804	1804	1795	1795	1795	1786	1786	1786	1777	1768	1768	1768	1768	1759	1759	1759	1759	1759	1759	1750	1741	1741	1732	1732	1732	1723	1723	1723	1723	1723	1723	1723	1723	1723	1715	1706	1706	1698	1698	1698	1690	1690	1681	1673	1665	1665	1665	1657	1657	1665	1657	1657	1657	1657	1657	1649	1649	1649	1641	1641	1634	1634	1634	1634	1626	1626	1618	1618	1618	1618	1611	1611	1603	1603	1603	1596	1596	1596	1596	1596	1589	1589	1589	1589	1596	1596	1596	1596	1603	1611	1611	1843	1843	1843	1843	1843	1833	1833	1833	1833	1833	1824	1824	1824	1814	1814	1814	1804	1804	1804	1795	1795	1795	1795	1795	1795	1795	1795	1795	1786	1777	1777	1777	1768	1768	1768	1759	1759	1759	1750	1750	1741	1741	1741	1741	1741	1732	1732	1732	1732	1723	1723	1723	1723	1723	1715	1715	1715	1715	1706	1706	1698	1698	1698	1690	1690	1690	1690	1690	1690	1690	1681	1681	1681	1681	1681	1681	1681	1673	1673	1665	1665	1657	1657	1657	1649	1649	1649	1649	1649	1649	1641	1641	1641	1641	1641	1634	1634	1634	1626	1626	1626	1626	1618	1618	1618	1618	1618	1611	1611	1618	1618	1611	1347	1347	1347	1347	1342	1342	1342	1342	1342	1342	1336	1336	1336	1336	1336	1336	1336	1342	1342	1342	1342	1342	1342	1342	1342	1342	1347	1347	1347	1347	1347	1347	1347	1347	1347	1347	1352	1352	1352	1352	1352	1352	1352	1347	1342	1336	1331	1326	1326	1321	1321	1316	1316	1311	1311	1311	1311	1311	1311	1316	1316	1316	1316	1321	1321	1321	1316	1311	1311	1311	1311	1311	1311	1311	1311	1316	1316	1316	1316	1316	1316	1206	1202	1202	1202	1202	1202	1202	1202	1202	1202	1202	1202	1197	1193	1193	1189	1189	1185	1185	1185	1185	1185	1185	1185	1185	1185	1181	1181	1181	1181	1181	1181	1181	1185	1185	1189	1189	1189	1189	1189	1193	1197	1197	1197	1197	1202	1206	1210	1210	1214	1219	1219	1219	1368	1368	1368	1363	1363	1363	1363	1363	1358	1358	1358	1358	1358	1352	1352	1352	1347	1347	1347	1342	1342	1342	1336	1336	1336	1336	1336	1336	1336	1331	1326	1326	1326	1326	1321	1321	1321	1316	1316	1316	1316	1316	1316	1316	1316	1316	1311	1311	1306	1301	1301	1301	1301	1301	1301	1301	1301	1301	1296	1296	1296	1296	1296	1291	1291	1291	1291	1291	1287	1287	1282	1282	1277	1277	1277	1189	1189	1189	1189	1189	1185	1185	1185	1181	1169	1169	1169	1169	1142	1134	1131	1127	1127	1127	1123	1123	1123	1123	0	0	0	0	0	0	0	0	0	0	0	0	0	0	0	0	0	0
0	0	0	0	0	0	0	0	0	0	0	0	0	0	0	0	0	0	0	0	0	0	2127	2127	2127	2127	2140	2140	2140	2140	2140	2153	2153	2153	2153	2153	2167	2153	2140	2140	2140	2140	2140	2140	2127	2127	2140	2140	2140	2140	2140	2140	2153	2153	2153	2153	2167	2153	2153	2167	2167	2167	2167	2181	2167	2167	2181	2181	2194	2181	2181	2181	2181	2181	2181	2194	2181	2181	2194	2194	2194	2194	2194	2194	2181	2181	2181	2181	2181	2181	2181	2181	2194	2194	2194	2194	2208	2208	2208	2208	2208	2208	2208	2223	2223	2223	2223	2223	2223	2223	2223	2223	2223	2223	2237	2237	2223	2223	2223	2237	2237	2237	2237	2237	2266	2237	2237	2237	2237	2237	2237	2237	2237	2237	2237	2237	2237	2237	2237	1947	1947	1958	1958	1969	1969	1958	1958	1958	1947	1947	1936	1936	1936	1936	1925	1925	1915	1915	1915	1904	1904	1904	1894	1894	1894	1883	1883	1883	1873	1873	1873	1873	1863	1863	1853	1853	1843	1843	1833	1833	1833	1833	1833	1824	1814	1814	1804	1804	1804	1804	1795	1795	1795	1786	1786	1777	1768	1768	1768	1768	1759	1759	1759	1759	1759	1759	1750	1750	1741	1741	1732	1732	1732	1723	1723	1723	1723	1723	1723	1723	1723	1715	1706	1706	1698	1698	1698	1690	1690	1681	1673	1673	1665	1665	1665	1665	1665	1665	1657	1657	1657	1657	1657	1649	1649	1649	1641	1641	1634	1634	1634	1634	1626	1618	1618	1618	1618	1611	1611	1603	1603	1603	1603	1596	1596	1596	1589	1589	1589	1596	1596	1596	1596	1596	1596	1603	1611	1611	1618	1618	1843	1843	1843	1833	1833	1833	1833	1833	1833	1824	1824	1814	1814	1814	1804	1804	1804	1795	1795	1795	1795	1795	1795	1795	1795	1795	1786	1786	1777	1777	1768	1768	1768	1768	1759	1759	1750	1750	1750	1750	1741	1741	1741	1732	1732	1732	1732	1723	1723	1723	1723	1723	1715	1715	1715	1715	1706	1706	1698	1698	1698	1698	1690	1690	1690	1690	1690	1690	1681	1681	1681	1681	1681	1681	1681	1673	1673	1665	1665	1665	1665	1657	1657	1649	1649	1649	1649	1649	1649	1649	1649	1641	1641	1634	1634	1634	1626	1626	1626	1626	1618	1618	1618	1618	1618	1618	1618	1618	1618	0	1347	1347	1347	1347	1347	1347	1347	1342	1342	1342	1342	1336	1336	1342	1336	1342	1342	1342	1342	1342	1342	1342	1342	1342	1347	1347	1347	1347	1347	1347	1347	1347	1347	1347	1352	1352	1352	1352	1352	1358	1352	1352	1347	1342	1336	1331	1326	1326	1321	1321	1321	1321	1321	1316	1316	1316	1316	1316	1316	1316	1316	1321	1321	1321	1321	1321	1316	1316	1311	1311	1311	1311	1311	1311	1311	1316	1316	1316	1316	1316	1316	1206	1202	1202	1206	1206	1206	1202	1202	1202	1202	1206	1202	1197	1197	1193	1189	1189	1189	1189	1185	1185	1185	1185	1185	1185	1185	1185	1181	1181	1181	1181	1181	1181	1185	1185	1189	1189	1189	1193	1193	1197	1202	1202	1202	1206	1206	1206	1210	1214	1214	1219	1223	1223	1368	1368	1368	1368	1363	1363	1363	1363	1358	1358	1358	1358	1358	1352	1352	1352	1342	1342	1342	1342	1342	1342	1336	1336	1336	1336	1336	1336	1331	1331	1326	1326	1326	1326	1321	1321	1321	1316	1316	1316	1316	1316	1316	1316	1316	1316	1311	1311	1306	1301	1301	1301	1301	1301	1301	1301	1301	1296	1296	1296	1296	1296	1296	1296	1296	1296	1291	1291	1291	1291	1287	1282	1277	1277	1277	1189	1189	1189	1189	1189	1185	1185	1185	1181	1169	1157	1157	1146	1138	1134	1131	1127	1127	1127	1123	1123	1123	1123	0	0	0	0	0	0	0	0	0	0	0	0	0	0	0	0	0	0
0	0	0	0	0	0	0	0	0	0	0	0	0	0	0	0	0	0	0	0	0	0	2127	2127	2127	2127	2127	2127	2127	2127	2127	2140	2140	2153	2153	2153	2167	2127	2127	2127	2127	2127	2127	2127	2127	2127	2127	2127	2127	2127	2127	2127	2127	2140	2140	2153	2153	2153	2153	2153	2153	2153	2167	2167	2153	2153	2167	2167	2181	2181	2167	2167	2181	2181	2181	2181	2181	2181	2181	2194	2181	2181	2181	2181	2181	2181	2181	2181	2181	2181	2181	2181	2194	2194	2194	2194	2194	2194	2208	2208	2208	2208	2208	2223	2223	2223	2223	2208	2208	2208	2208	2208	2208	2208	2208	2223	2223	2223	2223	2237	2237	2237	2237	2237	2237	2237	2223	2223	2223	2223	2223	2237	2223	2223	2223	2237	2237	2237	2223	2223	1958	1958	1958	1969	1969	1958	1958	1958	1958	1947	1947	1936	1936	1936	1936	1925	1925	1925	1915	1915	1904	1904	1894	1894	1894	1883	1883	1883	1873	1873	1873	1873	1863	1863	1853	1853	1843	1843	1833	1833	1833	1833	1833	1824	1814	1814	1804	1804	1804	1804	1804	1804	1795	1795	1786	1777	1777	1768	1768	1768	1759	1759	1759	1759	1759	1759	1759	1750	1750	1741	1732	1732	1732	1723	1723	1723	1723	1723	1723	1723	1723	1715	1715	1706	1698	1698	1698	1690	1690	1681	1681	1673	1665	1665	1665	1665	1665	1665	1657	1657	1657	1657	1657	1649	1649	1649	1649	1641	1641	1634	1634	1634	1626	1626	1618	1618	1618	1611	1611	1611	1603	1603	1603	1596	1596	1596	1596	1596	1596	1596	1596	1596	1596	1603	1603	1611	1618	1618	1618	1843	1843	1843	1843	1833	1833	1833	1833	1833	1833	1824	1824	1814	1814	1814	1804	1804	1804	1795	1795	1795	1795	1795	1795	1795	1795	1795	1786	1786	1786	1777	1768	1768	1768	1768	1759	1759	1750	1750	1750	1750	1750	1741	1741	1741	1732	1732	1732	1723	1723	1723	1723	1723	1715	1715	1715	1715	1715	1706	1698	1698	1698	1698	1698	1690	1690	1690	1690	1690	1690	1681	1681	1681	1681	1681	1681	1681	1681	1673	1673	1665	1665	1657	1657	1657	1649	1649	1649	1649	1649	1649	1649	1649	1649	1641	1641	1634	1634	1626	1626	1626	1618	1618	1618	1618	1618	1618	1618	1618	1618	0	1347	1347	1347	1347	1347	1347	1347	1347	1342	1342	1342	1342	1342	1342	1342	1342	1342	1342	1342	1342	1342	1342	1347	1347	1347	1347	1347	1347	1347	1347	1347	1347	1347	1347	1352	1352	1352	1352	1352	1358	1352	1352	1342	1336	1331	1331	1326	1326	1321	1321	1321	1321	1321	1316	1316	1316	1316	1316	1316	1321	1321	1321	1321	1321	1321	1321	1316	1316	1316	1311	1311	1311	1316	1316	1316	1316	1316	1316	1316	1316	1210	1210	1210	1210	1206	1206	1206	1206	1206	1206	1206	1206	1202	1197	1197	1193	1189	1189	1189	1189	1189	1185	1185	1185	1185	1185	1185	1185	1185	1185	1185	1181	1185	1185	1185	1185	1189	1189	1189	1193	1193	1197	1206	1206	1210	1210	1210	1210	1223	1223	1219	1219	1223	1223	1368	1374	1368	1368	1368	1363	1363	1363	1358	1358	1358	1358	1358	1352	1352	1352	1342	1342	1342	1342	1342	1342	1336	1336	1336	1336	1336	1336	1331	1331	1326	1326	1326	1326	1321	1321	1321	1316	1316	1316	1316	1316	1316	1321	1316	1316	1316	1311	1311	1306	1301	1301	1301	1301	1301	1301	1301	1296	1296	1296	1296	1296	1296	1296	1296	1296	1291	1291	1291	1291	1287	1287	1282	1282	1282	1189	1189	1189	1189	1185	1185	1185	1181	1181	1165	1165	1142	1142	1134	1134	1131	1127	1127	1127	1123	1123	1123	1123	0	0	0	0	0	0	0	0	0	0	0	0	0	0	0	0	0	0
0	0	0	0	0	0	0	0	0	0	0	0	0	0	0	0	0	0	0	0	0	0	2127	2127	2127	2127	2127	2114	2114	2114	2114	2127	2127	2127	2140	2140	2140	2127	2127	2114	2114	2114	2114	2114	2114	2114	2127	2127	2127	2127	2127	2127	2127	2127	2127	2140	2140	2140	2140	2140	2140	2140	2140	2140	2153	2153	2167	2167	2167	2167	2167	2167	2167	2167	2167	2167	2181	2181	2181	2181	2181	2181	2181	2181	2167	2167	2167	2181	2181	2181	2181	2181	2194	2194	2194	2194	2194	2194	2194	2208	2208	2208	2208	2208	2208	2208	2194	2194	2194	2194	2194	2194	2194	2208	2208	2208	2208	2208	2208	2223	2223	2223	2237	2223	2223	2223	2223	2223	2223	2223	2223	2223	2223	2223	2223	2223	2223	2223	2223	2223	1958	1958	1969	1969	1969	1969	1969	1958	1958	1958	1947	1947	1936	1936	1936	1925	1925	1925	1925	1915	1915	1904	1904	1904	1894	1894	1883	1883	1883	1873	1873	1873	1873	1863	1863	1853	1853	1853	1833	1833	1833	1833	1833	1833	1814	1814	1814	1804	1804	1804	1804	1804	1795	1795	1786	1777	1777	1777	1768	1768	1768	1768	1768	1759	1759	1759	1759	1750	1750	1741	1741	1732	1732	1732	1732	1723	1723	1723	1723	1723	1723	1715	1715	1706	1698	1698	1698	1698	1690	1690	1681	1681	1673	1665	1665	1665	1665	1665	1665	1657	1657	1657	1657	1649	1649	1649	1649	1649	1641	1641	1634	1634	1626	1626	1626	1626	1618	1618	1618	1611	1603	1603	1603	1603	1596	1596	1596	1596	1596	1596	1596	1596	1596	1603	1611	1611	1618	1618	1626	1843	1843	1843	1843	1843	1843	1833	1833	1833	1833	1833	1824	1824	1824	1824	1804	1804	1804	1804	1804	1804	1795	1795	1795	1795	1795	1795	1786	1786	1786	1777	1768	1768	1768	1768	1759	1759	1750	1750	1750	1750	1750	1750	1741	1741	1741	1732	1732	1723	1723	1723	1723	1723	1715	1715	1715	1715	1715	1715	1698	1698	1706	1698	1698	1698	1690	1690	1690	1690	1690	1681	1681	1681	1681	1681	1681	1681	1681	1681	1681	1673	1673	1665	1657	1657	1649	1649	1649	1649	1649	1649	1649	1649	1649	1641	1641	1641	1634	1634	1626	1626	1618	1618	1618	1618	1618	1618	1618	1618	1618	1347	1347	1347	1347	1347	1347	1347	1347	1347	1342	1342	1342	1342	1342	1342	1342	1342	1342	1342	1342	1342	1342	1342	1347	1347	1347	1347	1347	1347	1347	1347	1347	1347	1347	1347	1352	1352	1352	1352	1352	1358	1352	1352	1342	1336	1331	1326	1326	1326	1326	1321	1321	1321	1321	1321	1321	1321	1321	1316	1316	1321	1321	1321	1321	1321	1321	1321	1316	1316	1316	1316	1316	1316	1316	1316	1316	1316	1316	1316	1316	1316	1210	1210	1210	1210	1210	1210	1210	1206	1206	1206	1206	1206	1202	1202	1197	1197	1189	1189	1189	1189	1189	1189	1189	1189	1189	1185	1185	1185	1185	1185	1185	1181	1185	1185	1185	1185	1189	1189	1189	1193	1197	1202	1206	1210	1219	1219	1223	1227	1227	1232	1232	1232	1232	1374	1374	1374	1374	1374	1368	1368	1363	1363	1363	1363	1363	1358	1358	1352	1352	1352	1347	1347	1347	1342	1342	1342	1336	1336	1336	1336	1336	1336	1331	1331	1331	1326	1326	1331	1326	1321	1321	1321	1321	1321	1321	1321	1321	1321	1321	1321	1316	1316	1311	1306	1306	1306	1301	1301	1301	1301	1301	1296	1296	1296	1296	1296	1296	1296	1296	1296	1296	1296	1291	1291	1287	1287	1282	1282	1193	1189	1189	1189	1189	1185	1185	1185	1181	1181	1181	1142	1142	1138	1134	1131	1131	1127	1127	1127	1123	1123	1123	1123	0	0	0	0	0	0	0	0	0	0	0	0	0	0	0	0	0	0
0	0	0	0	0	0	0	0	0	0	0	0	0	0	0	0	0	0	0	0	0	0	2127	2114	2114	2114	2114	2101	2101	2101	2101	2114	2114	2114	2127	2127	2127	2114	2114	2114	2114	2101	2101	2114	2114	2114	2114	2127	2127	2127	2127	2114	2114	2127	2127	2127	2127	2127	2127	2127	2140	2127	2127	2127	2127	2127	2127	2153	2167	2167	2167	2167	2167	2167	2167	2167	2167	2181	2181	2181	2181	2181	2181	2167	2167	2167	2167	2167	2167	2181	2181	2181	2194	2194	2194	2194	2194	2194	2194	2194	2194	2194	2194	2194	2181	2181	2181	2181	2181	2181	2181	2181	2181	2194	2194	2194	2194	2194	2194	2194	2194	2194	2194	2223	2223	2223	2223	2223	2223	2223	2223	2223	2223	2223	2223	2223	2223	2223	2208	1958	1958	1969	1969	1969	1969	1969	1969	1969	1958	1958	1958	1947	1936	1936	1936	1925	1925	1925	1925	1915	1915	1915	1904	1904	1904	1894	1894	1894	1883	1883	1883	1873	1873	1873	1863	1863	1853	1853	1843	1833	1833	1833	1833	1824	1814	1814	1814	1804	1804	1804	1804	1804	1795	1795	1786	1786	1777	1777	1768	1768	1768	1768	1768	1759	1759	1759	1759	1750	1750	1750	1741	1741	1732	1732	1732	1732	1732	1723	1723	1723	1723	1715	1715	1706	1706	1698	1698	1698	1690	1690	1690	1690	1681	1673	1673	1665	1665	1665	1665	1665	1657	1657	1657	1657	1657	1649	1649	1649	1641	1641	1641	1634	1626	1626	1626	1626	1618	1618	1618	1611	1611	1603	1603	1603	1596	1596	1596	1596	1596	1596	1596	1596	1603	1603	1611	1618	1626	1626	1626	1843	1843	1843	1843	1843	1843	1843	1843	1833	1833	1833	1833	1833	1824	1824	1814	1814	1804	1804	1804	1804	1804	1804	1795	1795	1795	1795	1795	1795	1786	1786	1768	1768	1768	1768	1768	1768	1750	1750	1750	1750	1750	1750	1750	1741	1741	1741	1732	1732	1723	1723	1723	1723	1715	1715	1715	1715	1715	1715	1706	1706	1706	1706	1698	1698	1698	1690	1690	1690	1690	1690	1690	1681	1681	1681	1681	1681	1681	1681	1681	1673	1673	1665	1657	1657	1657	1649	1649	1649	1649	1649	1649	1649	1649	1641	1641	1641	1634	1634	1634	1626	1626	1618	1618	1618	1618	1618	1618	1618	0	1347	1347	1347	1347	1347	1347	1347	1347	1347	1347	1347	1347	1342	1342	1342	1342	1342	1342	1342	1342	1342	1347	1347	1347	1347	1347	1347	1352	1352	1352	1352	1352	1352	1352	1352	1352	1352	1352	1358	1358	1358	1352	1352	1342	1331	1326	1326	1326	1326	1326	1326	1326	1321	1321	1321	1321	1321	1321	1321	1321	1321	1321	1321	1321	1321	1321	1321	1321	1321	1321	1321	1321	1321	1321	1316	1316	1316	1316	1316	1316	1316	1210	1210	1210	1210	1210	1210	1206	1206	1206	1206	1206	1206	1202	1202	1202	1202	1193	1193	1189	1189	1189	1189	1189	1189	1189	1189	1189	1185	1185	1185	1185	1185	1185	1185	1185	1189	1189	1193	1193	1197	1202	1202	1210	1214	1223	1227	1227	1232	1232	1236	1236	1236	1374	1374	1374	1374	1374	1368	1368	1363	1363	1363	1363	1363	1363	1363	1363	1358	1358	1358	1347	1347	1347	1347	1347	1342	1342	1342	1342	1336	1336	1336	1331	1331	1331	1331	1331	1331	1326	1326	1321	1321	1321	1321	1321	1321	1326	1321	1321	1321	1321	1321	1316	1311	1311	1311	1306	1301	1301	1301	1301	1301	1301	1296	1296	1296	1296	1296	1296	1296	1296	1296	1291	1291	1291	1287	1287	1287	1193	1189	1189	1189	1185	1185	1185	1181	1169	1169	1169	1142	1138	1138	1134	1131	1131	1127	1127	1127	1127	1123	1123	1123	0	0	0	0	0	0	0	0	0	0	0	0	0	0	0	0	0	0
0	0	0	0	0	0	0	0	0	0	0	0	0	0	0	0	0	0	0	0	0	0	2114	2101	2101	2101	2101	2101	2101	2101	2101	2101	2101	2114	2114	2114	2127	2114	2101	2101	2101	2101	2101	2101	2114	2114	2114	2114	2127	2127	2127	2114	2114	2114	2127	2127	2127	2127	2127	2127	2127	2127	2127	2127	2127	2127	2127	2127	2127	2153	2153	2153	2153	2153	2167	2167	2167	2167	2181	2181	2181	2167	2167	2167	2167	2167	2167	2167	2167	2181	2181	2181	2194	2181	2181	2194	2181	2181	2181	2167	2167	2181	2167	2167	2167	2167	2167	2167	2167	2167	2181	2181	2181	2181	2181	2181	2181	2181	2181	2194	2181	2181	2181	2194	2194	2194	2208	2208	2208	2208	2208	2223	2223	2208	2208	2208	2208	2208	2208	1958	1958	1958	1969	1969	1969	1969	1969	1969	1969	1958	1958	1958	1947	1947	1936	1936	1925	1925	1925	1925	1915	1915	1904	1904	1904	1894	1894	1894	1883	1883	1883	1883	1873	1873	1863	1863	1853	1853	1843	1843	1833	1833	1833	1824	1824	1824	1814	1804	1804	1804	1804	1804	1804	1795	1795	1786	1786	1777	1777	1768	1768	1768	1768	1759	1759	1759	1759	1750	1750	1750	1741	1741	1732	1732	1732	1732	1732	1723	1723	1723	1723	1715	1715	1706	1706	1698	1698	1698	1690	1690	1690	1690	1681	1681	1673	1673	1673	1665	1665	1665	1665	1665	1665	1657	1657	1657	1649	1649	1641	1641	1641	1634	1626	1626	1626	1626	1626	1618	1618	1611	1611	1611	1603	1603	1603	1603	1596	1596	1596	1596	1596	1596	1603	1603	1611	1618	1626	1626	1634	1843	1843	1843	1843	1843	1843	1843	1843	1843	1833	1833	1833	1833	1833	1824	1824	1814	1814	1804	1804	1804	1804	1804	1804	1804	1804	1795	1795	1795	1795	1786	1786	1777	1777	1777	1768	1768	1759	1759	1759	1750	1750	1750	1750	1750	1741	1741	1732	1732	1723	1723	1723	1723	1723	1715	1715	1715	1715	1715	1706	1706	1706	1706	1698	1698	1698	1698	1690	1690	1690	1690	1690	1690	1681	1681	1681	1681	1681	1681	1681	1673	1673	1673	1657	1657	1657	1657	1649	1649	1649	1649	1649	1649	1649	1641	1641	1641	1641	1634	1634	1626	1626	1626	1626	1626	1626	1626	1626	1626	0	1347	1347	1347	1352	1352	1347	1347	1347	1347	1347	1347	1347	1342	1342	1342	1342	1342	1342	1342	1347	1347	1347	1347	1347	1347	1347	1352	1352	1352	1352	1352	1352	1352	1352	1352	1352	1358	1358	1358	1358	1363	1358	1358	1342	1331	1331	1326	1326	1326	1326	1326	1326	1326	1321	1321	1321	1321	1321	1326	1326	1326	1326	1326	1326	1326	1326	1326	1321	1321	1321	1321	1321	1321	1321	1321	1321	1321	1316	1316	1316	1210	1210	1214	1210	1210	1210	1210	1206	1206	1206	1206	1206	1206	1206	1202	1202	1197	1193	1193	1193	1193	1189	1189	1189	1189	1189	1189	1189	1185	1185	1185	1185	1185	1189	1189	1189	1189	1193	1197	1197	1202	1206	1210	1219	1223	1232	1232	1236	1236	1236	1240	1240	1240	1374	1374	1374	1374	1374	1368	1368	1363	1363	1363	1363	1363	1363	1363	1363	1358	1358	1358	1352	1352	1347	1347	1347	1342	1342	1342	1342	1336	1336	1336	1336	1336	1331	1331	1331	1331	1326	1326	1326	1321	1321	1321	1321	1326	1326	1321	1321	1321	1321	1321	1316	1311	1311	1311	1306	1306	1306	1306	1301	1301	1301	1301	1301	1301	1301	1301	1296	1296	1296	1296	1291	1291	1291	1291	1287	1287	1287	1189	1189	1189	1185	1185	1185	1181	1181	1150	1146	1142	1138	1138	1134	1134	1127	1127	1127	1127	1123	1123	1123	1123	0	0	0	0	0	0	0	0	0	0	0	0	0	0	0	0	0	0
0	0	0	0	0	0	0	0	0	0	0	0	0	0	0	0	0	0	0	0	0	0	2101	2101	2101	2088	2088	2088	2088	2088	2101	2101	2101	2101	2114	2114	2114	2101	2101	2101	2101	2101	2101	2101	2114	2114	2114	2114	2114	2127	2114	2114	2114	2114	2114	2127	2127	2127	2127	2127	2127	2127	2127	2127	2127	2127	2127	2127	2127	2127	2127	2140	2153	2140	2140	2140	2140	2167	2167	2167	2167	2167	2153	2153	2167	2167	2167	2167	2167	2181	2181	2181	2181	2181	2181	2181	2181	2167	2167	2167	2167	2167	2167	2167	2167	2167	2167	2167	2167	2167	2167	2167	2167	2181	2181	2181	2181	2181	2181	2181	2181	2181	2181	2181	2181	2181	2181	2181	2181	2194	2208	2208	2208	2208	2208	2208	2208	2208	2208	1958	1958	1958	1969	1969	1969	1969	1969	1969	1969	1958	1958	1958	1947	1947	1947	1936	1925	1925	1925	1925	1925	1915	1904	1904	1904	1904	1894	1894	1883	1883	1883	1883	1873	1873	1873	1863	1853	1853	1843	1843	1843	1833	1833	1824	1824	1824	1814	1814	1804	1804	1804	1804	1804	1795	1795	1795	1786	1786	1786	1777	1768	1768	1768	1768	1759	1759	1759	1759	1750	1750	1741	1741	1732	1732	1732	1732	1732	1723	1723	1723	1723	1715	1715	1706	1706	1698	1698	1698	1698	1690	1690	1690	1690	1681	1681	1681	1673	1673	1673	1665	1665	1665	1665	1657	1657	1657	1649	1649	1641	1641	1641	1641	1634	1634	1634	1634	1626	1626	1618	1611	1611	1611	1603	1603	1603	1603	1603	1603	1603	1603	1603	1603	1603	1611	1618	1618	1626	1626	1634	1853	1853	1853	1853	1853	1843	1843	1843	1843	1843	1833	1833	1833	1833	1833	1824	1814	1814	1814	1814	1814	1804	1804	1804	1804	1804	1795	1795	1795	1795	1786	1786	1777	1777	1777	1768	1768	1759	1759	1759	1759	1759	1750	1750	1750	1750	1750	1741	1732	1732	1723	1723	1723	1723	1723	1723	1723	1723	1715	1715	1715	1715	1715	1706	1706	1706	1698	1698	1690	1690	1690	1690	1690	1681	1681	1681	1681	1681	1681	1681	1681	1673	1673	1657	1657	1657	1657	1649	1649	1649	1649	1649	1649	1649	1641	1641	1649	1641	1634	1634	1626	1626	1626	1626	1626	1626	1626	1626	1626	0	1347	1347	1347	1347	1352	1347	1347	1347	1347	1347	1347	1347	1342	1342	1347	1342	1342	1347	1347	1347	1347	1347	1347	1352	1352	1352	1358	1358	1358	1352	1352	1352	1352	1352	1352	1358	1358	1358	1363	1363	1363	1363	1358	1347	1336	1331	1326	1326	1326	1326	1326	1326	1326	1326	1326	1326	1326	1326	1326	1326	1326	1326	1326	1326	1326	1326	1326	1321	1321	1321	1321	1321	1321	1321	1321	1321	1321	1321	1321	1219	1214	1214	1214	1214	1210	1210	1210	1210	1206	1206	1206	1206	1206	1206	1202	1202	1197	1197	1193	1193	1193	1193	1193	1189	1189	1189	1189	1189	1189	1189	1189	1189	1189	1189	1189	1189	1193	1197	1197	1202	1206	1210	1219	1223	1227	1232	1232	1236	1236	1240	1240	1240	1240	1379	1374	1374	1379	1379	1374	1368	1368	1363	1363	1363	1363	1363	1363	1363	1358	1358	1358	1352	1352	1352	1352	1347	1347	1342	1342	1342	1336	1336	1336	1336	1336	1331	1331	1331	1331	1326	1326	1326	1321	1321	1321	1321	1326	1326	1321	1321	1321	1321	1321	1316	1311	1311	1311	1306	1306	1306	1306	1301	1301	1301	1301	1301	1301	1301	1301	1296	1296	1296	1296	1291	1291	1291	1291	1287	1287	1193	1189	1189	1189	1185	1185	1185	1161	1150	1146	1142	1138	1138	1138	1134	1134	1127	1127	1127	1127	1123	1123	1123	1123	0	0	0	0	0	0	0	0	0	0	0	0	0	0	0	0	0	0
0	0	0	0	0	0	0	0	0	0	0	0	0	0	0	0	0	0	0	0	0	0	2076	2076	2088	2088	2088	2088	2088	2088	2088	2088	2088	2101	2101	2101	2101	2088	2088	2088	2088	2088	2088	2101	2101	2101	2101	2101	2114	2114	2114	2101	2101	2114	2114	2114	2114	2114	2114	2114	2114	2114	2114	2114	2114	2114	2114	2127	2127	2127	2127	2140	2127	2127	2140	2140	2140	2127	2127	2127	2167	2167	2153	2153	2153	2153	2153	2167	2153	2153	2167	2167	2167	2181	2181	2181	2167	2167	2167	2167	2167	2167	2167	2167	2153	2153	2153	2153	2153	2153	2167	2167	2167	2167	2167	2167	2181	2181	2167	2167	2167	2167	2167	2167	2167	2167	2181	2181	2181	2181	2181	2181	2181	2194	2194	2194	2194	2194	2194	1958	1958	1958	1969	1969	1969	1969	1969	1969	1969	1969	1958	1958	1958	1947	1947	1936	1936	1925	1925	1925	1925	1915	1915	1915	1904	1904	1894	1894	1894	1894	1883	1883	1873	1873	1873	1863	1863	1863	1843	1843	1843	1833	1833	1833	1824	1824	1824	1814	1814	1814	1814	1804	1804	1804	1795	1795	1795	1786	1786	1777	1777	1777	1768	1768	1768	1768	1759	1759	1750	1750	1750	1741	1732	1732	1732	1732	1732	1732	1723	1723	1723	1715	1715	1706	1706	1698	1698	1698	1698	1690	1690	1690	1690	1681	1681	1681	1681	1673	1673	1673	1665	1665	1665	1665	1657	1657	1657	1657	1649	1649	1649	1641	1634	1634	1634	1634	1634	1626	1626	1618	1618	1611	1611	1603	1603	1603	1603	1603	1603	1603	1603	1603	1603	1618	1626	1626	1626	1634	1634	1641	1863	1853	1853	1853	1853	1843	1843	1843	1843	1833	1833	1833	1833	1833	1833	1824	1824	1814	1814	1814	1814	1804	1804	1804	1804	1804	1795	1795	1795	1786	1786	1777	1777	1777	1777	1777	1759	1759	1759	1759	1759	1759	1750	1750	1750	1750	1741	1741	1732	1732	1723	1723	1723	1723	1723	1723	1723	1715	1715	1715	1715	1715	1706	1706	1706	1706	1698	1698	1690	1690	1690	1690	1690	1681	1681	1681	1681	1681	1681	1681	1681	1673	1665	1665	1657	1657	1657	1657	1649	1649	1649	1649	1649	1649	1649	1649	1641	1641	1641	1634	1634	1634	1626	1626	1626	1626	1626	1626	1626	1347	1352	1352	1352	1352	1352	1347	1347	1347	1347	1347	1347	1347	1347	1347	1347	1347	1347	1347	1347	1347	1347	1347	1352	1352	1358	1358	1358	1358	1358	1358	1358	1358	1358	1358	1358	1363	1363	1363	1368	1368	1363	1363	1358	1336	1331	1326	1326	1326	1326	1326	1326	1326	1326	1326	1326	1326	1326	1326	1326	1326	1326	1326	1326	1326	1326	1326	1321	1321	1326	1326	1326	1326	1326	1326	1326	1326	1326	1321	1214	1214	1214	1214	1214	1214	1210	1210	1210	1210	1206	1206	1206	1206	1206	1206	1202	1202	1197	1197	1193	1193	1193	1193	1189	1189	1189	1189	1189	1189	1189	1189	1189	1189	1189	1193	1193	1197	1202	1202	1206	1210	1214	1223	1223	1232	1232	1232	1236	1240	1240	1240	1240	1240	1379	1374	1374	1379	1379	1374	1374	1368	1368	1363	1363	1363	1363	1363	1363	1358	1358	1358	1352	1352	1352	1352	1352	1347	1347	1347	1347	1342	1342	1336	1336	1336	1331	1331	1331	1331	1331	1326	1326	1326	1326	1326	1321	1321	1326	1321	1321	1321	1321	1321	1316	1316	1316	1316	1316	1306	1306	1306	1301	1301	1301	1301	1301	1301	1301	1301	1296	1296	1296	1296	1291	1291	1291	1291	1287	1287	1193	1193	1193	1189	1181	1181	1157	1157	1150	1146	1142	1138	1138	1134	1131	1131	1127	1127	1127	1127	1127	1123	1123	1123	0	0	0	0	0	0	0	0	0	0	0	0	0	0	0	0	0	0
0	0	0	0	0	0	0	0	0	0	0	0	0	0	0	0	0	0	0	0	0	0	2063	2063	2063	2076	2076	2076	2076	2076	2088	2088	2088	2088	2101	2101	2101	2088	2088	2088	2088	2088	2088	2101	2101	2101	2101	2101	2114	2101	2101	2088	2088	2101	2101	2088	2088	2101	2114	2114	2114	2114	2114	2114	2114	2114	2114	2114	2114	2114	2127	2127	2114	2114	2114	2114	2114	2127	2127	2127	2127	2127	2127	2140	2140	2140	2140	2140	2153	2153	2153	2153	2153	2167	2167	2167	2153	2153	2153	2153	2153	2153	2153	2153	2153	2140	2140	2153	2153	2153	2153	2167	2167	2167	2167	2167	2167	2167	2167	2167	2167	2153	2153	2167	2167	2167	2167	2167	2167	2167	2181	2181	2181	2181	2181	2181	2181	2194	2194	1969	1969	1969	1969	1969	1969	1969	1969	1969	1969	1969	1969	1958	1958	1947	1947	1936	1936	1936	1925	1925	1925	1915	1915	1915	1915	1904	1894	1894	1894	1894	1883	1883	1873	1873	1873	1863	1863	1863	1843	1843	1843	1833	1833	1833	1824	1824	1824	1814	1814	1814	1814	1804	1804	1804	1795	1795	1795	1786	1786	1786	1777	1777	1768	1768	1768	1768	1768	1759	1759	1759	1750	1741	1732	1732	1732	1732	1732	1732	1723	1723	1723	1723	1715	1706	1706	1706	1698	1698	1698	1698	1698	1690	1690	1690	1690	1690	1681	1681	1681	1673	1673	1673	1665	1665	1665	1665	1657	1657	1657	1649	1649	1649	1641	1641	1641	1634	1634	1626	1626	1626	1618	1618	1611	1611	1603	1603	1603	1603	1603	1603	1603	1603	1618	1626	1626	1626	1626	1634	1634	1641	1863	1863	1863	1863	1853	1843	1843	1843	1843	1833	1833	1833	1833	1833	1833	1824	1824	1824	1814	1814	1814	1814	1804	1804	1804	1804	1795	1795	1795	1786	1786	1786	1786	1786	1777	1777	1768	1759	1759	1759	1759	1759	1759	1750	1750	1750	1741	1741	1732	1732	1732	1723	1723	1723	1723	1723	1723	1723	1723	1715	1715	1715	1715	1715	1706	1706	1706	1698	1698	1690	1690	1690	1690	1681	1681	1681	1681	1690	1681	1681	1681	1681	1673	1665	1665	1657	1657	1657	1657	1657	1649	1649	1649	1649	1649	1649	1649	1641	1641	1641	1641	1641	1634	1634	1634	1634	1626	1626	1626	1626	1352	1352	1352	1352	1352	1352	1347	1347	1347	1347	1347	1347	1347	1347	1347	1347	1347	1347	1347	1347	1347	1352	1352	1352	1358	1358	1358	1358	1358	1358	1358	1358	1358	1358	1363	1363	1363	1368	1368	1368	1368	1363	1363	1352	1331	1331	1326	1326	1331	1326	1326	1326	1326	1331	1326	1326	1326	1326	1326	1326	1326	1326	1326	1326	1326	1326	1321	1326	1326	1326	1326	1326	1326	1326	1326	1326	1326	1326	1214	1214	1219	1219	1219	1214	1214	1210	1210	1210	1206	1206	1206	1206	1206	1206	1202	1202	1197	1197	1197	1193	1193	1193	1193	1193	1193	1189	1189	1189	1189	1189	1189	1193	1193	1197	1197	1202	1206	1210	1214	1214	1219	1227	1227	1232	1236	1236	1236	1240	1240	1240	1240	1240	1379	1374	1374	1379	1374	1374	1374	1368	1368	1363	1363	1363	1363	1363	1363	1363	1363	1363	1358	1358	1358	1352	1352	1347	1347	1352	1352	1342	1342	1342	1336	1336	1336	1336	1331	1331	1331	1331	1331	1331	1326	1326	1321	1321	1321	1321	1321	1321	1321	1321	1316	1316	1316	1316	1316	1311	1311	1311	1306	1301	1301	1306	1301	1301	1301	1301	1301	1296	1296	1296	1291	1291	1291	1291	1291	1206	1197	1197	1197	1189	1189	1157	1157	1157	1150	1146	1142	1138	1134	1134	1131	1131	1127	1127	1127	1127	1127	1123	1123	1123	0	0	0	0	0	0	0	0	0	0	0	0	0	0	0	0	0	0
0	0	0	0	0	0	0	0	0	0	0	0	0	0	0	0	0	0	0	0	0	0	2063	2063	2063	2063	2063	2076	2076	2076	2076	2076	2076	2088	2088	2088	2101	2088	2088	2088	2076	2076	2088	2088	2101	2101	2088	2088	2101	2088	2088	2088	2088	2088	2088	2088	2088	2088	2088	2101	2101	2101	2101	2114	2101	2101	2101	2101	2101	2114	2114	2114	2114	2114	2114	2114	2114	2101	2101	2114	2114	2114	2114	2127	2127	2127	2127	2140	2140	2140	2140	2140	2153	2153	2127	2127	2140	2140	2140	2140	2140	2140	2140	2153	2153	2140	2140	2140	2153	2153	2153	2153	2153	2167	2167	2167	2167	2167	2153	2153	2153	2153	2153	2153	2153	2153	2167	2167	2167	2167	2167	2167	2167	2167	2167	2181	2181	2181	2181	1969	1969	1969	1969	1969	1969	1980	1980	1969	1969	1969	1969	1969	1958	1947	1947	1936	1936	1936	1925	1925	1925	1925	1915	1915	1915	1904	1894	1894	1894	1894	1883	1883	1873	1873	1873	1873	1863	1863	1853	1843	1843	1843	1833	1833	1833	1824	1824	1824	1814	1814	1814	1804	1804	1804	1804	1795	1795	1795	1786	1786	1777	1777	1777	1768	1768	1768	1768	1768	1759	1759	1759	1750	1750	1741	1741	1741	1732	1732	1732	1723	1723	1723	1723	1715	1715	1706	1706	1698	1698	1698	1698	1698	1690	1690	1690	1690	1681	1681	1681	1673	1673	1673	1665	1665	1665	1665	1665	1657	1657	1649	1649	1649	1641	1641	1641	1634	1634	1634	1626	1626	1626	1618	1618	1611	1611	1603	1603	1603	1603	1603	1611	1611	1618	1626	1626	1626	1626	1634	1634	1641	1863	1863	1863	1863	1853	1843	1843	1843	1843	1833	1833	1833	1833	1833	1833	1833	1833	1824	1824	1814	1814	1814	1804	1804	1804	1804	1804	1795	1795	1795	1795	1786	1786	1786	1786	1777	1768	1759	1759	1759	1759	1759	1759	1750	1750	1750	1750	1741	1732	1732	1732	1732	1732	1732	1723	1723	1732	1723	1723	1723	1715	1715	1715	1715	1715	1706	1706	1706	1698	1698	1690	1690	1690	1690	1690	1690	1690	1690	1681	1681	1681	1681	1673	1673	1665	1657	1657	1657	1657	1657	1649	1649	1649	1649	1649	1649	1649	1649	1649	1649	1641	1641	1641	1634	1634	1634	1626	1626	1626	1626	1352	1352	1352	1352	1352	1352	1347	1347	1347	1347	1347	1347	1347	1352	1352	1352	1352	1352	1352	1352	1352	1352	1352	1352	1358	1358	1358	1358	1358	1358	1358	1358	1363	1363	1363	1363	1363	1368	1368	1368	1368	1368	1363	1358	1342	1336	1331	1331	1331	1331	1331	1331	1331	1331	1326	1326	1326	1326	1331	1331	1331	1326	1326	1331	1331	1326	1326	1326	1326	1326	1326	1326	1331	1331	1331	1331	1331	1331	1219	1219	1219	1219	1219	1214	1214	1210	1210	1210	1210	1210	1210	1210	1206	1206	1206	1202	1202	1197	1197	1197	1193	1193	1193	1193	1193	1193	1193	1193	1193	1193	1193	1193	1193	1197	1197	1206	1210	1210	1219	1219	1223	1227	1236	1240	1240	1240	1240	1240	1240	1240	1245	1245	1379	1374	1374	1379	1374	1374	1374	1368	1368	1368	1368	1368	1363	1363	1363	1363	1358	1358	1358	1358	1358	1358	1358	1352	1352	1352	1352	1347	1347	1342	1342	1336	1336	1336	1331	1336	1336	1331	1331	1331	1326	1326	1326	1321	1321	1321	1321	1321	1321	1321	1316	1316	1316	1316	1316	1311	1311	1311	1311	1306	1306	1306	1301	1301	1301	1301	1301	1296	1296	1296	1291	1291	1291	1291	1291	1202	1197	1197	1197	1193	1193	1157	1153	1153	1150	1146	1142	1138	1134	1134	1131	1131	1131	1131	1127	1127	1123	1123	1123	1123	0	0	0	0	0	0	0	0	0	0	0	0	0	0	0	0	0	0
0	0	0	0	0	0	0	0	0	0	0	0	0	0	0	0	0	0	0	0	0	0	2063	2051	2051	2051	2063	2063	2063	2063	2076	2076	2076	2088	2088	2088	2088	2076	2076	2076	2076	2076	2088	2088	2088	2101	2088	2088	2101	2088	2088	2088	2088	2088	2088	2076	2076	2088	2088	2088	2101	2101	2101	2101	2101	2101	2101	2101	2101	2101	2101	2101	2114	2114	2114	2114	2101	2101	2101	2101	2101	2101	2114	2114	2127	2127	2127	2127	2127	2140	2140	2140	2140	2127	2127	2127	2127	2127	2127	2127	2127	2127	2140	2140	2140	2140	2140	2140	2153	2153	2153	2153	2153	2153	2153	2153	2140	2140	2140	2140	2140	2140	2140	2140	2140	2140	2140	2140	2140	2153	2153	2153	2167	2167	2167	2167	2167	2167	2167	1969	1969	1969	1969	1980	1980	1980	1980	1969	1969	1969	1969	1969	1958	1947	1947	1936	1936	1936	1925	1925	1925	1925	1925	1925	1915	1915	1904	1894	1894	1894	1894	1883	1883	1883	1873	1873	1863	1863	1853	1843	1843	1843	1843	1833	1833	1833	1824	1824	1824	1814	1814	1814	1804	1804	1804	1804	1795	1795	1795	1786	1786	1786	1777	1777	1768	1768	1768	1768	1759	1759	1759	1750	1750	1750	1750	1741	1732	1732	1732	1732	1732	1732	1723	1723	1715	1715	1706	1706	1698	1698	1698	1698	1698	1690	1690	1690	1690	1681	1681	1681	1673	1673	1673	1665	1665	1665	1665	1657	1657	1649	1649	1649	1641	1641	1641	1634	1634	1634	1626	1626	1626	1618	1618	1618	1611	1611	1611	1611	1611	1611	1611	1611	1618	1626	1626	1626	1634	1634	1641	1649	1873	1863	1863	1863	1853	1853	1843	1843	1843	1833	1833	1833	1833	1833	1833	1833	1833	1824	1824	1824	1814	1814	1814	1804	1804	1804	1804	1804	1795	1795	1795	1786	1786	1786	1786	1777	1768	1768	1759	1759	1759	1759	1759	1759	1750	1750	1750	1750	1741	1741	1741	1732	1732	1732	1732	1732	1732	1723	1723	1723	1723	1715	1715	1715	1715	1706	1706	1706	1698	1698	1698	1690	1690	1690	1690	1690	1690	1690	1681	1681	1681	1681	1673	1673	1665	1665	1665	1657	1657	1657	1657	1657	1649	1649	1649	1649	1649	1649	1649	1649	1641	1641	1641	1641	1634	1634	1626	1626	1626	1626	1618	1618	1352	1352	1347	1347	1347	1347	1347	1347	1347	1347	1347	1347	1347	1352	1352	1352	1352	1352	1352	1352	1358	1358	1358	1358	1358	1358	1358	1358	1358	1358	1363	1363	1363	1363	1368	1368	1368	1368	1368	1368	1368	1363	1358	1347	1336	1336	1336	1331	1331	1331	1331	1331	1331	1331	1331	1331	1331	1331	1331	1331	1331	1331	1331	1326	1326	1326	1326	1331	1331	1331	1331	1331	1331	1331	1331	1331	1219	1219	1219	1219	1219	1214	1214	1210	1210	1210	1210	1210	1210	1210	1206	1206	1206	1202	1202	1202	1197	1197	1193	1193	1193	1193	1193	1193	1193	1193	1193	1193	1193	1193	1197	1202	1202	1206	1210	1219	1223	1223	1227	1236	1240	1240	1240	1240	1240	1240	1245	1245	1245	1385	1385	1379	1379	1379	1374	1374	1374	1374	1368	1368	1368	1368	1368	1363	1363	1363	1363	1363	1363	1363	1363	1358	1358	1358	1358	1352	1352	1347	1347	1342	1342	1336	1336	1336	1336	1336	1336	1331	1331	1331	1331	1326	1326	1321	1321	1321	1321	1321	1321	1321	1316	1316	1316	1316	1316	1311	1311	1311	1311	1311	1306	1306	1301	1301	1301	1301	1301	1301	1301	1301	1296	1296	1296	1291	1291	1202	1197	1197	1197	1157	1153	1153	1153	1153	1146	1142	1142	1142	1138	1134	1131	1134	1131	1131	1127	1127	1123	1123	1123	1123	0	0	0	0	0	0	0	0	0	0	0	0	0	0	0	0	0	0
0	0	0	0	0	0	0	0	0	0	0	0	0	0	0	0	0	0	0	0	0	0	0	2039	2039	2051	2051	2051	2051	2051	2063	2063	2063	2076	2076	2076	2088	2076	2076	2076	2076	2076	2076	2076	2076	2076	2088	2088	2088	2076	2076	2076	2076	2076	2076	2076	2076	2076	2076	2088	2088	2088	2101	2101	2101	2101	2088	2088	2088	2088	2088	2088	2101	2101	2101	2101	2101	2101	2101	2101	2101	2101	2101	2101	2114	2114	2114	2127	2127	2127	2127	2127	2127	2114	2114	2114	2127	2127	2127	2127	2127	2127	2127	2127	2127	2127	2127	2127	2140	2140	2140	2140	2140	2140	2140	2127	2127	2127	2127	2127	2127	2127	2127	2127	2127	2127	2127	2127	2140	2140	2140	2140	2153	2153	2153	2153	2153	2167	2167	2167	1969	1969	1969	1980	1969	1969	1969	1969	1969	1969	1969	1969	1958	1947	1947	1936	1936	1936	1936	1925	1925	1925	1925	1925	1925	1915	1904	1894	1894	1894	1894	1883	1883	1883	1873	1873	1863	1863	1853	1853	1843	1843	1843	1843	1833	1833	1833	1833	1824	1824	1814	1814	1814	1814	1804	1804	1795	1795	1795	1786	1786	1786	1777	1777	1777	1777	1768	1768	1768	1768	1759	1759	1750	1750	1750	1750	1741	1732	1732	1732	1732	1732	1723	1723	1723	1715	1715	1706	1698	1698	1698	1698	1698	1698	1698	1690	1690	1681	1681	1681	1673	1673	1673	1665	1665	1665	1665	1657	1657	1657	1649	1649	1649	1649	1641	1641	1634	1634	1626	1626	1626	1626	1618	1618	1618	1611	1611	1611	1611	1611	1611	1618	1626	1626	1626	1626	1634	1634	1641	1641	1873	1873	1863	1863	1853	1853	1853	1843	1843	1843	1843	1843	1833	1833	1833	1833	1833	1833	1824	1824	1824	1814	1814	1814	1804	1804	1804	1804	1795	1795	1795	1795	1786	1786	1786	1777	1768	1768	1759	1759	1759	1759	1759	1759	1750	1750	1750	1750	1741	1741	1741	1732	1732	1732	1732	1732	1732	1723	1723	1723	1723	1715	1715	1715	1715	1706	1706	1706	1698	1698	1698	1690	1690	1690	1690	1690	1690	1690	1681	1681	1681	1681	1681	1673	1673	1673	1665	1665	1657	1657	1657	1657	1657	1649	1649	1649	1649	1649	1649	1649	1641	1641	1641	1641	1634	1634	1626	1626	1626	1626	1618	1618	1618	1352	1347	1347	1347	1347	1347	1347	1347	1347	1347	1347	1347	1352	1352	1352	1352	1352	1352	1358	1358	1358	1358	1358	1358	1358	1358	1358	1358	1358	1363	1363	1363	1363	1368	1368	1368	1368	1368	1368	1368	1363	1358	1352	1342	1342	1342	1336	1336	1336	1336	1336	1331	1331	1331	1331	1331	1331	1331	1331	1331	1331	1331	1326	1326	1326	1326	1331	1331	1331	1331	1331	1331	1331	1331	1223	1219	1219	1219	1219	1219	1219	1214	1214	1210	1210	1210	1210	1210	1210	1206	1206	1206	1206	1202	1202	1202	1197	1197	1197	1193	1193	1197	1197	1197	1193	1193	1197	1197	1197	1202	1202	1202	1210	1214	1223	1227	1227	1240	1240	1240	1245	1245	1245	1245	1245	1240	1240	1240	1385	1385	1385	1385	1385	1379	1379	1379	1379	1374	1374	1368	1368	1368	1368	1363	1363	1363	1363	1363	1363	1363	1358	1358	1358	1352	1352	1352	1347	1347	1342	1342	1342	1336	1336	1336	1336	1336	1336	1336	1331	1331	1326	1326	1321	1321	1321	1321	1321	1321	1321	1316	1316	1316	1316	1316	1316	1311	1311	1311	1311	1311	1306	1301	1301	1301	1301	1301	1301	1301	1301	1296	1296	1296	1301	1202	1202	1197	1197	1197	1153	1153	1153	1153	1150	1146	1142	1142	1142	1138	1134	1134	1134	1134	1131	1131	1127	1127	1127	1127	1127	0	0	0	0	0	0	0	0	0	0	0	0	0	0	0	0	0	0
0	0	0	0	0	0	0	0	0	0	0	0	0	0	0	0	0	0	0	0	0	0	0	2039	2039	2039	2039	2051	2051	2051	2063	2063	2063	2063	2063	2063	2076	2063	2063	2063	2063	2063	2076	2076	2076	2076	2076	2076	2076	2063	2063	2063	2063	2063	2076	2076	2076	2076	2076	2076	2088	2088	2088	2088	2088	2088	2088	2076	2076	2076	2076	2076	2088	2088	2088	2088	2088	2088	2088	2088	2088	2088	2101	2101	2101	2101	2114	2114	2114	2127	2127	2127	2127	2114	2114	2114	2114	2114	2114	2114	2114	2114	2127	2127	2127	2127	2127	2127	2127	2127	2127	2127	2127	2127	2127	2127	2127	2127	2127	2114	2114	2114	2114	2127	2127	2127	2127	2127	2127	2127	2127	2127	2127	2127	2140	2140	2140	2140	2140	2153	2167	1980	1980	1980	1969	1969	1980	1980	1969	1969	1969	1969	1969	1958	1958	1958	1936	1936	1936	1936	1925	1925	1925	1925	1925	1915	1904	1904	1894	1894	1894	1883	1883	1883	1873	1873	1863	1863	1853	1853	1853	1843	1843	1843	1843	1833	1833	1833	1833	1824	1824	1814	1814	1814	1804	1804	1804	1795	1795	1795	1786	1786	1786	1777	1777	1777	1777	1768	1768	1768	1759	1759	1759	1759	1750	1750	1741	1741	1741	1732	1732	1732	1732	1723	1723	1715	1715	1706	1706	1706	1706	1706	1698	1698	1698	1690	1690	1690	1690	1681	1681	1681	1673	1673	1673	1665	1665	1657	1657	1657	1657	1657	1649	1649	1641	1641	1634	1634	1634	1634	1626	1626	1626	1626	1626	1618	1618	1618	1618	1618	1618	1618	1626	1626	1626	1626	1626	1634	1634	1634	1873	1873	1863	1863	1853	1853	1853	1843	1843	1843	1843	1843	1843	1843	1833	1833	1833	1833	1824	1824	1824	1814	1814	1814	1814	1804	1804	1804	1795	1795	1795	1795	1786	1786	1786	1777	1768	1768	1759	1759	1759	1759	1759	1759	1759	1759	1750	1750	1741	1741	1741	1741	1732	1732	1732	1732	1732	1723	1723	1723	1723	1723	1715	1715	1715	1715	1715	1706	1706	1698	1698	1698	1690	1690	1690	1690	1690	1690	1681	1681	1681	1681	1681	1681	1673	1673	1673	1665	1665	1657	1657	1657	1657	1657	1649	1649	1649	1649	1649	1649	1649	1649	1641	1641	1634	1634	1626	1626	1626	1626	1618	1618	1618	1618	1347	1347	1347	1347	1347	1347	1347	1347	1347	1347	1347	1352	1358	1358	1358	1358	1358	1358	1363	1363	1363	1363	1363	1363	1358	1358	1363	1363	1363	1363	1363	1363	1368	1368	1368	1368	1368	1368	1368	1368	1363	1358	1352	1347	1347	1342	1342	1342	1342	1336	1336	1336	1336	1336	1331	1331	1331	1331	1331	1331	1331	1331	1331	1331	1331	1331	1331	1331	1336	1336	1336	1336	1336	1223	1223	1223	1219	1219	1219	1219	1214	1214	1214	1214	1210	1210	1210	1210	1210	1206	1206	1206	1202	1202	1202	1197	1197	1197	1193	1193	1197	1197	1202	1197	1197	1202	1202	1202	1202	1206	1206	1210	1219	1227	1227	1240	1245	1245	1245	1245	1245	1245	1245	1245	1240	1240	1240	1240	1385	1385	1385	1385	1385	1379	1379	1379	1374	1374	1374	1374	1374	1368	1368	1363	1363	1363	1363	1363	1363	1358	1358	1358	1352	1352	1352	1347	1347	1342	1342	1342	1336	1336	1336	1336	1336	1336	1336	1331	1331	1326	1326	1321	1321	1321	1321	1321	1321	1321	1316	1316	1316	1316	1316	1316	1316	1311	1311	1311	1311	1306	1301	1301	1301	1301	1301	1301	1301	1301	1296	1296	1296	1296	1202	1202	1197	1197	1197	1150	1150	1150	1150	1150	1146	1142	1142	1142	1138	1138	1138	1138	1138	1134	1131	1127	1127	1127	1127	1127	0	0	0	0	0	0	0	0	0	0	0	0	0	0	0	0	0	0
0	0	0	0	0	0	0	0	0	0	0	0	0	0	0	0	0	0	0	0	0	0	0	2039	2039	2039	2039	2039	2039	2039	2051	2051	2051	2051	2051	2051	2051	2051	2051	2051	2063	2063	2063	2063	2063	2063	2063	2063	2063	2063	2063	2063	2063	2063	2063	2063	2063	2063	2076	2076	2076	2076	2076	2088	2076	2076	2076	2076	2076	2076	2076	2076	2076	2076	2076	2076	2076	2076	2076	2088	2088	2088	2088	2088	2101	2101	2101	2101	2114	2114	2114	2114	2127	2114	2114	2114	2114	2114	2114	2114	2114	2114	2114	2114	2127	2114	2114	2114	2114	2114	2127	2127	2127	2127	2114	2114	2114	2114	2114	2114	2114	2114	2114	2114	2114	2114	2127	2127	2127	2127	2127	2127	2127	2127	2127	2127	2127	2127	2127	2140	2140	1980	1980	1980	1980	1980	1980	1980	1980	1980	1969	1969	1969	1958	1958	1958	1947	1936	1936	1936	1936	1925	1925	1925	1925	1915	1904	1904	1894	1894	1894	1883	1883	1883	1873	1873	1873	1873	1853	1853	1853	1853	1843	1843	1843	1833	1833	1833	1833	1824	1824	1814	1814	1814	1804	1804	1804	1795	1795	1795	1795	1795	1786	1786	1777	1777	1777	1768	1768	1768	1759	1759	1759	1759	1750	1750	1750	1741	1741	1732	1732	1732	1732	1723	1723	1715	1715	1706	1706	1706	1706	1706	1706	1698	1698	1698	1690	1690	1690	1690	1690	1690	1673	1673	1673	1665	1665	1657	1657	1657	1657	1657	1649	1649	1641	1641	1641	1634	1634	1634	1626	1626	1626	1626	1626	1618	1618	1618	1618	1618	1611	1611	1618	1626	1626	1626	1626	1634	1634	1634	1873	1873	1873	1863	1863	1853	1853	1853	1843	1843	1843	1843	1843	1843	1843	1833	1833	1833	1833	1833	1824	1824	1814	1814	1814	1804	1804	1804	1795	1795	1795	1795	1786	1786	1786	1777	1768	1768	1759	1759	1768	1768	1759	1759	1759	1759	1750	1750	1750	1750	1741	1741	1741	1732	1732	1732	1732	1732	1732	1723	1723	1723	1715	1715	1715	1715	1715	1715	1706	1698	1698	1698	1690	1690	1690	1690	1690	1690	1681	1681	1681	1681	1681	1681	1673	1673	1673	1665	1665	1657	1657	1657	1657	1657	1649	1649	1649	1649	1649	1649	1649	1649	1649	1641	1641	1634	1634	1626	1626	1626	1618	1618	1618	1618	1618	1347	1347	1347	1347	1347	1342	1342	1342	1347	1347	1352	1358	1358	1358	1358	1358	1363	1363	1363	1363	1363	1363	1363	1363	1363	1363	1363	1363	1363	1363	1363	1368	1368	1368	1368	1368	1368	1374	1368	1368	1368	1363	1358	1352	1347	1347	1347	1347	1342	1342	1342	1342	1336	1336	1336	1336	1336	1336	1336	1336	1331	1331	1331	1331	1336	1336	1336	1336	1336	1336	1336	1223	1223	1223	1223	1219	1219	1219	1219	1214	1214	1214	1214	1214	1214	1214	1210	1210	1210	1206	1206	1206	1206	1202	1202	1197	1197	1197	1197	1197	1197	1202	1202	1202	1202	1206	1206	1206	1210	1210	1214	1223	1232	1245	1245	1249	1245	1245	1245	1249	1245	1245	1245	1245	1385	1385	1385	1385	1385	1385	1385	1385	1379	1379	1379	1379	1379	1374	1374	1374	1368	1368	1368	1363	1363	1363	1363	1363	1358	1358	1358	1352	1352	1352	1347	1347	1347	1342	1342	1342	1336	1336	1336	1336	1336	1336	1336	1336	1331	1331	1316	1316	1316	1316	1316	1321	1321	1316	1316	1316	1316	1316	1316	1316	1311	1311	1311	1311	1306	1301	1301	1301	1301	1301	1301	1301	1301	1301	1301	1301	1301	1206	1197	1193	1193	1157	1150	1150	1150	1150	1150	1146	1142	1142	1138	1138	1138	1138	1138	1138	1138	1134	1131	1131	1131	1131	1131	0	0	0	0	0	0	0	0	0	0	0	0	0	0	0	0	0	0
0	0	0	0	0	0	0	0	0	0	0	0	0	0	0	0	0	0	0	0	0	0	0	2039	2039	2027	2027	2039	2039	2039	2039	2039	2039	2039	2039	2039	2039	2027	2027	2027	2051	2051	2051	2051	2051	2063	2063	2063	2051	2051	2051	2063	2063	2063	2063	2063	2063	2063	2063	2063	2063	2063	2063	2076	2076	2076	2076	2076	2076	2076	2076	2076	2076	2076	2076	2076	2076	2076	2076	2076	2076	2076	2076	2076	2088	2088	2101	2101	2101	2101	2101	2101	2114	2101	2101	2114	2114	2114	2114	2114	2114	2114	2114	2114	2114	2114	2114	2114	2114	2114	2114	2114	2114	2114	2114	2114	2114	2114	2114	2114	2101	2101	2114	2114	2114	2114	2114	2114	2114	2127	2127	2127	2127	2127	2127	2114	2114	2114	2114	2127	2127	1980	1980	1980	1980	1980	1980	1980	1980	1980	1969	1969	1969	1969	1958	1958	1947	1947	1936	1936	1936	1925	1925	1925	1925	1915	1915	1904	1894	1894	1894	1894	1883	1883	1883	1873	1873	1873	1863	1853	1853	1853	1853	1843	1843	1843	1833	1833	1833	1833	1824	1814	1814	1814	1804	1804	1804	1795	1795	1795	1795	1795	1786	1786	1786	1777	1777	1777	1768	1768	1759	1759	1759	1759	1759	1750	1750	1741	1741	1732	1732	1732	1732	1723	1723	1723	1715	1715	1715	1706	1706	1706	1706	1698	1698	1698	1698	1690	1690	1690	1690	1681	1681	1681	1681	1673	1665	1665	1657	1657	1657	1657	1649	1649	1641	1641	1641	1634	1634	1634	1634	1634	1626	1626	1626	1618	1618	1618	1618	1618	1611	1611	1618	1626	1626	1626	1634	1634	1634	1634	1873	1873	1873	1863	1863	1853	1853	1853	1843	1843	1843	1843	1843	1843	1843	1843	1833	1833	1833	1833	1833	1824	1824	1824	1814	1814	1814	1804	1804	1795	1795	1795	1795	1795	1786	1786	1777	1768	1759	1759	1768	1768	1759	1759	1759	1759	1750	1750	1750	1750	1750	1741	1741	1741	1741	1741	1732	1732	1732	1723	1723	1723	1715	1715	1715	1715	1715	1715	1706	1698	1698	1698	1698	1690	1690	1690	1690	1690	1681	1681	1681	1681	1681	1681	1681	1681	1673	1673	1665	1657	1657	1657	1657	1657	1649	1649	1649	1649	1649	1649	1649	1649	1649	1649	1641	1641	1634	1626	1626	1626	1626	1618	1618	1618	1618	1618	1618	1347	1347	1342	1342	1342	1342	1342	1347	1347	1358	1358	1358	1358	1358	1363	1363	1363	1363	1363	1363	1363	1363	1363	1363	1363	1368	1368	1368	1368	1368	1368	1368	1368	1374	1374	1374	1374	1374	1368	1368	1363	1358	1352	1352	1352	1352	1347	1347	1347	1342	1336	1336	1336	1336	1336	1336	1336	1336	1331	1331	1336	1336	1336	1336	1336	1336	1336	1336	1336	1223	1223	1227	1223	1219	1219	1219	1219	1214	1214	1214	1214	1214	1214	1214	1210	1210	1210	1206	1206	1206	1206	1202	1202	1202	1202	1197	1197	1197	1202	1202	1202	1202	1202	1206	1206	1210	1210	1214	1223	1236	1236	1254	1254	1249	1249	1249	1249	1249	1249	1249	1249	1249	1385	1385	1385	1385	1390	1385	1385	1385	1385	1379	1379	1379	1379	1379	1374	1374	1374	1368	1368	1368	1363	1363	1363	1363	1358	1358	1358	1358	1352	1352	1347	1347	1347	1347	1342	1342	1342	1342	1342	1342	1336	1336	1336	1336	1331	1331	1316	1316	1316	1316	1316	1316	1316	1316	1316	1316	1316	1316	1316	1316	1316	1311	1311	1311	1306	1306	1301	1301	1301	1301	1301	1301	1301	1301	1301	1301	1296	1296	1173	1173	1173	1157	1153	1153	1150	1150	1146	1146	1142	1142	1138	1138	1138	1138	1138	1138	1138	1134	1131	1131	1131	1131	1131	0	0	0	0	0	0	0	0	0	0	0	0	0	0	0	0	0	0
0	0	0	0	0	0	0	0	0	0	0	0	0	0	0	0	0	0	0	0	0	0	0	2027	2027	2027	2027	2027	2027	2027	2039	2039	2039	2039	2039	2039	2039	2027	2027	2027	2027	2039	2039	2039	2039	2051	2039	2039	2039	2039	2051	2051	2051	2051	2051	2063	2063	2063	2063	2063	2063	2063	2063	2063	2063	2063	2063	2063	2076	2076	2076	2076	2076	2076	2063	2063	2063	2063	2063	2076	2076	2076	2076	2076	2076	2076	2076	2088	2088	2088	2088	2101	2101	2101	2101	2101	2101	2114	2114	2114	2114	2114	2114	2114	2114	2101	2101	2088	2088	2101	2101	2101	2114	2114	2114	2114	2114	2114	2114	2101	2101	2101	2101	2101	2101	2114	2114	2114	2114	2114	2114	2114	2114	2114	2114	2114	2101	2101	2101	2127	2127	1980	1980	1980	1980	1980	1980	1980	1980	1980	1980	1969	1969	1969	1969	1958	1947	1947	1936	1936	1936	1936	1925	1925	1925	1925	1925	1915	1904	1904	1894	1894	1883	1883	1883	1873	1873	1873	1863	1863	1853	1853	1853	1843	1843	1843	1843	1833	1833	1833	1824	1814	1814	1814	1804	1804	1804	1795	1795	1795	1795	1795	1795	1786	1786	1786	1786	1777	1768	1768	1768	1759	1759	1759	1759	1759	1750	1750	1741	1741	1732	1732	1732	1732	1723	1723	1715	1715	1715	1706	1706	1706	1706	1706	1698	1698	1698	1698	1690	1690	1690	1681	1681	1681	1681	1673	1665	1665	1657	1657	1657	1657	1649	1649	1649	1649	1641	1641	1634	1634	1634	1634	1626	1626	1626	1626	1618	1618	1618	1618	1611	1611	1618	1626	1626	1634	1634	1634	1634	1634	1873	1873	1873	1863	1863	1863	1853	1853	1853	1853	1843	1843	1843	1843	1843	1843	1833	1833	1833	1833	1833	1824	1824	1824	1824	1814	1814	1804	1804	1795	1795	1795	1795	1795	1795	1786	1777	1768	1759	1759	1768	1768	1759	1759	1759	1759	1759	1750	1750	1750	1750	1741	1741	1741	1741	1741	1732	1732	1732	1723	1723	1723	1715	1715	1715	1715	1715	1715	1706	1706	1698	1698	1698	1690	1690	1690	1690	1690	1690	1690	1681	1681	1681	1681	1681	1681	1673	1673	1665	1665	1657	1657	1657	1657	1657	1649	1649	1649	1649	1649	1649	1649	1649	1649	1641	1641	1634	1634	1626	1626	1626	1618	1618	1618	1618	1618	1611	1611	1347	1342	1342	1342	1342	1342	1347	1347	1358	1358	1358	1358	1358	1363	1363	1363	1363	1363	1363	1363	1363	1363	1363	1363	1368	1368	1368	1368	1368	1374	1374	1374	1374	1374	1374	1374	1374	1374	1374	1368	1368	1363	1363	1363	1363	1363	1352	1347	1342	1336	1336	1336	1336	1336	1336	1336	1336	1336	1336	1336	1336	1336	1336	1336	1336	1336	1336	1227	1223	1227	1227	1223	1223	1223	1223	1223	1219	1219	1219	1219	1219	1219	1214	1214	1210	1210	1210	1206	1206	1206	1202	1202	1202	1202	1197	1197	1197	1202	1202	1202	1202	1206	1210	1210	1214	1236	1240	1240	1249	1249	1254	1254	1249	1249	1249	1254	1254	1249	1249	1249	1249	1390	1385	1385	1390	1390	1385	1385	1385	1385	1379	1379	1379	1379	1379	1374	1374	1374	1374	1368	1368	1363	1363	1363	1363	1363	1363	1358	1358	1352	1352	1347	1347	1347	1347	1347	1342	1342	1342	1342	1342	1336	1336	1336	1336	1336	1331	1331	1326	1321	1321	1321	1316	1316	1316	1316	1321	1321	1321	1316	1316	1316	1316	1316	1316	1311	1306	1301	1301	1301	1301	1301	1301	1301	1301	1301	1301	1296	1296	1173	1169	1161	1157	1157	1153	1150	1150	1142	1142	1142	1142	1138	1138	1138	1138	1138	1138	1138	1134	1134	1134	1134	1134	1134	0	0	0	0	0	0	0	0	0	0	0	0	0	0	0	0	0	0
0	0	0	0	0	0	0	0	0	0	0	0	0	0	0	0	0	0	0	0	0	0	0	2027	2027	2027	2027	2027	2027	2027	2027	2039	2039	2039	2039	2039	2039	2015	2015	2027	2027	2027	2027	2027	2027	2039	2039	2039	2039	2039	2039	2051	2051	2039	2039	2051	2051	2051	2051	2051	2051	2051	2063	2063	2063	2063	2063	2063	2063	2063	2063	2063	2063	2063	2051	2051	2063	2063	2063	2063	2063	2063	2063	2063	2063	2063	2076	2076	2076	2076	2076	2088	2088	2088	2088	2076	2076	2088	2088	2088	2101	2101	2101	2101	2101	2088	2088	2088	2088	2088	2088	2088	2101	2101	2114	2114	2114	2114	2101	2101	2101	2101	2101	2101	2101	2101	2101	2114	2114	2114	2101	2101	2101	2101	2101	2101	2101	2101	2101	2114	2051	1992	1992	1980	1980	1980	1980	1980	1980	1980	1980	1969	1969	1969	1969	1958	1958	1958	1947	1936	1936	1936	1936	1925	1925	1925	1925	1915	1915	1904	1904	1894	1894	1894	1883	1883	1883	1883	1863	1863	1863	1853	1853	1853	1843	1843	1843	1843	1833	1833	1824	1824	1814	1814	1804	1804	1804	1795	1795	1795	1795	1795	1795	1786	1786	1786	1786	1777	1777	1777	1768	1768	1768	1759	1759	1759	1750	1750	1741	1741	1732	1732	1732	1732	1723	1723	1715	1715	1715	1715	1706	1706	1706	1706	1706	1706	1698	1698	1698	1690	1690	1690	1690	1681	1681	1673	1673	1665	1665	1657	1657	1657	1657	1657	1657	1649	1649	1641	1634	1634	1634	1634	1634	1626	1626	1626	1626	1618	1618	1618	1618	1618	1618	1626	1634	1634	1634	1634	1641	1873	1873	1873	1873	1863	1863	1863	1863	1863	1853	1853	1853	1853	1853	1853	1843	1843	1833	1833	1833	1833	1833	1833	1833	1824	1824	1824	1814	1814	1804	1804	1804	1804	1795	1795	1795	1786	1777	1777	1768	1768	1768	1768	1768	1759	1759	1759	1759	1759	1750	1750	1750	1750	1741	1741	1741	1741	1732	1732	1732	1723	1723	1723	1715	1715	1715	1715	1715	1715	1706	1706	1698	1698	1698	1698	1698	1698	1690	1690	1690	1690	1690	1681	1681	1681	1681	1681	1681	1673	1673	1665	1665	1657	1657	1657	1657	1649	1649	1649	1649	1649	1649	1649	1649	1649	1649	1641	1641	1634	1634	1626	1626	1626	1618	1618	1618	1618	1611	1611	1611	1611	1618	1618	1342	1342	1347	1347	1347	1358	1358	1363	1363	1363	1363	1363	1363	1368	1368	1368	1368	1368	1368	1368	1368	1368	1368	1368	1374	1374	1374	1374	1374	1374	1374	1379	1374	1374	1374	1374	1374	1368	1368	1368	1368	1374	1368	1363	1352	1336	1336	1336	1336	1336	1336	1336	1336	1336	1336	1336	1336	1336	1336	1336	1342	1342	1342	1227	1227	1227	1227	1227	1223	1223	1223	1223	1219	1219	1219	1219	1219	1219	1214	1214	1214	1210	1210	1210	1206	1206	1206	1206	1202	1202	1202	1202	1202	1202	1206	1206	1206	1210	1210	1214	1240	1240	1249	1249	1259	1259	1259	1259	1254	1254	1254	1254	1254	1249	1249	1249	1402	1396	1390	1390	1390	1390	1390	1385	1385	1385	1385	1385	1385	1385	1379	1379	1374	1374	1374	1374	1368	1368	1368	1363	1363	1363	1363	1358	1358	1352	1352	1347	1347	1352	1347	1347	1347	1342	1342	1342	1342	1342	1336	1336	1336	1336	1336	1331	1326	1326	1326	1321	1321	1321	1321	1321	1321	1321	1321	1316	1316	1316	1316	1316	1316	1311	1306	1301	1301	1306	1301	1301	1301	1301	1301	1301	1296	1296	1296	1169	1169	1161	1157	1157	1153	1150	1146	1142	1142	1142	1138	1138	1138	1138	1138	1138	1138	1138	1134	1134	1134	1134	1134	1134	0	0	0	0	0	0	0	0	0	0	0	0	0	0	0	0	0	0
